0.28883017757324153 0.8889278825565751 -0.5727690181360138
-0.32165161028976386 -0.989941865694734 -0.6378560528385935
0.19277620931615846 0.5933041657713947 -0.6238369177918232
-0.20755282338367906 -0.6387819076222033 -0.6716550453916075
-0.1310573554256004 -0.40335306521910336 -0.6920854530816277
0.12448638168201737 0.38312968750526183 -0.6573855667170063
-0.0664266647311622 -0.4194014550612005 -0.6929321162316275
-0.0664266647311622 -0.4194014550612005 -0.6929321162316275
0.07292391648240228 0.46042348814680817 -0.7607084290104809
-0.10451976529277024 -0.6599118264307301 -0.6681377103561827
0.0973696793891019 0.6147679607263715 -0.6224311206872628
0.14568376912037304 0.9198111179473336 -0.5706870830107842
-0.16243161432676498 -1.025552850986759 -0.636293423272731
-0.2769468725265729 -1.7485737358992237 -0.5752280590523906
0.23476025575663084 1.482217920368943 -0.48760502340956896
-0.5750348474046048 -3.6306271387918767 -0.2892982947379293
0.39905079597258536 2.519507567504217 -0.2007612500524697
0.926860660622636 5.851967899898936 0.9384140953452483
-0.09495235438061873 -0.599505571292613 0.09613594742184237
0.7664056341219881 4.838894733293237 2.0293201236111242
-0.1024019665395019 -0.6465405713445047 0.27114410717248544
0.5108066077098878 3.2251059931343566 2.372384653164149
-0.09757632649781567 -0.6160726792220307 0.45318242951749604
0.29072837026434717 1.8355866881155467 2.1759858742961624
-0.27245206403733063 -1.7201946319920953 2.0391950129566756
0.1707256558665706 1.0779193683214605 2.141906297162971
-0.15944315946672316 -1.0066844895876315 2.000357272419844
0.0770251488603481 0.4863176502850981 2.0509088886306537
-0.07355961820157741 -0.46443715083914267 1.9586339922227578
0.015017708643862022 0.09481808069713325 1.942
-0.015017708643861677 -0.09481808069713331 1.91
-1.6465195194651677e-16 0.096 1.9429999999999998
4.939558558395502e-16 -0.096 1.91
-8.416926187852971e-16 0.4907472425813408 2.0441093766965626
2.417090956608293e-15 -0.46976005870000054 1.956691464500771
-1.8671428515257565e-15 1.0886340041975104 2.1365645332881695
5.232665103120799e-15 -1.0169650667382077 1.9959063237121504
8.934657210371811e-15 -1.7364448301515953 2.0331156759613545
-3.338910010358191e-15 1.9467449805788186 2.27934551584247
-5.837617820034139e-15 3.403611703949392 2.4728686517360194
3.1185917834262423e-15 -0.6060962891108376 0.44035473010525505
-8.282351634432426e-15 4.829008994462355 2.000241018327962
3.2551602054872863e-15 -0.6326382733040948 0.26204735287885184
-8.591856156957117e-15 5.009465003705548 0.7934213109372468
3.1984476993684184e-15 -0.621616234546891 0.09845433940535406
1.8247190581214614e-14 -3.546329646845225 -0.27910219616947246
-5.185115784242344e-15 3.023171662422526 -0.23792876985647793
9.162972247318842e-15 -1.7808177094034503 -0.5786227491855533
-2.5917869405912607e-15 1.511136329422815 -0.49099795712257366
-1.6016256679007699e-15 0.9338247272550884 -0.5722485288464785
5.360123265389593e-15 -1.0417364778534932 -0.6383769346627411
-1.069957981361686e-15 0.6238369177918199 -0.6238369177918232
3.579007667457209e-15 -0.6955778173576249 -0.6955778173576286
8.468234270549882e-16 -0.1645795834510475 -0.2685694709215471
-2.0610867599168715e-16 0.12017126223701931 -0.19610167702587747
0.012307290722251521 -0.07770517543915861 -0.12838394099359765
0.012307290722251521 -0.07770517543915861 -0.12838394099359765
-0.1061705513216086 0.6703344792206823 -0.6786902828242072
0.10451976529277761 -0.6599118264307289 -0.6681377103561827
-0.1456837691203762 0.9198111179473331 -0.5706870830107842
0.1628305190359785 -1.0280714361986927 -0.6378560528385935
-0.23505726128483634 1.4840931394724841 -0.48822191397762604
0.2778383565549385 -1.754202344533499 -0.5770797016530937
0.5617835074547693 -3.54696147111187 -0.28263158563709095
-0.46279653870186194 2.921982347215211 -0.23283154066461992
0.5531848069740891 -3.4926714129277405 0.5600803251770066
-0.6097164700188266 3.8495982861036384 0.6173166625126147
0.5443195086173868 -3.4366981220000667 1.4412714146820993
-0.6080372009189996 3.8389957982810596 1.6099857213897784
-0.5433233990231829 3.430408933540971 2.5234052850773283
0.4585545679003204 -2.895199597641695 2.1297058477811226
-0.3082951589651648 1.9464990268832678 2.30746627999222
0.27204594066686544 -1.717630469946552 2.0361553415390157
-0.17129336222997413 1.0815037252332664 2.1490286820706967
0.1593012499778935 -1.0057885083375135 1.9985768907529369
-0.07709811104026915 0.4867783153590779 2.052851614942054
0.07359609562417335 -0.4646674602212757 1.959605257729318
-0.015017708643862348 0.0948180806971332 1.944
0.015017708643862733 -0.09481808069713313 1.9089999999999998
-0.029665631459995147 0.09130142556433468 1.944
0.029665631459995505 -0.09130142556433457 1.908
-0.15186542819735852 0.4673937282290775 2.047023447479426
0.14523589790403507 -0.44699013198610543 1.9576627278126977
-0.3373876583942148 1.0383724418859754 2.1427965932152833
0.31383900315997204 -0.9658971333489185 1.9932357632462585
-0.5185408706200254 1.5959047008597633 1.9647248029356006
0.5333819974860431 -1.6415809926884137 2.020957072577723
-0.5260477639910696 1.6190085430031558 1.2368124707015178
0.8520880602966036 -2.6224573953983974 2.003379181987331
-0.547408466795818 1.684750026367823 0.733759033425736
0.9396766077719994 -2.8920272260085107 1.2595643678794775
-0.5696700841984625 1.753264239758836 0.29198030884322895
1.0176950842574781 -3.1321434066833582 0.5216123037737229
-0.5777620280495912 1.7781686821332006 -0.14714678666113884
1.0327473342071878 -3.1784694685510253 -0.26302429769302765
-0.466086742511871 1.4344674943244162 -0.4900726029695008
0.5470743939175957 -1.6837218557702796 -0.5752280590523906
-0.2883052452538882 0.887312306999159 -0.5717280432224091
0.3219142753170364 -0.9907502655249248 -0.6383769346627411
-0.034439108738220744 0.10599267799860962 -0.11144729696138918
0.20690066649440447 -0.6367747751004031 -0.669544621365897
0.02596309925345146 -0.07990620314639303 -0.13710549287276133
0.03738663723885694 -0.07337540701048963 -0.13438485406479078
0.037198788142858194 -0.07300673240123284 -0.1337096375913028
-0.2832160340642881 0.5558427637820734 -0.6238369177918232
0.30460563542389285 -0.5978222201189951 -0.670951563080378
-0.4224051739354214 0.829016831945384 -0.570166608443378
0.4740961542344484 -0.9304660929201046 -0.6399395959511339
-0.5878077753516172 1.1536377151226893 -0.4206923358972471
0.6912133901151791 -1.3565826609858604 -0.4946994372727765
-0.573722601630541 1.1259940052058404 -0.09945791380676305
0.7037637221611408 -1.3812140745068422 -0.12200124488751342
-0.5581282843512432 1.0953884342873101 0.19471516694067006
0.6838227392521513 -1.3420776919595616 0.2385664059044768
-0.5408910586620111 1.0615584740638602 0.49350022168454694
1.6094469526358728 -3.1587174972963674 1.4684332735691048
-0.5223702232999112 1.0252092880114718 0.8359738426437823
0.9009083095754117 -1.768132112869563 1.4417662949234826
-0.4914349687538914 0.9644954324489777 1.2674195170782723
0.7453117016185651 -1.462756575472494 1.9221721224548078
-0.4551031901806187 0.893190302137386 1.9674206897496902
0.4610747255844356 -0.9049101002549043 1.9932357632462585
-0.22385330524044653 0.4393368485569492 2.0538229795269545
0.21358418825867034 -0.41918257168625006 1.959605257729318
-0.04358308797499667 0.08553662632208323 1.9449999999999998
0.043583087974997006 -0.08553662632208306 1.9089999999999998
-0.05642738422007763 0.0776656314599948 1.944
0.05642738422007789 -0.07766563145999461 1.9089999999999998
-0.28872813724443896 0.39740018803456334 2.0460520895894736
0.2763921539414888 -0.3804211636451458 1.9586339922227578
-0.40668484612766553 0.5597536695397168 1.3579176209796153
0.5649665575477861 -0.7776097554795999 1.8864190565819567
-0.44356670185127395 0.6105171889511175 0.8835707911673
0.8837155071916641 -1.2163300469386045 1.7603332409698198
0.9013317951853377 -1.2405767872389097 1.114107369130983
-0.4720345572065293 0.6496998303766793 0.5834668004362801
0.9235591367708321 -1.271170098337321 0.6508341585843511
-0.48989109445452966 0.6742772454070469 0.34522733365194047
-0.5081429196601037 0.699398727635599 0.136924040916892
0.6838389855644469 -0.9412236162442407 0.1842670508970655
0.6954851487940085 -0.9572531847562651 -0.09312222119861445
-0.5239587721401121 0.7211673810459215 -0.07015563849608188
-0.5365517798870876 0.7385001692332119 -0.29659852923188224
0.7080750754687015 -0.9745817322113702 -0.3914142750844391
-0.5493876449674399 0.756167221863416 -0.5727690181360138
0.5743540280671295 -0.7905305001813799 -0.5987979448244958
-0.36792164211142914 0.5064006963522338 -0.6259456845445953
0.3964429609757171 -0.5456569239850291 -0.6744690504389378
0.09673745198096491 -0.13314767993904672 -0.2685694709215471
-0.04743639779830425 0.06529060030186419 -0.1316963388866344
0.116727278610762 -0.11672727861076058 -0.26938167134430563
-0.05450038239697821 0.05450038239697793 -0.12577526242137732
0.116727278610762 -0.11672727861076058 -0.26938167134430563
-0.05422039885299012 0.05422039885298984 -0.12512912009778288
-0.44062228722569174 0.44062228722568947 -0.6231340144784282
0.47592672755372917 -0.47592672755372345 -0.6730620328023282
-0.549292208730884 0.5492922087308812 -0.4760337581045032
0.6561097920903877 -0.6561097920903798 -0.5686052070164556
-0.5298417709770314 0.5298417709770288 -0.2434653886199193
0.6990236280733795 -0.699023628073371 -0.32120544016294306
-0.5127378546611921 0.5127378546611895 -0.05706824681799215
0.6878213064601167 -0.6878213064601085 -0.07655521379375653
-0.49760871742019186 0.4976087174201892 0.11145908978125615
0.6758939020501517 -0.6758939020501434 0.1513930855186305
-0.47841083544797075 0.4784108354479683 0.2802465790191765
0.9076174847268661 -0.9076174847268551 0.5316700131060375
0.8872522978709135 -0.8872522978709027 0.9116395778187701
-0.456388851906949 0.45638885190694656 0.4689332913220345
0.867686047243384 -0.8676860472433736 1.4367417467444599
-0.4243279544589749 0.42432795445897276 0.7026155236893973
-0.38421452294742403 0.38421452294742203 1.0664067707552158
0.6793351584013676 -0.6793351584013594 1.8855289669266784
-0.32376174693721277 0.3237617469372111 1.9071585310194663
0.3326651724178652 -0.33266517241786114 1.959605257729318
-0.06788225099390874 0.06788225099390839 1.944
0.06788225099390897 -0.06788225099390816 1.9089999999999998
-0.07766563145999512 0.05642738422007719 1.944
0.07766563145999529 -0.056427384220076954 1.9089999999999998
-0.3179930790647703 0.2310354955519254 1.637217151590461
0.3798552246479877 -0.2759809751917898 1.9557202022886135
0.5326312301685352 -0.386979240461248 1.2921207529101866
-0.3729964588916193 0.27099779018016307 0.904859568867888
-0.41500163513486615 0.30151633711724213 0.6006109733319805
0.5607886168532018 -0.4074367793651498 0.8116011323479204
-0.4455910000031572 0.32374081159872853 0.4001656502269816
0.574830261966354 -0.4176386317030134 0.5162297388149265
-0.4681928334020276 0.34016200477389974 0.23971291425199154
0.5903651841677282 -0.42892541335156625 0.30226468385140953
-0.4855319662933599 0.3527596222181891 0.09505450352184328
0.597049334704881 -0.4337817329803976 0.11688669753646934
-0.5020183365863667 0.3647376713685027 -0.04883667490462204
0.6026281838079417 -0.43783500411109577 -0.05862406720262904
-0.5184920622490942 0.37670653365716744 -0.20823825029202203
0.6100226726971636 -0.4432074147619785 -0.2449990332540368
0.6167976556282987 -0.44812972798795847 -0.467201668345558
-0.5407348678561535 0.39286687787285207 -0.40958688816297045
-0.5052633366156444 0.3670953018931516 -0.6245398305952968
0.5479335990940052 -0.3980970622648295 -0.6772831756363082
0.13395312659040623 -0.09732264322721465 -0.2701941209425604
-0.07887369436485345 0.05730509329696244 -0.15909452102277483
0.1475285569491594 -0.0751695542927836 -0.2701941209425604
-0.11089466456369713 0.05650365380835127 -0.20310024735979795
0.1475285569491594 -0.0751695542927836 -0.2701941209425604
-0.11089466456369713 0.05650365380835127 -0.20310024735979795
-0.5552164723439664 0.28289692263776844 -0.6231340144784282
0.6003294900014043 -0.30588315323772153 -0.6737655378542319
-0.5307526566429476 0.2704319859463581 -0.3650317225167726
0.6060926974331626 -0.3088196540949178 -0.41684777001069356
-0.5082125136131193 0.2589472094374162 -0.18532777377287493
0.5987306041308837 -0.30506848019585425 -0.2183366347364976
-0.4915545251453652 0.25045954037571083 -0.043418514989602155
0.594178783813234 -0.3027492119024859 -0.0524832121601753
-0.47400906976440166 0.24151968433614102 0.08425938439875692
0.5851946658606009 -0.2981715751643597 0.1040236262216632
-0.4531095446774682 0.23087084442200123 0.21064281074380312
0.5775440608581888 -0.2942733972116014 0.26849027070077586
0.5622048412480963 -0.2864576744448754 0.45843180215691476
-0.4294654553663969 0.21882357918789133 0.3501937518550752
-0.39739240754038807 0.20248154507768795 0.5222035027958033
0.5490747429309042 -0.27976755519790214 0.7215254962466333
0.5180149460730166 -0.26394179824268155 1.141025960609744
-0.35405841037577446 0.18040177069399807 0.7798806595708409
-0.273004990640368 0.1391029905702548 1.2762506153181137
0.41585835850722536 -0.2118904170444057 1.9440651421247241
-0.08553662632208345 0.043583087974996236 1.944
0.08553662632208361 -0.0435830879749959 1.9089999999999998
-0.09130142556433483 0.02966563145999468 1.944
0.09130142556433495 -0.02966563145999433 1.9089999999999998
-0.2670535653551942 0.08677096333312341 1.1696025791495674
0.43612384819774386 -0.14170522827633378 1.910072149766166
0.5090209415671344 -0.1653909297101774 1.0504211162270638
-0.35475468365720736 0.11526678405109941 0.7320755991820733
-0.40155855681717273 0.1304742843007587 0.4943603812838508
0.5375577733913991 -0.17466310843796684 0.6617895729136779
-0.4326116390399952 0.14056404234369352 0.3304858843689534
0.5512598604490329 -0.1791151864024899 0.4211250601160115
-0.45426042488785817 0.14759815926519232 0.19784400360442958
0.5660279423866128 -0.18391362709959094 0.2465221008442243
-0.4745629340286261 0.15419484436797637 0.07903145966308332
0.5735598808761009 -0.18636090226564025 0.09551794154047455
-0.492967419931931 0.16017482433700095 -0.04079397669100438
0.5798555957666381 -0.1884065040354426 -0.04798413587072123
-0.5103480296530825 0.1658221267679401 -0.1743557022393411
0.5853616731966548 -0.1901955370414384 -0.19998342241778827
0.5922367607611189 -0.1924293884044587 -0.3815999864799041
-0.5360175859736995 0.17416267121006843 -0.3453758988173627
0.5906302171253479 -0.1919073907343391 -0.6210253618009509
-0.5679077725118673 0.18452442093286048 -0.5971335696475303
0.1574713446166147 -0.051165541458216564 -0.2701941209425604
-0.14708999675947804 0.04779243706598829 -0.2523814886488118
-0.1527554591428998 0.024194087902865223 -0.2523814886488118
0.4199139120374015 -0.06650782994252745 -0.6937787940213952
-0.1527554591428998 0.024194087902865223 -0.2523814886488118
0.4204263778420112 -0.06658899655217602 -0.6946254863973974
-0.5447045232073547 0.08627272105043837 -0.5514943336064312
0.6015792309368353 -0.09528078980279141 -0.6090779917219156
0.6660071435514822 -0.10548516868353992 -0.41321709055434824
-0.519825906676491 0.08233233529514884 -0.17100705632461852
0.6460204467443056 -0.1023195868957992 -0.21252125664450802
-0.5003472186046262 0.07924721418663039 -0.03986903407749853
0.6528061009860632 -0.10339432894511576 -0.052017374571994165
-0.48039690727531814 0.07608739529243773 0.0770358342456404
0.653520206887539 -0.10350743220865342 0.104797665371131
-0.45831468483996096 0.07258991485089185 0.19220653974822907
0.650157121180856 -0.10297477176123704 0.27266080422118416
-0.4319638479731863 0.06841635230166468 0.31775216251338456
0.6470050089089681 -0.10247552622321399 0.47593621943699727
-0.39800290997460686 0.06303746814386352 0.4718103021996832
0.6444012982066653 -0.10206313896086276 0.7639018801750787
-0.35550744368928133 0.05630684749993217 0.7064198442895923
0.6091065080801045 -0.0964729933802957 1.2103401271389405
0.43403875336648184 -0.06874498503110663 1.8304372394619661
-0.2633220746242645 0.04170611941445898 1.1104873185313555
-0.3577330560392277 0.05665934986635781 0.710842302265106
0.6113429284068701 -0.0968272075620809 1.214784061371667
-0.35604115559005317 0.11568478412073183 0.7347303765661518
0.5072996142129232 -0.16483163654912975 1.0468689664957855
-0.264619210761109 0.08597999357789006 1.158940945001303
0.4345715737501584 -0.14120086373435425 1.9032737226602436
-0.3580793663882569 0.1824505501136555 0.7887375762129055
0.5200318196133855 -0.26496944663991145 1.1454685063051406
-0.2736273271020824 0.1394200868356466 1.2791599295044034
0.41565059720724895 -0.21178455737464771 1.943093894359941
-0.37226518273202175 0.27046648695049896 0.903085551408143
0.5311653175732698 -0.38591419261844895 1.2885645662297782
-0.45111924053542923 0.38529223018225545 0.431029382037839
0.5769945222348093 -0.4927998770589658 0.5512990136774168
-0.4180200564500373 0.35702285635032266 0.6436543423678308
0.562022438422508 -0.48001250945373913 0.865384752279321
-0.37602381677503316 0.3211546791818073 0.9705188103574118
0.5330108182533326 -0.45523424501324444 1.3757028203039101
-0.4575246819806363 0.45752468198063395 0.4701003411581802
0.8855394107009099 -0.8855394107008991 0.9098796097237194
-0.42478470098396404 0.4247847009839618 0.7033718188980354
0.8663101421295945 -0.8663101421295839 1.4344634799418288
-0.383254574448729 0.38325457444872696 1.0637423853209236
0.6793351584013676 -0.6793351584013594 1.8855289669266784
-0.46919484288297025 0.6457912989224296 0.5799567204956813
0.8975324722856965 -1.2353474678898115 1.1094111477585553
-0.40055969608227565 0.5513231237570692 1.33746579137009
0.5657662820789914 -0.7787104818657081 1.8890893307345187
-0.4914317694097939 0.7170466340118141 0.36007074397552324
0.9242545729133569 -1.3485771000793916 0.677198855278276
-0.49396696368077003 0.7584669925398468 0.37492060495464985
0.9264624856509192 -1.4225469856457 0.7031844255327708
-0.49167268469769676 0.8023369000390732 0.38977617931044706
0.9207594388319942 -1.5025428436977284 0.7299370237592648
-0.43895402720587656 0.7163078698678822 1.6488002903823975
0.5237791623468858 -0.8547299097586593 1.9674206897496902
-0.5350845408671813 0.929601675416391 0.44428623564994185
0.9265282736754463 -1.6096563622142417 0.769306020815651
-0.5332952396361641 0.9791489591866073 0.46183168265634383
0.9086526826881014 -1.6683185267566984 0.7868898242600906
-0.55544593025376 1.0901240179561047 0.19377936948956515
0.6806901852816829 -1.3359297086280584 0.23747354645547142
-0.5383814789341321 1.056633146525522 0.4912105218786249
1.6169943860986307 -3.173530169499977 1.475319429343678
-0.4879027658667995 0.9575630939551953 1.2583099030662042
0.7456063322469931 -1.4633348206390908 1.922931980081028
-0.4513967942006482 0.885916090449534 1.951397861756538
0.4610747255844356 -0.9049101002549043 1.9932357632462585
-0.5710900103359144 1.213628048573276 -0.1055611662058891
0.6985883363037388 -1.4845757831513475 -0.12912815518288973
-0.5574141428117865 1.1845653507227365 0.20735091815692913
1.2647794408905877 -2.687793127077748 0.4704817445280003
0.03447710853598604 -0.074786629720711 -0.13438485406479078
-0.5217407332590897 1.1677327152559025 0.9292399652292965
0.9061399498277579 -2.0280748589525035 1.6138694983829793
-0.5713955583334267 1.320417227742554 -0.11323188860696194
0.6998380827522931 -1.6172303890350004 -0.13868499093735626
-0.5582782991160383 1.2901050301785377 0.22264400248858524
1.1064172718833987 -2.55677945962304 0.4412443941035544
-0.49987254338932924 1.2067990737084449 1.529398717163684
0.6287443039130816 -1.5179230257717682 1.9236918381405932
-0.5314816288140403 1.2831101564349914 1.0090429151857445
0.9147241056939203 -2.2083393417958277 1.7366468155440324
-0.5469405817819731 1.3204313703502626 0.5920042197441867
1.3160099258744398 -3.177129011263634 1.4244388792738405
-0.562082818486332 1.3569879635665891 0.2326339869792482
1.1140964565784126 -2.6896667752633694 0.46110055680271456
-0.5741878541482641 1.3862121048346354 -0.11808602185924355
1.0909526403962422 -2.633792660351304 -0.2243625608074324
-0.04095338562598385 0.09887021900334497 -0.10701635389042209
0.2567620471103232 -0.6198784164364121 -0.670951563080378
0.03072754988802075 -0.07418286767815441 -0.1310294616524262
-0.5735870130600245 1.4487154238008595 -0.12262772643401146
1.0358773686544593 -2.6163275788444396 -0.22146123201929674
-0.5624706338913331 1.4206386549901673 0.2420012354464522
1.0197468504766531 -2.5755865405259133 0.4387429010305508
-0.5268846465074873 1.3779700762740856 1.0718432899299546
0.9071080286491334 -2.372374537219893 1.8453330538173807
0.028790834428051075 -0.07804097157895382 -0.13574127820213525
-0.5639923841347348 1.5665491117284762 0.26370716937682787
0.9383425386543788 -2.6063466666863317 0.4387429010305508
-0.573645296145215 1.5933611062890234 -0.13327962776015934
0.9498104140318772 -2.6381999159347136 -0.2206770965883498
0.025704763572259245 -0.07911112767332282 -0.13574127820213525
-0.03409355244009467 0.10492916506869979 -0.11032905329060003
0.20646590708282955 -0.635436723216767 -0.6681377103561827
-0.2875178606883537 0.8848889864843877 -0.570166608443378
0.3211262842425764 -0.9883250783676181 -0.636814297137083
-0.462273202492997 1.422730624989969 -0.4860628096990339
0.5470743939175957 -1.6837218557702796 -0.5752280590523906
-0.5737624775901295 1.7658593315280144 -0.14612816485903535
1.0333632104757622 -3.1803649408037544 -0.2631811515697137
-0.5654028078814057 1.7401309136892527 0.28979314702530284
1.0180001702534727 -3.133082364830653 0.52176867340907
-0.5454125210551486 1.6786071370206699 0.7310836213591009
0.9348252772503775 -2.8770963659287196 1.2530615316789155
-0.5195546169557189 1.5990246912679993 1.2215461664281353
0.8550868742414586 -2.631686795707529 2.01042981643195
-0.5105188812895517 1.5712155563619694 1.9343298961896371
0.5341842363455106 -1.644050030019079 2.0239967145314806
-0.5117447773393566 1.7359626842300713 1.3149113437135662
0.7817446639295462 -2.65186793352992 2.0086671559851412
-0.520203637796654 1.7646571951566379 0.7620434100528892
0.9326891718561139 -3.163908397357112 1.3662911702252603
-0.5380008030457661 1.8250295059756443 0.3013543400059239
0.9471345576761301 -3.212910657572119 0.5305254339945819
-0.5424696250303941 2.0139753459438516 -0.1641524043373364
0.8575458485186338 -3.1837288527191436 -0.25949510602726505
-0.5366778650169024 1.99247282978704 0.32682394612593346
0.8701491298219445 -3.230519855665051 0.5298999471824576
-0.5272108333414771 1.9573254823341617 0.8396461715584298
0.8571687519006519 -3.182328841996678 1.3651435353695083
-0.5188478815045391 1.926277147014068 1.449401679573193
0.722205226322915 -2.6812626060761127 2.0174804703713476
-0.5179861363945637 2.1575675348342815 1.6121072219713393
0.648425393415301 -2.7008861421134753 2.0180680257398653
-0.5262240941867653 2.1918810985321526 0.9337052278930433
0.7661431455456503 -3.1912158679975677 1.3594053716143486
-0.5333097387780734 2.2213949323192708 0.36183183551302533
0.7773403696069282 -3.237855662805659 0.5273980058899463
-0.026543569391009766 0.11056192348175108 -0.11370356194948365
0.15630208775252907 -0.6510450501802456 -0.669544621365897
-0.0176252628466897 0.07341450328309916 -0.12320576616896195
0.019418536825438086 -0.08088402697448757 -0.13574127820213525
-0.5781518838697808 2.7376067002140414 -0.22020661688743762
0.6504182225327884 -3.0797950047812845 -0.24773143587670654
-0.5852418111809724 2.7711782115290857 0.44859262409459083
0.6843806244175933 -3.2406103571985123 0.524583333455721
-0.5821586352255144 2.7565790665827703 1.166997503472064
0.674134143944065 -3.192092252561045 1.351371972148511
-0.5771202433760927 2.7327217798211008 2.0292316030401536
0.5939978768631988 -2.8126390538231685 2.0885756091630285
-0.5741727023468425 3.075485792322885 2.273078276060857
0.5358793739588233 -2.8703722665199836 2.1214797543597785
-0.5772171529110535 3.091793019081297 1.3027898086588714
0.62077606678918 -3.3251110089710894 1.4011030843307075
-0.5813895882838649 3.114142158383839 0.5017536885878973
0.623606222379699 -3.3402703909360065 0.538187694810592
0.012307290722251521 -0.07770517543915861 -0.12838394099359765
-0.1061705513216086 0.6703344792206823 -0.6786902828242072
0.1046298093760546 -0.6606066174282 -0.6688411620108338
-0.1456837691203762 0.9198111179473331 -0.5706870830107842
0.16309645888985244 -1.0297505143539016 -0.6388978191271786
-0.23476025575663595 1.4822179203689423 -0.48760502340956896
0.2776897753552373 -1.7532642397588336 -0.5767710934556585
-0.46295240933461174 2.922966475658829 -0.23290995870912237
0.5616276106297214 -3.5459771772965913 -0.28255315441532247
-0.6007576689371653 3.7930346422046277 0.6082461888485611
0.5531848069740891 -3.4926714129277405 0.5600803251770066
-0.5970560918923385 3.769663804531167 1.5809094926471492
0.5443195086173868 -3.4366981220000667 1.4412714146820993
-0.5407928720927357 3.414431815300934 2.511652533324318
0.4586810816232388 -2.895998373851398 2.1302934267398443
-0.3076858883406687 1.942652243555009 2.302906132417625
0.27204594066686544 -1.717630469946552 2.0361553415390157
-0.44308304118247477 3.3999347820762886 2.4910852848195204
0.3779693056841859 -2.900293781326697 2.125005220219071
-0.6258351076709426 4.802256806616542 2.0059803043179625
0.44583531815053284 -3.42105398846386 1.429029557813668
-0.6485130885329429 4.976273071635861 0.7948289693470381
0.45263999466024846 -3.4732687071414614 0.5547634840414922
-0.5913530106046766 4.9963163593739015 0.796862255287271
0.4116910473356776 -3.478360096125443 0.5547634840414922
-0.5305707146993472 4.98526079346735 0.794046936786937
0.37016251706308884 -3.4780598182306735 0.5539815987654579
-0.5091975868283352 4.78443814446476 1.9929712640574668
0.364428146431533 -3.42417947336297 1.4263516608074516
-0.3679085998336194 3.456881933955463 2.525755838726461
0.3108179788480225 -2.920456483795549 2.1338189028784447
-0.3927281773091228 4.990084626554312 0.792795685264356
0.04861828076461159 -0.6177538293159421 0.0981451432368573
-0.37721276612091426 4.792942635431004 1.991440790619475
0.05135930687254159 -0.6525818682304988 0.27114410717248544
-0.27294594367630726 3.4681070422594833 2.5275187546803344
0.23087459043348538 -2.933539814428171 2.137931963523839
-0.25532418226183246 4.997021258585504 0.7924828724943412
0.031371645199426736 -0.6139832764354717 0.0973722554686114
-0.2452868202705791 4.800577228857933 1.9910581723225071
0.032936347115494216 -0.644606496957216 0.2673530645405706
-0.17747898717259447 3.47349108884722 2.526931115960851
0.1500750973366023 -2.937161866658595 2.136756802775179
-0.19643805605270112 4.999682388606036 0.7924828724943412
0.024212943380620043 -0.6162605608554536 0.09768139283900949
-0.13752466626339732 5.001649614174535 0.7924828724943412
0.01692445855914512 -0.6155274826140705 0.09752682117891906
-0.13216904337483848 4.806870380150288 1.9918234089414697
0.017589525654904518 -0.6397153804893048 0.26507893268356825
-0.09550616850149851 3.4734742778572123 2.52458056176516
0.016328106166346393 -0.5938386772790291 0.4316121155812399
-1.6001689177419481e-15 0.9329753719113246 -0.5717280432224091
5.351376133283016e-15 -1.0400364784055585 -0.6373351736612093
-2.578761458491859e-15 1.5035418474457731 -0.488530360345547
9.133649739538949e-15 -1.7751188990470366 -0.5767710934556585
-5.1065032943977755e-15 2.9773368032795875 -0.2343214882098626
1.8257445870934475e-14 -3.548322755746491 -0.27925905724188943
-8.590162452022023e-15 5.008477492340837 0.7932649045024327
3.183380880530087e-15 -0.6186880080841812 0.09799055389591428
-8.250665632251151e-15 4.810534532584184 1.9925886456604793
3.2598670311695695e-15 -0.6335530418206684 0.26242626240484856
-5.963854041465499e-15 3.4772134870691396 2.5263434773095432
3.1185917834262423e-15 -0.6060962891108376 0.44035473010525505
-3.3689695954317716e-15 1.9642711631290328 2.2998660390769974
8.958033736491436e-15 -1.7409880428313393 2.0384350945561898
0.266057630416055 5.207088586049489 0.8257976715458447
-0.03261715958676289 -0.6383595882140625 0.10123812046686904
0.012056922072151099 0.15319772033685897 -0.2507689955192541
-0.01291276529283381 -0.1640722395209272 -0.2685694709215471
0.23383368382365463 2.971138660877364 -0.23455674398601856
-0.2798837844003104 -3.5562606669259385 -0.2807492406138243
0.39402695306520275 5.006587137217676 2.0802088831905
-0.04863164274805173 -0.6179236094132882 0.2567437949654869
0.396076372667976 3.72154730213367 0.5927640213405181
-0.06485619204847574 -0.6093910245613372 0.09706314201103822
0.01307788535290028 0.0825705184556215 -0.13642242629665502
-0.0664266647311622 -0.4194014550612005 -0.6929321162316275
0.14555090349406344 0.9189722373979731 -0.570166608443378
-0.16243161432676498 -1.025552850986759 -0.636293423272731
0.23476025575663084 1.482217920368943 -0.48760502340956896
-0.2770954526685206 -1.7495118339954967 -0.5755366650528361
0.38003868933567087 2.3994698504282335 -0.19119631663276532
-0.5750348474046048 -3.6306271387918767 -0.2892982947379293
0.9304139027070562 5.874402187491451 0.9420116290392061
-0.09479974580237391 -0.5985420386505672 0.09598143655847338
0.7658276225319219 4.835245311740956 2.027789640927831
-0.1022587745566021 -0.6456364927455818 0.2707649575948975
0.5101739962481213 3.2211118415594266 2.3694465593715894
-0.09745075451943265 -0.6152798489533142 0.4525992243868519
0.29072837026434717 1.8355866881155467 2.1759858742961624
-0.2723505331217503 -1.7195535910200637 2.0384350945561898
0.3359392218037793 1.7994173173308334 0.7582210478111095
-0.12500721294158731 -0.6695858332664283 0.28214359571232434
0.5219650003836769 2.7958416278036906 0.4504687898339625
-0.1121103843197076 -0.6005055495286346 0.0967540526954827
-0.4378019464568168 -2.3450325323302064 -0.1877468454904198
0.5993195034378507 3.0129826080343833 2.231946221682173
-0.12905165092672777 -0.6487864612279945 0.4806056586436971
0.5295683227922938 2.507558704113559 -0.20170209944193992
-0.5003387484038074 -2.36915376084033 -0.1905691327099719
0.5952365702227637 2.8185043901393123 0.456253688461655
-0.12703355358158674 -0.6015165169215136 0.0973722554686114
0.5743355745931268 2.7195360960400983 1.1513153651766155
-0.14093707870882327 -0.6673510918953991 0.28252302559444875
0.6038728473157129 2.515311432088001 1.8794089453554867
-0.1465490413756445 -0.6104206883489558 0.4560986315562308
0.6339924845140478 2.6407687499854333 1.124923970177575
-0.15815713523410474 -0.6587718790287891 0.28062596454251965
0.6793930484360137 2.8298757084515747 0.46094420535735203
-0.1467087466247239 -0.6110859085862284 0.09953670675256601
0.6243375532708126 2.600553067097747 -0.2104836449330824
-0.580615249337182 -2.4184365645752046 -0.19574349379431347
0.7474044982805249 2.774817544669332 -0.22616611095674935
-0.6942835383581314 -2.5776004126860275 -0.2100916011784771
0.718149499618574 2.6662052955549433 0.4373358185106402
-0.166243199112302 -0.6171953027310264 0.10123812046686904
0.572584761405801 2.1257809464812523 0.9119095671080178
-0.17501302375823688 -0.6497541960039436 0.2787291270934342
0.6139242917157627 2.1768113398045266 1.6432411128436744
-0.17018315044870835 -0.6034239347413345 0.4555153677809762
0.7627063381446982 2.587285304461376 -0.21228705818327823
-0.7353810238710388 -2.494591195963496 -0.20468149587053067
0.7129444256059165 2.418480800559304 0.39934679580970733
-0.16528773405321637 -0.5606961735284285 0.09258383207737636
0.6342549899671316 2.15154710634112 0.92911660026982
-0.178626151800509 -0.6059433289490647 0.2616684543369097
0.5524355809555968 1.700221892856896 2.0931501245597186
-0.5379948922384542 -1.655778022926694 2.0384350945561898
0.6277089791455884 1.931889591253472 1.4758323226933654
-0.20069021525724365 -0.6176609715693874 0.4718509952304452
0.6760357287037272 2.0806240327737475 0.9061740052331707
-0.19973700393991667 -0.6147272887906011 0.26773212297605015
0.7144930340713564 2.1989834483878226 0.3662082713155323
-0.177324249637209 -0.5457479238504026 0.0908862701598874
0.7577995972341024 2.332267344885447 -0.19299948811543147
-0.26107071867663045 -0.8034930529095916 -0.06649055403357843
0.46843359359163833 1.441690359256836 -0.4925402282257944
-0.5485419068416723 -1.6882383961373657 -0.5767710934556585
0.28856771048937113 0.8881200919334967 -0.5722485288464785
-0.3211262842425653 -0.9883250783676216 -0.636814297137083
0.5709124243217029 1.547525841666921 1.9312904424576338
-0.2271610557575844 -0.6157469850526818 0.768443560156263
0.5420690091180467 1.417681989390833 -0.4931571415995391
-0.6343151009485867 -1.658934709579783 -0.5770797016530937
0.5778349683933699 1.3950170175087078 1.7679307877184964
-0.25190227313782504 -0.6081458842019571 0.7707144920891369
0.7631238438863504 1.8423439336807224 -0.15694211965550459
-0.3111807991375697 -0.7512569056280286 -0.06399665611813539
0.6195391404112768 1.3866199752521828 -0.493465599338081
-0.33688027549120203 -0.7539877447524385 -0.268326593441842
0.5794585042789915 1.256942662485701 1.6205492849778158
-0.3004952372981264 -0.6518245583499609 0.840383458602691
0.6899204137118659 1.3540450519133718 -0.4937740577759837
-0.3830708290722822 -0.7518188334898385 -0.2741626917066816
0.8492676832796122 1.6667816771905932 -0.1472251429566082
-0.3781548788882641 -0.7421707380141446 -0.0655551920792139
0.9104505065406475 1.7868597288791666 1.4570371252819028
-0.30140759113248217 -0.5915457047956181 0.4823568628573349
0.5785855255174879 1.1355380307138436 1.492182351612623
-0.33789859051253457 -0.6631633235352918 0.8714464692953138
1.0229938411734514 1.8782529458216766 0.8859088397986449
-0.32974597079784795 -0.6054252881067735 0.28555877724807405
1.6533400628720751 3.007414409823567 2.49343582313396
-0.3314547132970507 -0.6029138852668233 0.4998736040096872
1.0678366477331567 1.8551512162826105 -0.16846322590751736
-0.3730796243608515 -0.6481507451280629 -0.05885750144801168
2.1085844497200568 3.6632410161580014 1.750779505230876
-0.3622083643036987 -0.6292641192004317 0.30074535593312834
0.63027564067072 1.0949770490324797 1.4792710633515536
-0.37226729518051865 -0.6467394867018649 0.8737196903352863
0.5052927980804729 0.8778445195037733 1.9878946621451532
-0.5091394259540476 -0.884527261094825 2.0030278503603665
1.714463869536551 2.899000082566157 2.4470129058374765
-0.35227517431718164 -0.5956647891959281 0.5027938548470632
1.8863549050811377 3.0782514343803298 0.5718087781870566
-0.37076369505357687 -0.6050313612992899 0.11238920888833825
2.2523923060873376 3.6755701847645357 1.7855961795290014
-0.3630829205319654 -0.5924974764377424 0.2878359484721906
1.8428151269672426 2.9038119926364985 2.498724538487818
-0.35358681000340214 -0.5571636591760089 0.47943823865563545
1.2094723166355887 1.8570975348700542 -0.17442035796233538
-0.3800909798802628 -0.5836148641462955 -0.05481366035180224
2.3807951434655528 3.6556180171692385 1.807021969262823
-0.368231981361328 -0.5654058347930614 0.2794878349493445
1.0634723061946478 1.632920217413878 2.281625564705578
-0.3451215150136647 -0.5299206157486686 0.740440599156492
0.5327178609281497 0.8179674827638008 1.915792493405584
-0.32222263702383724 -0.4947602823691557 1.158796718660955
1.8872005098241134 2.7769312221988525 2.43937373579712
-0.35691831601749924 -0.5251893534174664 0.46134852199630577
2.506468268172952 3.6571803998535564 1.836482600943737
-0.36851054085781304 -0.5376926348032438 0.27000668835239583
0.8703684564596745 1.1979594076195004 -0.4811278496365991
-0.38777611130650896 -0.533728028792901 -0.21435736232013602
1.7881036657357425 2.4611135574469114 -0.23941875017092137
-0.38269575255915084 -0.5267355148635297 -0.05124117831039297
1.6328736294653525 2.2474577420102624 0.43999364549363634
-0.376856119408067 -0.5186979493721938 0.1015475385313396
2.6690213211481733 3.6735926917804393 1.8808652057374593
-0.37024247854645137 -0.5095950536617766 0.2609106903966022
2.0191335816595175 2.779098956812372 2.4957863625837846
-0.3590842943309914 -0.49423713064233055 0.4438525974456494
1.1442679895586247 1.5749497730023925 2.27934551584247
-0.3477889276362689 -0.47869039213862213 0.6927845049420391
0.5393766605889613 0.7423882839587645 1.8009745844549445
-0.3236358184701989 -0.4454464893592765 1.0806175466466477
2.0414890729140973 2.653321701826448 2.432322205586493
-0.3612811474564845 -0.4695568160150495 0.4304466622316112
2.841646072089139 3.693285108414224 1.9302221916002602
-0.3729570702622609 -0.48473200347034906 0.25333556511672956
1.653355786394107 2.148865182323908 -0.21338479747433445
-0.3850065720336914 -0.5003927312060582 -0.049689576844722985
2.452401330327826 3.1616167442780028 0.6337375460766674
-0.380394708747006 -0.4904019035287876 0.09829973841583756
1.209236676245214 1.5339094112549132 2.286945687786886
-0.3519234785666621 -0.4464128043909135 0.6655685338936782
1.9432906473165574 2.4061974216977937 -0.24341821597178903
-0.3867857791323642 -0.47892112576306095 -0.048449111021899534
-0.37508670056250887 -0.4644352367222743 0.2472789476519501
0.3606565886057322 0.44656776114256175 0.41704803057129464
-0.3631749177841304 -0.4496859756949867 0.4199601199587145
1.7317600942019558 2.0933383546159523 0.430300487128951
-0.38379372597887634 -0.4639269200984718 0.0953634558266286
0.42668608271554326 0.49958521481375384 -0.05170686565979438
-0.39085152926948935 -0.4576283434596084 -0.04736434661342322
3.1409897524537986 3.67762648882447 2.003301970167463
-0.37940532714606634 -0.444226562669762 0.24198214552275227
2.2246514999006046 2.6047322434102376 2.4887347476436816
-0.3670688799264299 -0.4297824387952803 0.4106427799106388
1.276113643604644 1.494137105924792 2.300626062032847
-0.35618474643737097 -0.41703875582210453 0.6421433660388444
0.33878001950719666 0.3966604388475996 1.0237820054269033
-0.3308477543823409 -0.3873729496678755 0.9998109627753495
1.8044922078202348 2.0467946382383744 0.43217656206080246
-0.3865707172020533 -0.43847840840770985 0.09258383207737636
2.0845944488467536 2.3090910223022663 -0.24482980733638773
-0.39339218407830384 -0.4357578333769596 -0.04620281546313026
2.7933665787811526 3.0941930660091326 1.7266758314198658
-0.38107251259691616 -0.4221114174848309 0.2355540094585955
0.662355530728992 0.7336866940352303 0.7181427336597987
-0.3696164531560809 -0.40942161874703387 0.4007475709956045
0.6186334579918719 0.669233904474877 1.0670682385650556
-0.3578332236832797 -0.38710180049709075 0.6172192317810121
0.7384756959799879 0.7863967429272622 0.1708619593714945
-0.3901488973759559 -0.41546637732737385 0.09026919289987129
2.1493768733420615 2.270916652992484 -0.24608456169316437
-0.39611395070693806 -0.4185128156442571 -0.045351529156772465
0.7119982511640021 0.7522592736171767 0.4290331870570854
-0.3840127478987285 -0.40572733194466154 0.23139693507981893
0.665598000101138 0.7032352498879882 0.7034944815535825
-0.37310433441073704 -0.39420208564893405 0.3943473992737259
0.369816993923215 0.36981699392321565 1.0264457033916565
-0.3362388928253819 -0.3362388928253848 0.9332479916416213
0.640765337058442 0.6407653370584431 1.0609993240566937
-0.36181309752789614 -0.3618130975278993 0.5991014646239283
0.6823944451204346 0.6823944451204357 0.7011509413368465
-0.3741758261895261 -0.3741758261895293 0.3844605339833578
0.4324708611264964 0.4324708611264972 0.25333556511672956
-0.3853474839174519 -0.38534748391745516 0.2257313298524953
0.7391618289844788 0.7391618289844801 0.1655644320034892
-0.39199221262860434 -0.39199221262860773 0.08780210975289533
0.7748558814916818 0.774855881491683 -0.08624225087215352
-0.3977387831872628 -0.39773878318726624 -0.04426873272896406
0.3970482666596612 0.3670276424295637 0.6330784972143304
-0.3662736954936731 -0.3385799214588679 0.5840096033237081
0.0586084266263199 0.05005632518694266 -0.12577526242137732
-0.3276255241105644 -0.27981863220768083 -0.7030932008067643
2.7165566567527772 2.320158571499759 4.182869844227571
-0.3680173013238976 -0.31431646897713234 0.5666616479487764
0.6485593998966124 0.5112830049311434 0.9669541838548122
-0.3704659991567366 -0.29205184491022834 0.5523374542372923
0.06267667965990259 0.045537273287087884 -0.12642385284584168
-0.05709092348188565 -0.041478983872690195 -0.11515693792765849
0.6894485142798952 0.5009136664944559 0.6191633426458043
-0.3873628792813496 -0.28143560556850966 0.3478735397714935
1.09245098782346 0.7937121024152116 1.5810493153862002
-0.3759182002551429 -0.27312055953659947 0.5440474856805694
0.42348206628962803 0.30767773100700063 1.0273336134739535
-0.349237064971587 -0.2537355800576315 0.847221180013135
-0.37850580472830586 -0.2594109902012945 0.5372665017938134
0.47687689500289576 0.310575719432797 0.6663243575851012
-0.37966052315084114 -0.24726159173027137 0.5304871274742133
0.4940406045691762 0.3027484718531201 0.6784189294436909
-0.3830225976832376 -0.23471654973569409 0.5259684695342072
0.5088908035997745 0.2929207306707417 0.6874915239876741
-0.38542766696372266 -0.2218545767168663 0.5206976669130388
0.5224565876504751 0.28455691904325586 0.6965654842476992
-0.3877241954902867 -0.21117467961003647 0.5169334608274149
0.5358354903833339 0.27302181909263623 0.7041281229612976
-0.38994507717345833 -0.19868694072494797 0.5124171507410215
0.46720591335420375 0.23805330300825614 1.0291094496960578
-0.3629052215166698 -0.18490944611715823 0.7993674354967072
-0.07630069474352527 -0.0351751020719568 -0.13710549287276133
0.7166534222915555 0.29684756703425563 0.5635790931747242
-0.4084712749203233 -0.16919434191182883 0.3212234303876179
0.10296387661633423 0.04264903412899568 -0.11144729696138918
-0.45704732267388537 -0.18931519969783756 -0.49470445722673784
-0.07957217895513115 -0.03295987571079465 -0.14054862122931536
-0.0772611302591022 -0.028503135776102577 -0.13438485406479078
0.5882384719272263 0.19113026561110363 1.2138952680162112
-0.3762038029133357 -0.1222360253642668 0.7763382334889157
-0.40461326771401257 -0.13146682003744228 0.49812104835976534
0.4333697816602487 0.14081037781356914 0.33106505379418766
-0.4174574533219773 -0.13564014892354131 0.3189091166240449
0.10867875577257025 0.03531186831259378 -0.11427160627207474
-0.46516338522226197 -0.1511407458250897 -0.4891017276600046
-0.08150944303035512 -0.026484023469536717 -0.13985638061149133
-0.0808840269744876 -0.019418536825437947 -0.13574127820213525
0.739397428330564 0.17751361706063104 0.5524684232933138
-0.4252643624559441 -0.10209694041942151 0.31775216251338456
0.6903745572735752 0.16574426701072464 0.8312934551783696
-0.4111821717255155 -0.09871610554373063 0.4951124641547289
0.6247622911349233 0.09895262581727997 1.2414493374357676
-0.3902483690680526 -0.06180926952240815 0.7754526578978442
0.7006115362109783 0.11096596604768953 0.830535989411173
-0.41956323236358556 -0.06645228773866153 0.4973688646295807
0.7534303440925936 0.11933164337262837 0.5542225865936029
-0.4327502275443989 -0.06854090258993707 0.31833062251757643
0.10842101046696731 0.017172201062231333 -0.10977249200050103
-0.11798018880887846 -0.0186862261738778 -0.11945082670287416
0.07770517543915868 0.012307290722251068 -0.12838394099359765
-0.08174715899077448 -0.012947478024875026 -0.13506207761519304
0.11743913609299043 0.009242660458527011 -0.19223585134251225
-0.42332035639042975 -0.03331603458153405 -0.6929321162316275
0.6534563089972797 0.05142812685340125 -0.6554769256045573
-0.4938777169901977 -0.03886901928977612 -0.4954048849173788
0.6407026879583574 0.0 1.257449826292459
-0.4014305581282798 -1.377006770141686e-15 0.787851830613357
0.6083752953564091 0.0 -0.6083752953564123
-0.5010089819554124 -1.7185855587853303e-15 -0.501008981955415
0.15465957515592013 0.0 -0.2523814886488118
-0.42411051110860054 -1.4548046561472073e-15 -0.6920854530816277
0.11011870990256313 0.013033408203347419 -0.11088733020503318
-0.11978109990083043 -0.014177027422813671 -0.12061716295784808
0.10175411712067123 0.012043393406791643 -0.16720662763252536
-0.09328245458651806 -0.01104070606995043 -0.15328563688679764
0.07345364778719814 0.013713306545745369 -0.12193648695257978
-0.08054570761256188 -0.015037346853556349 -0.1337096375913028
-0.08016907420246763 -0.01693081087017703 -0.1337096375913028
0.7365058061028321 0.20771611994488884 0.5559768080521507
-0.42092819197394743 -0.1187140278973433 0.31775216251338456
-0.08412562371460457 -0.02372587968913019 -0.1426357671399628
-0.08039116053469199 -0.027171816318941562 -0.13847726783055436
-0.0791624067358239 -0.028149550332273243 -0.13710549287276133
-0.07917836664974257 -0.03389500442863789 -0.14054862122931536
-0.07670978719075934 -0.03427378551116896 -0.13710549287276133
0.09327165361944337 0.042998821275641065 -0.10270589077555413
-0.4543516627049208 -0.20945898547752176 -0.5003084048864274
-0.07626010162240696 -0.03625174416412394 -0.13779044939907512
-0.07492989053980015 -0.037073347664154946 -0.13642242629665502
1.104783302703053 0.7764547098095056 1.5810493153862002
-0.37647635966101656 -0.2645920171634833 0.5387732501430895
0.6507279118916848 0.49258813998969714 0.9555810321613643
-0.37253602051385026 -0.2820023885107724 0.5470617572942964
0.06115386283745644 0.04820981819038628 -0.12707485388583953
-0.05688025797929356 -0.04484077977367695 -0.11819450377025836
2.7883941360205626 2.2519599583552665 4.196555073887475
-0.3705057391518444 -0.29922745788783556 0.557614047259867
2.7437012336385544 2.287994625601621 4.182869844227571
-0.36724348108636246 -0.306247305906021 0.559875712301288
2.6885462832236495 2.3515729970716235 4.182109554089646
-0.36719769598311564 -0.321174380314354 0.5711863701931114
0.4018234091497176 0.3627569636882565 0.6338338371805152
-0.3654546434780923 -0.32992407563913867 0.5764659641938632
0.7740010525877267 0.7924562972893444 -0.08718020119013553
-0.39577149253483107 -0.4052082493922504 -0.044578025093313725
0.6987130153550141 0.7558634815700421 0.4263643036211154
-0.3798255363892393 -0.41089295034601364 0.23177477270526006
1.850370136990437 2.0335302287333845 0.4354597168068963
-0.38750824983053367 -0.42586600602819613 0.0911948530503186
0.6185219095080798 0.685132491421767 1.080723885484484
-0.3567054392548329 -0.3951201768983881 0.6232601988044827
1.9709249538297313 2.235575532211325 -0.23455674398601856
-0.39148399020554675 -0.4440514226862806 -0.04658990687942782
3.2411288801495033 3.676339074771127 2.0300853650947297
-0.3790910796025515 -0.42999442489795586 0.23744419959739624
2.2679647818509285 2.572501080962491 2.4916729192915117
-0.3674161353651144 -0.41675180009561086 0.4036574297475917
0.6179226748265793 0.7064691220699629 1.0989326401089654
-0.35512649573240007 -0.4060150466792053 0.6315678537567508
1.983398475795214 2.3784377742606178 -0.2437319022685001
-0.38984629284919603 -0.46749312373866 -0.047906650987195945
0.3887730631242095 0.46620613569791813 0.25144252708448867
-0.3782400671065091 -0.45357525193433934 0.24463021577058758
2.1958835424042666 2.6332441155262725 2.4910852848195204
-0.3660864384313855 -0.4390009493481374 0.41530095842419823
1.694345547520045 2.114888951391342 0.4292061146836459
-0.38072881534354946 -0.47522724406773764 0.09644498775405765
-0.3741148824014097 -0.47456246595822055 0.25030685302131117
2.1291874641072663 2.7008614224812257 2.498724538487818
-0.36281588184249175 -0.4602297520771669 0.4257854050878735
0.30642442482461224 0.3886975298634857 0.9714063527427281
-0.32602699971848154 -0.413563277574599 1.0335491332763622
1.6294498847894427 2.1702234862798573 0.4298314699495319
-0.3785066316871717 -0.5041235017217679 0.09984600533128216
1.294036246091233 1.8723145889009087 -0.17912362767354278
-0.3802744607031554 -0.5502113427746683 -0.052638510797901765
2.088034440924453 3.124964376931556 0.5952661727513834
-0.3719472327089938 -0.5566583718797672 0.10603637628799187
1.0260545967902113 1.6452236481463984 2.2702253438779003
-0.3387549349804863 -0.5431754135692916 0.7495215568082052
0.5183285595317775 0.8458353343589684 1.9469471208853009
-0.3179654434352882 -0.5188724453185344 1.194342648602219
0.6479723688981726 1.0762785140526703 1.4709168465052895
-0.34085119012449205 -0.5661519379971054 0.7737424954678649
