0.096 0.0 1.92
-0.096 -3.2930390389303353e-16 1.8949999999999998
0.096 0.0 1.92
-0.096 -3.2930390389303353e-16 1.8949999999999998
0.6273882168109585 0.0 1.9309023862968229
-0.6363398270373466 -2.1828040546459994e-15 1.9584526097217871
0.8512220302894227 0.0 1.1716066127971252
-0.8506355388169607 -2.9178917054435334e-15 1.1707993765379183
0.9327994011605499 0.0 0.6777184350410712
-0.7209843982835265 -2.473156010424323e-15 0.5238258273813361
0.7427020711114968 0.0 0.2413185313370967
-0.718168588661987 -2.463497082288984e-15 0.23334711967206667
-0.7174517405372992 -2.4610381147269206e-15 -1.2305190573634603e-15
0.7799307661581252 0.0 -1.3376783649070586e-15
-0.7181685886619861 -2.463497082288981e-15 -0.23334711967206928
0.8210983763432966 0.0 -0.26679103501879853
-0.7097251154041808 -2.4345338665992757e-15 -0.5156454795346529
0.8175684141218393 0.0 -0.5939982224134183
0.4706838819791956 0.0 -0.6478407854133565
-0.49928958014100594 -1.7126875824327799e-15 -0.687213151185728
0.08216763142525153 0.01301407431608126 -0.11450377380531844
-0.0928877824740871 -0.014711979440145927 -0.1294427190999919
-0.09335287125207666 -0.014785642265949028 -0.13009083830837814
0.7335605548652321 0.11618457792648625 -0.5396063900639586
-0.6946335107784786 -0.11001913983531983 -0.5109716964504607
-0.7037367532659878 -0.11146095180184257 -0.2315081819851585
0.8025881430921415 0.12711747385475786 -0.2640273099675352
-0.7037249969307138 -0.11145908978125992 -1.2220210905587532e-15
0.7605277184920981 0.1204557570446676 -1.3206592291098864e-15
0.7214408436963867 0.11426500425611362 0.2373322941552545
-0.7046683669916531 -0.11160850492038071 0.23181465482310282
0.8998172672960885 0.14251705427504482 0.6619046568174024
-0.7081359796385163 -0.11215772080871646 0.5209040986634609
0.8158350710640533 0.12921558112760853 1.1368977396475752
-0.8129391331621936 -0.12875690962381095 1.1328621381252117
0.6205786415609167 0.09829000082098693 1.9337523691975187
-0.6285054278211134 -0.09954548042638278 1.9584526097217871
0.09481808069713321 0.015017708643862182 1.9229999999999998
-0.09481808069713317 -0.015017708643862532 1.896
0.09130142556433472 0.029665631459994988 1.9229999999999998
-0.09130142556433464 -0.029665631459995307 1.8949999999999998
0.5972687802886701 0.19406439066079342 1.9328023738525206
-0.6043144212183199 -0.19635365817142372 1.9556025468459244
0.7945006293263718 0.25814890313757793 1.1498121123943963
-0.7794423086412487 -0.2532561581547931 1.1280195059734892
0.19389558946476984 0.06300049602979342 0.1481230498136918
-0.6971721740971649 -0.22652497102968866 0.5325921489889154
0.6973760513315425 0.22659121475874877 0.2382521026630834
-0.692888932554818 -0.22513326148885715 0.23671911987508512
-0.6898779366848982 -0.22415492962544425 -1.244118020917035e-15
0.736095625686761 0.2391719670965138 -1.3274664753532853e-15
0.7809109613406626 0.25373335234375527 -0.26679103501879853
-0.6884022773961529 -0.22367545885760187 -0.23518629547792802
0.6681059247992758 0.21708077413718593 -0.510387510376287
-0.6772831431308743 -0.22006263312975463 -0.5173982813372717
0.08417244204607552 0.027349284300792805 -0.12181550249551358
-0.09033963692643399 -0.029353127387928363 -0.13074075077246627
0.07567715842499928 0.038559438162958905 -0.11690225584339473
-0.07805368326807201 -0.039770338051860546 -0.12057339150711582
0.07606938774722975 0.0387592889846733 -0.11750815190940667
-0.07685854761241037 -0.03916138601970272 -0.11872720624998587
0.6144601133490444 0.3130830654505699 -0.501041678137811
-0.6624714283609079 -0.33754605231281115 -0.5401909562122413
0.7602436084432886 0.38736346631733376 -0.2772349198491185
-0.6743687540929304 -0.3436080425542016 -0.24591928878235372
0.716149784851599 0.36489654103184993 -1.3785376514370562e-15
-0.6816619194333156 -0.3473240959024986 -1.312150951332625e-15
0.6752099711414828 0.34403666404898486 0.24622605195462963
-0.6853057635850628 -0.3491807272318052 0.24990764319436481
0.8447795156250568 0.4304366624225436 0.6888482050661339
-0.6875678358272679 -0.35033331060780365 0.5606550121192027
0.76053466929304 0.38751176922763353 1.174835582332011
-0.7589669518382545 -0.3867129772868068 1.1724138515111981
0.5617572913283765 0.2862296363708642 1.9404023657227403
-0.5669829374911722 -0.28889223608086395 1.9584526097217871
0.08553662632208328 0.043583087974996534 1.924
-0.08553662632208316 -0.043583087974996826 1.8949999999999998
0.07766563145999492 0.056427384220077474 1.9229999999999998
-0.07766563145999471 -0.05642738422007775 1.894
0.5098152238801822 0.3704024415735272 1.9394523631108778
-0.5135610966574463 -0.37312397745070985 1.9537025099670016
0.7380065282519868 0.536193128720659 1.255571699653269
-0.7650615708166728 -0.5558497677409029 1.3016004873085707
0.8192396868653086 0.5952124731374424 0.735723077853644
-0.6803240396364778 -0.49428434762031037 0.6109690538728351
0.8518795783823173 0.6189267424340308 0.34213428859902933
-0.6925818051101786 -0.5031901355352698 0.2781566658024276
0.6912324714532062 0.5022097872490066 -1.465420077505062e-15
-0.6815866149479524 -0.4952016622789062 -1.444970760710363e-15
0.7331414288978968 0.5326584271369412 -0.2944463367636792
-0.6711648274101013 -0.48762979041482113 -0.26955511857051845
0.5767820620787885 0.4190566974908685 -0.5179825645252815
-0.6542600640636543 -0.4753477609177611 -0.5875621454466703
0.07087126134676872 0.05149098538181004 -0.12057339150711582
-0.40487873304333366 -0.29416161824091397 -0.6888208430957298
0.33323639787392645 0.33323639787392706 -0.6486439749693356
-0.353876988596946 -0.3538769885969491 -0.6888208430957298
0.33323639787392645 0.33323639787392706 -0.6486439749693356
-0.3542899682683293 -0.35428996826833237 -0.6896247071914188
0.5758303133390462 0.5758303133390472 -0.5916577562068381
-0.640778231989505 -0.6407782319895104 -0.6583908526223622
0.7157659176539217 0.7157659176539231 -0.3288986200185038
-0.7914781811069495 -0.7914781811069563 -0.36368884731767404
-0.778660709166704 -0.7786607091667108 -1.8886822960520586e-15
0.6688411620108314 0.6688411620108327 -1.6223092377585143e-15
-0.7619906710956537 -0.7619906710956603 0.35013916422814
0.8350525347166718 0.8350525347166733 0.38371151732326253
0.7845045761978224 0.7845045761978238 0.8060677017778018
-0.7428522944724255 -0.742852294472432 0.7632705530767548
0.7027119574476356 0.7027119574476367 1.367827404945603
-0.7143310424431504 -0.7143310424431565 1.3904439304064566
0.4473409783037296 0.4473409783037304 1.9470524128180329
-0.4490871269406855 -0.4490871269406894 1.9546525279016516
0.0678822509939085 0.06788225099390863 1.924
-0.06788225099390827 -0.06788225099390886 1.894
0.056427384220077335 0.07766563145999501 1.926
-0.05642738422007709 -0.0776656314599952 1.8929999999999998
0.3711281801716321 0.5108141173656039 1.9432523797444556
-0.37276110346917984 -0.5130616434698683 1.9518024771324674
0.5292967033203817 0.7285144130151694 1.2394227486549287
-0.687637458605028 -0.946451765862714 1.6101999193946592
0.571983013378738 0.7872670784311181 0.7070098865112914
-0.7152262752063039 -0.9844245142399054 0.8840682954489673
0.5999940103867697 0.8258209082873452 0.3316685317232621
-0.7309309132879758 -1.0060400941630618 0.4040486714943924
0.6226754609006453 0.8570392467047051 -1.816932177231938e-15
-0.7451002897378819 -1.0255425677330627 -2.1741609822417853e-15
0.6451056115086878 0.8879117004750605 -0.35660561150869163
-0.7576938695805796 -1.0428761433425624 -0.4188428698771779
0.4810280364424027 0.6620782925990732 -0.59458335212606
-0.534070738445954 -0.7350853086497064 -0.6601477375127169
0.2773470562759806 0.3817354739541617 -0.6494471789915172
-0.29450490919327327 -0.40535123250362964 -0.6896247071914188
0.21448080543105505 0.42094228196819616 -0.6502503974262944
-0.22746816184812185 -0.4464314041110755 -0.6896247071914188
0.21448080543105505 0.42094228196819616 -0.6502503974262944
-0.22746816184812185 -0.4464314041110755 -0.6896247071914188
0.37080266950063895 0.7277412146313106 -0.5934130979496026
-0.411770885548478 -0.8081458658386124 -0.6589764770783411
0.5852236291381419 1.148566042616371 -0.4188428698771779
-0.5714425066697613 -1.1215190668822848 -0.4089797601232464
0.5456240582505973 1.0708475087789802 -2.061305666810046e-15
-0.5614643878699646 -1.101935906100625 -2.1211486314205855e-15
0.5081602730081817 0.997320690286226 0.36368884731767
-0.6963853825317478 -1.3667332676370485 0.4984010173848638
0.46705152120659915 0.9166402221322361 0.7474447001002585
-0.6734244189514125 -1.3216698392977608 1.0777130359472238
0.4138757075162929 0.812276811544856 1.2547642328957298
-0.643882557534338 -1.2636906717284324 1.9520855868249174
0.29926285767742616 0.5873364283852113 2.0287569252885973
-0.2886119598841937 -0.5664328644831569 1.956552566798349
0.04358308797499638 0.08553662632208338 1.9269999999999998
-0.04358308797499605 -0.08553662632208354 1.8929999999999998
0.029665631459994818 0.09130142556433479 1.9269999999999998
-0.02966563145999448 -0.0913014255643349 1.894
0.20646526078018995 0.6354347341017895 2.0563099948178905
-0.19635365817141823 -0.6043144212183218 1.9556025468459244
0.46858120818936455 1.4421446702741045 2.0870913734984837
-0.4497047355304103 -1.3840488611317194 2.003014328666051
0.500076244186822 1.5390764240662218 1.1757497654192968
-0.626959528199379 -1.9295830184144267 1.4740702578393878
-0.631617920597179 -1.9439200760068382 0.6641223836598663
1.653386761383088 5.088601216092266 1.738473721649966
0.505187499921433 1.554807251694927 -2.803921705601181e-15
-0.5116658004971448 -1.5747454107256877 -2.8398779547215336e-15
0.4672601626602016 1.4380789101971407 -0.4913064099286359
-0.34003072028583037 -1.046506949957562 -0.3575294574610876
0.25314027731674615 0.7790856640937319 -0.5951684870720471
-0.27305677065401135 -0.8403823277561043 -0.6419949713161578
0.14544931850994283 0.4476469730714132 -0.6478407854133565
-0.15501087487146886 -0.4770744176750613 -0.6904285833245773
0.07363118128047394 0.4648889823369095 -0.6478407854133565
-0.07838018688234483 -0.4948730236489341 -0.6896247071914188
0.07363118128047394 0.4648889823369095 -0.6478407854133565
-0.07838018688234483 -0.4948730236489341 -0.6896247071914188
0.12802186386394124 0.8082982368824889 -0.59458335212606
-0.1420126711631869 -0.8966327176596498 -0.6595621053785363
0.23446325162442747 1.4803427100793791 -0.4869881357410451
-0.288388140449277 -1.8208110585760025 -0.598991961060867
-0.363863740974608 -2.2973452457138355 -3.9893486160099994e-15
0.6540684932904071 4.129625940213571 -7.17111089853237e-15
-0.35675814550489116 -2.252482281554241 0.7409987833324094
0.5698500468181675 3.597891596235885 1.1835978987293503
0.5056192069656218 3.1923540338280194 2.348292345567183
-0.34710856025032405 -2.19155719803723 1.6121072219713393
0.25228102440479916 1.5928396999595877 2.219683755618785
-0.2286658721444534 -1.4437394966065809 2.011906852926992
0.10490578539629639 0.6623490614440478 2.063910971189061
-0.09949719210304202 -0.6282005473465162 1.9575025877574581
0.015017708643862022 0.09481808069713325 1.9269999999999998
-0.015017708643861677 -0.09481808069713331 1.894
-1.6465195194651677e-16 0.096 1.928
4.939558558395502e-16 -0.096 1.894
-1.1459357688862367e-15 0.6681356188769191 2.0563099948178905
3.266264707523749e-15 -0.6347964260679456 1.9537025099670016
-2.7438070422265126e-15 1.599771353693433 2.201896368111333
7.509088648333269e-15 -1.4593865053280226 2.0086732009130954
-5.8070993831360796e-15 3.385817988736314 2.459940760902503
1.1113256415538924e-14 -2.1598541717425954 1.5692259100607866
1.0971593922034319e-14 -2.132322158070387 0.6928334678709218
-1.0961019280070549e-14 6.390800949803337 2.076497103295059
1.1315172364330435e-14 -2.199096405344704 -3.771724121443479e-15
-8.361138174119049e-15 4.874945333026823 -8.361138174119049e-15
9.524636134429943e-15 -1.851106851139921 -0.6014610757670392
-2.6015562097657354e-15 1.5168322827939247 -0.49284868456167147
-1.4077568751083281e-15 0.8207899050859598 -0.5963387726024367
4.675165654658648e-15 -0.9086154107524484 -0.6601477375127169
9.90153659127874e-16 -0.19243572103162226 -0.26486504728076093
-2.0922417063634408e-16 0.1219877453236226 -0.16790172718247717
0.01508230172988766 -0.09522590539186053 -0.13270098385780363
0.01500784158602023 -0.09475578254573463 -0.13204584948067993
-0.12802186386394399 0.8082982368824884 -0.59458335212606
0.14125612130519696 -0.8918560498477742 -0.6560483934465017
0.28779376018781133 -1.8170582892997493 -0.5977574130732533
-0.23594828619270236 1.4897188493341365 -0.4900726029695008
0.34198277190255183 -2.1591942440924226 -3.749448884723632e-15
-0.5937023273292331 3.7484889684409968 -6.509265120807871e-15
0.33550102675340177 -2.11827011583924 0.696847025816875
-0.062069504141804364 0.3918914257904413 0.1289204679154
0.33635792084512345 -2.123680332208764 1.5621770692448465
-0.06207505862788172 0.3919264954353254 0.2883007271446412
-0.25246481162429085 1.5940000867949957 2.221300799574217
0.2283902283891835 -1.4419991504291303 2.009481613187342
-0.10476090483658781 0.6614343215907261 2.0610605985850183
0.09940061560973511 -0.6275907873655723 1.9556025468459244
-0.015017708643862348 0.0948180806971332 1.9269999999999998
0.015017708643862733 -0.09481808069713313 1.8929999999999998
-0.029665631459995147 0.09130142556433468 1.9269999999999998
0.029665631459995505 -0.09130142556433457 1.8929999999999998
-0.20617906918341408 0.6345539269359064 2.053459642954027
0.19625827084676592 -0.6040208492195611 1.9546525279016516
0.4500677338316249 -1.3851660550273373 2.004631146860606
-0.10947084759480509 0.3369166254431504 0.4875903208912939
0.6784246457787465 -2.0879763635271584 1.5950720063219357
-0.1099025136200268 0.33824515686253304 0.2583963067828954
0.6753670453502577 -2.0785660370251384 0.7101229356811919
-0.11861034522555892 0.36504510683937347 0.12471429740853347
-0.4959332863137965 1.526325710825182 -2.7525584188872926e-15
0.6882024925857219 -2.118069481674007 -3.81970240180131e-15
-0.47107385219570336 1.449816239696434 -0.49531636041018334
0.5731976180556474 -1.7641208726378987 -0.602695642408861
-0.25413579047430646 0.782149538549787 -0.5975090788819486
0.28003035549740424 -0.861844815023677 -0.6583908526223622
0.028771909713676182 -0.08855083285887212 -0.1281519692062052
-0.04163612844019684 0.08171550308529167 -0.12622998599393534
0.08685389217260203 -0.1704603612219578 -0.26331856498650025
-0.04184681174274736 0.08212899234821185 -0.12686872334359808
0.08685389217260203 -0.1704603612219578 -0.26331856498650025
-0.3718995495237886 0.7298939628880167 -0.5951684870720471
0.41030715672518353 -0.8052731362727815 -0.6566340024225776
-0.4548200915563742 0.8926346898033498 -0.32551343271258154
0.758459145717396 -1.4885598873814012 -0.5428270313430477
0.946212484370365 -1.8570465622653787 -3.5746832027395894e-15
-0.3608402056814845 0.7081887784791171 -1.3632132775980415e-15
0.9305257981473712 -1.8262597070875688 0.6659746400957216
-0.1839165475349031 0.3609565483282363 0.13162854463150245
0.9089824663409319 -1.7839785377606683 1.4546877509259717
-0.18122951202389412 0.35568294420566476 0.29003018320990515
0.6617476614594211 -1.2987529123737065 2.006247967015494
-0.17295783494729638 0.33944886387698797 0.5243634771253295
-0.30150525284596474 0.5917373767004739 2.043958526859567
0.2886119598842 -0.5664328644831537 1.956552566798349
-0.04358308797499667 0.08553662632208323 1.9289999999999998
0.043583087974997006 -0.08553662632208306 1.8929999999999998
-0.05642738422007763 0.0776656314599948 1.928
0.05642738422007789 -0.07766563145999461 1.894
-0.32214895896579265 0.44340000281912456 1.6867938480256726
0.37348685220464595 -0.5140605509081574 1.9556025468459244
0.8112013942166857 -1.1165229328608413 1.8995422707633356
-0.19629755784245245 0.27018040964699447 0.45965836773420243
1.1398047314002904 -1.568806625166842 1.4088761290866332
-0.21369003977522472 0.29411910733138363 0.26413541527681006
1.1746032574874055 -1.616702687332191 0.6493047114204913
-0.22506735103075354 0.30977863284706664 0.12441417174663799
1.2520791680888814 -1.7233391299561018 -3.653497000912735e-15
-0.33859695848207144 0.4660387319812491 -9.880069917788236e-16
-0.4448721726518766 0.6123140153587701 -0.24591928878235372
0.8190428865450269 -1.1273158211310834 -0.45275577238456083
-0.46256948677433274 0.6366722785578177 -0.5717673299702662
0.5326493887125039 -0.7331289885739035 -0.6583908526223622
-0.05149098538181018 0.07087126134676862 -0.12057339150711582
0.11377166857621701 -0.15659326769014148 -0.26641237948621527
-0.09295559415840048 0.09295559415839999 -0.1809378761600721
0.13686753460279272 -0.13686753460279105 -0.26641237948621527
-0.09220550363839798 0.09220550363839748 -0.17947782647886856
0.13686753460279272 -0.13686753460279105 -0.26641237948621527
-0.579247128605906 0.579247128605903 -0.5951684870720471
0.6407782319895116 -0.6407782319895039 -0.6583908526223622
1.1907288354244736 -1.1907288354244592 -0.5471468550374626
-0.6006582633728939 0.6006582633728909 -0.2760059805216582
1.1694051906845702 -1.1694051906845562 -2.8364534829565394e-15
-0.31637398755270724 0.31637398755270557 -7.673816621126863e-16
1.144397457791648 -1.144397457791634 0.5258573163892073
-0.262926278027308 0.26292627802730667 0.12081616053084206
1.1140139042854795 -1.1140139042854662 1.1446340210378483
-0.24813554884713523 0.24813554884713393 0.2549558761759818
0.9746309898144089 -0.9746309898143971 1.8971172518816
-0.2517272264393462 0.25172722643934486 0.4899865375072144
-0.41787713571114415 0.41787713571114193 1.8188109849293577
0.45017847738869 -0.45017847738868455 1.9594026326898728
-0.06788225099390874 0.06788225099390839 1.928
0.06788225099390897 -0.06788225099390816 1.894
-0.07766563145999512 0.05642738422007719 1.9269999999999998
0.07766563145999529 -0.056427384220076954 1.8949999999999998
0.5145600062189081 -0.37384972772873504 1.9575025877574581
-0.25712253887981196 0.1868104594048941 0.9781522643519932
1.0291051168658247 -0.7476886331909391 1.7508181990822584
-0.25613101489767054 0.18609007506433112 0.435756109733462
-0.275606370600302 0.20023974923032453 0.2475099418461928
1.714654873594234 -1.2457696865178516 1.539856016844677
-0.3015658755627889 0.21910043359153733 0.12111574090946603
1.6651270570853363 -1.2097856215048919 0.6687530439275401
-0.361180560926845 0.26241303780218256 -7.657065711539967e-16
1.7338457298463203 -1.2597126597338297 -3.6757711026965356e-15
1.258633583560544 -0.9144508256325128 -0.5054959839934995
-0.8089629120073829 0.5877459591524186 -0.3248979755192977
-0.6659877234381574 0.4838684042072909 -0.5980942397645626
0.734433197684772 -0.5335969520969485 -0.6595621053785363
-0.11501494151355622 0.08356324636564733 -0.1956751059421392
0.1565932676901428 -0.11377166857621512 -0.26641237948621527
0.1724631548237021 -0.08787436648277258 -0.26641237948621527
-0.16097910617263403 0.08202295143182212 -0.24867240058814893
-0.16097910617263403 0.08202295143182212 -0.24867240058814893
0.1724631548237021 -0.08787436648277258 -0.26641237948621527
-0.7327643833970694 0.37336210182389695 -0.5975090788819486
0.7069343894946318 -0.3602010625703157 -0.5764468435797594
1.2314164896883932 -0.6274380404233195 -0.44905560274119655
-0.7863671299985959 0.4006740653801755 -0.2867612773536449
-0.7736815441283785 0.39421043653755283 -1.4892822163228594e-15
2.312853172466843 -1.1784575523157637 -4.452078668363864e-15
-0.32638009618264974 0.16629896521349827 0.11901969158388913
3.5108633055397385 -1.788874203868601 1.2802921278161747
-0.31477828544830766 0.16038754738413338 0.25667579873125174
2.6009885093737983 -1.3252698393685063 2.120892177119251
1.0031380414693618 -0.5111243614846288 1.5495970304740336
-0.30634067730799935 0.15608837130378497 0.47321962107483245
-0.5944880027232552 0.30290676680660955 2.053459642954027
0.5650576870707764 -0.2879112719950147 1.9518024771324674
-0.08553662632208345 0.043583087974996236 1.9269999999999998
0.08553662632208361 -0.0435830879749959 1.896
-0.09130142556433483 0.02966563145999468 1.9249999999999998
0.09130142556433495 -0.02966563145999433 1.8949999999999998
-0.6333795211503599 0.2057974816123165 2.049659185998826
0.5925717892019681 -0.1925382457436888 1.9176025914062378
0.9864488075921658 -0.3205166469121517 1.4276021256120992
-0.4049459840521951 0.13157492612897323 0.5860433335634445
-0.3849388923199806 0.12507422796083825 0.29406714654899246
3.4001038826140637 -1.1047607206992611 2.597448235756168
-0.3888092665189614 0.12633178876987874 0.13283310361197623
-0.7502533974213325 0.2437721059878428 -1.3529984397985468e-15
3.506783067166185 -1.1394228889383098 -6.324092679747319e-15
1.2070282091235587 -0.3921872390529665 -0.41237006669250886
-0.7665302607448875 0.2490607794745568 -0.26187800115683835
-0.7821495385497883 0.25413579047430246 -0.5975090788819486
0.6979372691408572 -0.22677356547886623 -0.5331766295930505
-0.16071811503374425 0.052220481115888936 -0.23259344111996208
0.4737417545456588 -0.15392802697981592 -0.6856055079344843
-0.17734406934405983 0.028088541167934054 -0.24713582282531718
0.4914120486875948 -0.07783202230011503 -0.684801704662989
-0.17789529861163247 0.028175847306969048 -0.24790398213907844
0.4914120486875948 -0.07783202230011503 -0.684801704662989
-0.7693301517401361 0.12184992550814934 -0.5659184687542527
0.840917441822743 -0.13318823838223004 -0.6185780057478052
0.8203251802448954 -0.12992674455720635 -0.2698622606163114
-0.7503410626379594 0.1188423492584284 -0.24683959516673046
0.8056268109973219 -0.12759875157024617 -1.3989739720091909e-15
-0.7340757296606732 0.11626617359812876 -1.2747252515189089e-15
0.7606000047921031 -0.12046720606983154 0.2502144779423878
-0.49025027556653344 0.07764801551455337 0.16127756506591281
0.9985753154848243 -0.15815879246495412 0.7345509755424809
-0.44376429716336496 0.07028535984222921 0.3264325608069041
0.9601047701213458 -0.15206565666858018 1.337943147690585
-0.6462361747288763 0.10235375485190004 0.9005551151037375
-0.6565557513016728 0.10398821521176857 2.045858743053823
0.5958851447508003 -0.09437893514905661 1.8568062663793028
-0.7354769447015461 0.1373086443472471 -1.2832295132825079e-15
0.9151510203911536 -0.17085259692796734 -1.596717350471232e-15
-0.44323151196877947 0.08274836958364522 0.32759049761725106
1.0105032534536578 -0.1886542234121365 0.7468585935425367
-0.734948929671964 0.15521298519787108 -1.2883325244470151e-15
0.8087548281718401 -0.1707999646040286 -1.4177109556474871e-15
-0.44739809275195974 0.09448546796150899 0.33222348343547803
1.004199536081164 -0.2120756986462177 0.7456863883551136
-0.74101478424369 0.1779019098612423 -1.3070464071800491e-15
0.8134134472938617 -0.19528329104538417 -1.4347475198116233e-15
-0.5500568140607909 0.13205695734327477 0.18380277833191022
0.7772769511731059 -0.18660768589920992 0.25972892164405426
-0.45781669901811234 0.10991206498642171 0.3420748574078192
1.0026976645735743 -0.24072641104334735 0.7492030355550414
-0.7425508595449923 0.2000080523103837 -1.3189575037714157e-15
0.8134942007720779 -0.21911683027599327 -1.444970760710363e-15
-0.48006723566849 0.12930738891464016 0.36122022148502747
1.0058290988726701 -0.27092274749489875 0.756822759139025
-0.7471504411296347 0.22025262386585145 -1.335976299273776e-15
1.1757424387877577 -0.3465973422192019 -2.1023396973384845e-15
-0.4523769677592467 0.13335629431578444 0.3426546042406426
1.1183741488064982 -0.3296857328571498 0.8471166276444959
-0.7647329157339522 0.24847678667957793 -0.26126395479369074
1.2043217301732312 -0.39130785073456537 -0.41144542309527365
-0.7502533974213325 0.2437721059878428 -1.3529984397985468e-15
-0.3870461509586305 0.12575891779759252 0.13223075142525462
-0.38569404347652153 0.12531959144523144 0.2946440306993022
-0.4043919045925631 0.1313948947992607 0.5852414622364778
0.9819833247056723 -0.31906572356913904 1.4211396180682936
-0.37646084208724745 0.13386661496825217 0.1298228168385754
4.529650736564624 -1.6107093840899862 1.5620536113539831
4.841071028819121 -1.8510459999492663 -8.889300168792794e-15
-0.37406736655973444 0.14302948633886517 0.13012367698734062
-0.3588824641798163 0.14865398396115512 0.12621556939102066
-0.33733803197854356 0.13972998794976038 0.26528396605977334
2.6715463201715908 -1.1065907183229877 2.100914620183086
-0.3481163807581386 0.15553772998168225 -6.539484305874219e-16
2.623635685074388 -1.172235382508243 -4.928588637371776e-15
-0.33948891624878486 0.15168299541745403 0.12081616053084206
-0.3324915440933637 0.15805641661596426 0.11961831913604047
3.5234977784093693 -1.674964198949102 1.2676258666432452
-0.7821529981838741 0.39852685797305054 -0.28522452718184094
1.2280343244122045 -0.625714741140705 -0.44782224239610846
-0.7719104805286165 0.39330803456080093 -1.4858730442376267e-15
2.3840863880642016 -1.2147526885119408 -4.589197566967235e-15
-0.3255595116528987 0.1658808565121287 0.11872045238765205
3.5015444416647066 -1.784126005563898 1.2768938559322855
-0.31337203591153767 0.15967102745680933 0.255529117909378
2.54550395038947 -1.2969990445120168 2.0756490833198455
-0.30892407071207634 0.15740467598921823 0.47721031685349125
1.0015688577034176 -0.5103248224209467 1.5471730345697277
-0.32006855543688645 0.17432591371338285 0.11842126341387789
3.247451238420294 -1.7687301509657383 1.20151533787431
-0.28644932849345417 0.16488202578806138 0.10739040822007487
3.091990921211827 -1.7797693207695722 1.1591933867957749
2.5089458618811973 -1.4441649365185876 2.1032649139562714
-0.5753134785411904 0.3311540379722536 2.043008420086297
0.5504323595097728 -0.3168323101771448 1.9546525279016516
-0.2911739190742431 0.17843160709448777 0.11095904848467533
2.742788249740392 -1.6807828011418324 1.0452075355984813
-0.29692569366005456 0.19337886128031662 0.11513361131495672
2.627046034862889 -1.7109168441797797 1.0186430596696172
-0.2716232286968692 0.17690011940435166 0.23550832126915255
2.4122444460978305 -1.5710229666086934 2.091513464135048
-0.24750623354211207 0.1611934387091159 0.9090513405055448
0.5327080385428002 -0.34693688046483634 1.956552566798349
-0.299874193501024 0.205520392290292 0.11812212504418877
1.7972877391476183 -1.2317808241371264 0.7079617108274333
-0.30007414487458806 0.21801662780622877 0.12051662780622896
1.6559031458872238 -1.2030840577449184 0.6650485105921365
-0.27496913857935695 0.19977677306690114 0.24693767183623944
2.2759390276691702 -1.6535664947488014 2.0439205928255797
-0.2476656011641512 0.17993959196976872 0.9421759353972868
0.5148097342708302 -0.3740311657788924 1.9584526097217871
-0.2824593623710519 0.2412430858294402 0.2698804960504337
1.1979842947603956 -1.0231752476434148 1.1446340210378483
-0.4747226004548845 0.40545140400150464 1.9214025116072266
0.48411132363442616 -0.41347013113031217 1.9594026326898728
-0.24980946173601445 0.24980946173601315 0.25667579873125174
1.1174421122619753 -1.1174421122619618 1.148156457756093
-0.2517272264393462 0.25172722643934486 0.4899865375072144
0.9742157114629572 -0.9742157114629454 1.8963089134098035
-0.41853183459926724 0.418531834599265 1.8216605630176943
0.4499602068371853 -0.4499602068371798 1.9584526097217871
-0.17322174510725288 0.3399668167294281 0.5251635845570953
0.660681067174502 -1.2966596032250126 2.003014328666051
-0.4595428945481983 1.1094346885104427 -2.059596027226417e-15
0.8790265097610968 -2.122157721550692 -3.939652922085945e-15
-0.493465599338081 1.5187309512451204 -2.7388621158811526e-15
0.6885112224795027 -2.1190196545855304 -3.8214159328179615e-15
-0.10714039148981384 0.32974421905470924 0.47721031685349125
0.45097523150783214 -1.387959045685425 2.0086732009130954
-0.4712950332810164 1.5987473194988144 -2.8587127970487406e-15
0.6271838832400507 -2.1275601934149666 -3.804280687278035e-15
0.4128222202438597 -1.4003933235826735 2.009481613187342
-0.46024479217256653 1.708707034947194 -3.035094413427253e-15
0.5748062691238426 -2.1340285267483954 -3.790572595043256e-15
-0.0989333342471735 0.3673003738313757 0.5235633970762936
0.3797146958920162 -1.4097306111401677 2.009481613187342
-0.47279141513091705 1.969317972745515 -3.4736013850239794e-15
0.5138353065435017 -2.140278084209934 -3.775151103345372e-15
-0.37647608869934107 1.5681357657038915 2.219683755618785
0.34082412691943453 -1.419634657498753 2.009481613187342
-0.5566045633699417 2.6355779935406494 -4.6200500643095974e-15
0.4535760199575112 -2.147727588433762 -3.764870175491494e-15
-0.3333542829071116 1.578465700610088 2.2204922774162013
0.30155466933858655 -1.4278913660827401 2.0086732009130954
-0.5886366826336583 3.152960332109816 -5.501153749984886e-15
0.4017500857990145 -2.151925154033124 -3.7545893014374334e-15
-0.29596566736758007 1.5853038663870553 2.219683755618785
0.2679379732380338 -1.4351769538140904 2.009481613187342
-0.23817590230048027 1.5037834639087335 -0.4946994372727765
0.28987410424095605 -1.8301930647163362 -0.6020783583178568
-0.5819735721971002 3.6744365229602414 -6.3806727721210654e-15
0.34182648841405383 -2.1582075089801993 -3.747735415508824e-15
-0.061826857713511894 0.3903594165362792 0.2871479855174485
0.3359784944692411 -2.1212847283533294 1.560414865511452
-0.2521891308565829 1.5922595069303132 2.218875234182363
0.22848210958573578 -1.4425792654730323 2.010290025948131
-0.07511166511552148 0.5763586935857399 0.42229005919120693
0.27765152631817025 -2.13051955025497 1.56100226646682
-0.052471548063311196 0.40263297113276136 0.1319296297298095
0.2769070337563985 -2.1248067923281275 0.6962295526135683
-0.5143292927393225 4.8326558307653436 -8.335416310891559e-15
0.2311448819281109 -2.171845308386037 -3.7460219478090356e-15
-0.04493478455369632 0.4222087904444232 0.13795869819830164
0.22666966533532037 -2.129796018434264 0.6959208163852625
-0.06388856187353346 0.6002991379567961 0.4386059696698838
0.22703766951185897 -2.1332537984102466 1.5586526643838514
-0.048290450426287615 0.6135883499184903 0.19998342241778605
0.1681201286052844 -2.1361687743306366 0.6962295526135683
-0.2721209783209608 3.457624863554202 2.5198794566584803
0.16825497067625322 -2.1378821052914163 1.558065264588578
-0.2898334393977718 5.672411619179877 -9.741583602888397e-15
0.11155431297468356 -2.18326078040548 -3.749448884723632e-15
-0.03217555411569813 0.6297168035498947 0.20487430547594584
0.10939148939266183 -2.140931552824331 0.6965382890908827
-0.17719007770077772 3.4678367604569917 2.522817646836083
0.10951321373704885 -2.143313854144953 1.5592400644696403
-0.17026987031001353 6.192563518100255 2.012846304504746
0.058607884991925 -2.1315165731503765 0.6928334678709218
-0.09537278458547246 3.468623223640865 2.521054732523605
0.059097954196470195 -2.149339953598633 1.5621770692448465
-2.6031844343049246e-15 1.5177816159412958 -0.4931571415995391
9.544186523508839e-15 -1.8549064565690014 -0.602695642408861
-8.059336990516647e-15 4.698980740543634 -8.059336990516647e-15
1.1310031898162893e-14 -2.1980973590812574 -3.770010632720964e-15
-1.0936554077750524e-14 6.376536561225148 2.0718623224912855
1.0961815823829634e-14 -2.130421791030392 0.6922160011895556
-5.959692386057767e-15 3.4747870419865325 2.52458056176516
1.1088296436996616e-14 -2.15500321611218 1.5657014844938228
0.17609853144192067 6.404546731684876 2.0817498574249007
-0.05894739824207502 -2.143864367643314 0.696847025816875
0.24906827864167735 4.874585212361609 -8.371426928021438e-15
-0.1141033421318823 -2.2331485457341023 -3.835124232236635e-15
0.24507824637614226 4.796495170608822 1.560508805319421
-0.11186438372444166 -2.1893292621082447 0.7122841720342504
-0.175575543194163 -2.230898798490254 0.7271043800767628
0.4304255117138065 4.04429300111477 -6.975639695446272e-15
-0.24277549249412825 -2.28112692769259 -3.934512050135276e-15
0.43159687040382233 4.055299127896065 1.325087968680967
-0.23793275986767973 -2.235624444372226 0.730500749833375
0.530090785306199 4.067576348241455 1.3328114684981418
-0.2925023462129579 -2.2444752073434646 0.7354409704935027
0.2366908164085378 1.4944070006090926 -0.49161486344332045
-0.2906170931065734 -1.834884111792147 -0.6036215714228806
0.6665800132121719 4.208620568070501 -7.308285365409398e-15
-0.3635511388659701 -2.2953715536769326 -3.985921292402222e-15
0.38024739112727457 2.4007875416810864 0.7897867441593251
-0.3566094868138424 -2.251543687518462 0.7406900141828135
0.5063783368836778 3.1971469914979815 2.3518180403020814
-0.3467291187346326 -2.189161498592802 1.6103449479227798
0.5560647872749125 2.978492961934661 2.201391293718269
-0.4098842948697507 -2.195495049165116 1.6226809156179134
0.6261254680815044 3.3537644221424405 1.10853195668474
-0.4214987279178673 -2.257706337997499 0.7462478902680688
0.6888015751686751 3.6894813172104763 -6.4372531988343015e-15
-0.40688383320210075 -2.1794234435461974 -3.802567170658441e-15
0.7034454476428782 3.3308841922514376 -5.838890658646607e-15
-0.45316315347679736 -2.1457726245646263 -3.761443211473932e-15
0.6597837612440242 3.124141762514633 1.037485246213483
-0.4771254867377949 -2.259236656972494 0.7502619527184963
0.34607589679785267 1.6387038082708927 1.2168489234140911
-0.46416895149509446 -2.197886173333897 1.6320798244986738
0.35276777025798417 1.4693835123509003 -0.49099795712257366
-0.24249596688962669 -1.0100683951332365 -0.3375167302449359
0.7314942588097019 3.046892868042532 -5.374292741408851e-15
-0.5056726192792372 -2.1062780448248692 -3.715179790670966e-15
0.6968019598716185 2.9023890432518242 0.9698401261707174
-0.544143918270562 -2.266522537668517 0.7573638375641033
0.38740123293290196 1.6136422664681715 1.2056931286979822
-0.5293110173262418 -2.2047390587753655 1.647353189102862
0.43139641521450706 1.6016044115316257 1.205105987829496
-0.5947562866439191 -2.2080950580023506 1.6614518272652772
0.8705147354568937 3.2318772049085913 1.0875264722040774
-0.611425266481894 -2.2699803929348574 0.7638482566576011
-0.5012823844424655 -1.8610633979119775 -3.3057177190185415e-15
0.4972680268185027 1.6868540273254329 -3.0162559998412506e-15
-0.5046089848367087 -1.7117563414289039 -3.060783714218299e-15
0.9544800195604418 3.237828249884335 1.0967935614831283
-0.631147374731996 -2.1410053200366743 0.725251825880892
0.468553082895723 1.5894459572541104 1.2039317079791017
-0.6184931797908624 -2.098079214701526 1.5891978465218282
0.4675535193853165 1.4389817693605464 -0.49161486344332045
-0.34003072028583037 -1.046506949957562 -0.3575294574610876
0.5017942184120172 1.5443638050563968 -2.7850881127689247e-15
-0.5147508034298219 -1.5842400734637259 -2.857000521463827e-15
1.8934665090657048 5.827490703144247 1.990908507142892
-0.6360219402194992 -1.9574742546958501 0.6687530439275401
0.5120627402965362 1.5759670658115048 1.2039317079791017
-0.6292078849632988 -1.9365027490124396 1.4793564616302843
0.7201446014915331 2.0251968212267273 0.698390713165461
-0.6523413900134203 -1.8345200487146187 0.6326356785223798
0.73779536620628 1.9295683481858634 0.6712227553382121
-0.6685782972572082 -1.7485438100607837 0.6082512677625668
0.5438690962042133 1.4223897867348383 2.095984422839644
-0.5210036850764075 -1.3625895011796068 2.0078647891259793
0.7487402518651171 1.8076188707474194 0.63572246566783
-0.6800355378580429 -1.6417510183925916 0.5773883102878079
0.4529882907589664 1.0936104751465079 0.8600196143606835
-0.6567097998291775 -1.585437705290942 1.2467944984840569
0.5003131549096388 1.119774634446191 0.39850158729327984
-0.6865478086898232 -1.5365952583124367 0.546838292838877
0.4051573454356579 0.9068018978240593 1.3670196939116184
-0.5924554788399035 -1.3260027459470267 1.9989722917873385
0.5017211481890931 1.0554335144204259 0.3797064472694217
-0.6883135133158297 -1.447954013906157 0.5209209930496826
0.509881619840328 1.0006990236626143 0.3649208102995679
-0.6994024413765938 -1.3726545790216709 0.5005603177313394
0.468882731187707 0.9202341740789444 0.7503752722812758
-0.6759919080609257 -1.3267088203968613 1.0818219105367188
0.4157400843830452 0.8159358571697649 1.2604165419502469
-0.6449491094765396 -1.2657838977748643 1.9553190968021787
0.058510202210617576 0.04997243361065037 -0.10590709190749122
-0.3805509724657855 -0.3250212354173697 -0.6888208430957298
0.07087126134676872 0.05149098538181004 -0.12057339150711582
-0.4044062406832875 -0.2938183324471828 -0.6880169910797028
0.07507676912091829 0.046007103288298504 -0.12119333804043918
-0.44713319586693256 -0.2740035748307852 -0.7217887129442891
0.07606938774722975 0.0387592889846733 -0.11750815190940667
-0.08007444878992669 -0.040799969512706404 -0.12369496812219827
0.859559777962544 0.35604131770249237 0.6759612179686454
-0.6921164405032466 -0.28668401639783914 0.5442831133951517
0.8718109044819403 0.28326853425680776 0.666004267498625
-0.6964070885853568 -0.22627637967759978 0.5320076756664942
0.8874292819163347 0.21305292077383237 0.6630759553378459
-0.7041919686143174 -0.16906153397911222 0.5261633482747743
0.8998172672960885 0.14251705427504482 0.6619046568174024
-0.7081359796385163 -0.11215772080871646 0.5209040986634609
