0.096 0.0 1.632
-0.096 -3.2930390389303353e-16 1.6059999999999999
0.096 0.0 1.632
-0.096 -3.2930390389303353e-16 1.6059999999999999
0.9103867993469049 0.0 1.7867346964714428
-0.8464530816488797 -2.903544835929841e-15 1.661257710461298
2.839094117010382 0.0 2.062722617017866
-1.3096763311373132 -4.492515923748151e-15 0.9515355524932875
-1.3653186444120304 -4.683382913154438e-15 0.21624522935985194
2.6842367345413036 0.0 0.4251413328988812
0.54692365332136 0.0 -0.17770626729976896
-0.3598614880191055 -1.2344145090150786e-15 -0.11692608537309027
0.19332873557751265 0.0 -0.19332873557751365
-0.3032655601943609 -1.0402763842532375e-15 -0.30326556019436246
-0.10787302177705645 -0.01708540818027603 -0.10921767256264008
0.5485274270097014 0.08687820952958959 -0.18044899148249455
-0.3627049001371358 -0.05744681261118852 -0.1193189806247328
-0.9605937150035142 -0.15214309793010256 0.15403958078357244
0.9625354959818186 0.1524506458235805 0.15435096230023204
2.8848155210506725 0.45690989174114693 2.12206733171552
-0.922907666554098 -0.14617421423839821 0.6788899307748321
0.9050010011332897 0.14333807705764132 1.7983045858844826
-0.8015527224695694 -0.12695347933895432 1.5927451293867936
0.09481808069713321 0.015017708643862182 1.634
-0.09481808069713317 -0.015017708643862532 1.607
0.09130142556433472 0.029665631459994988 1.635
-0.09130142556433464 -0.029665631459995307 1.605
0.8692795181157541 0.28244603696765835 1.7938546082628062
-0.6433795206129866 -0.2090466784000473 1.3276849320172726
2.720136471762034 0.8838259161169708 2.0779993563497525
-0.7009977440102474 -0.22776797404376523 0.5355146243498324
-0.727033067053896 -0.23622736329843322 0.1210766378756667
0.7587345934452899 0.2465278136236416 0.12635605968594324
0.5130221973995356 0.1666910165397954 -0.17526930701147214
-0.36153194449223713 -0.11746884958291118 -0.12351405786115766
0.10546011796606866 0.03426606949422154 -0.11088733020503318
-0.29235669130400777 -0.09499244733015702 -0.30740201690945446
0.19845257720136134 0.1011166386018516 -0.22272853431924763
-0.29852840843154466 -0.15210782149294066 -0.33504626546195165
0.19845257720136134 0.1011166386018516 -0.22272853431924763
-0.29544424754230486 -0.1505363630295376 -0.3315848307748721
-0.5710384496443753 -0.2909586227336549 -0.20823825029202203
0.4823002505541164 0.24574425195486213 -0.17587845503807945
-0.5616930677156787 -0.2861969128057386 0.09984600533128216
0.8884628106202218 0.4526944129403527 0.1579322723112829
2.6334149420872923 1.3417919320723746 2.147333265661588
-0.5428954608688225 -0.2766190537276745 0.44268659080983536
0.8160091472071703 0.41577742752229957 1.7974145883566108
0.08553662632208328 0.043583087974996534 1.637
-0.08553662632208316 -0.043583087974996826 1.605
0.07766563145999492 0.056427384220077474 1.636
-0.07766563145999471 -0.05642738422007775 1.605
0.6980000184618957 0.507126697961095 1.6932922035024756
-0.36714661806748955 -0.26674763203937496 0.890668323026586
2.274630509903633 1.652615800943511 2.042745470656434
-0.4293979801716058 -0.3119758940342771 0.3856234123676344
2.456698996455029 1.7848962994326725 0.4809576292028327
-0.44376429716336313 -0.3224136342995949 0.0868774825880302
-0.4500586042619412 -0.326986716091038 -0.18075381110724123
0.45005860426194244 0.3269867160910364 -0.18075381110724123
-0.31206722924358155 -0.22673011364226223 -0.38573630889508026
-0.3582303728049846 -0.3582303728049877 -0.506614251674784
-0.3582303728049846 -0.3582303728049877 -0.506614251674784
-0.350319444076967 -0.35031944407697 -0.16097383080242414
0.39137564559475274 0.3913756455947534 -0.1798393952130083
1.9482963056765439 1.9482963056765472 0.43639776646340694
-0.34529632415495676 -0.34529632415495976 0.07734272461032177
1.5146703872137812 1.5146703872137839 1.5563030669491396
-0.3334882473136697 -0.3334882473136726 0.3426546042406426
0.6123186662013049 0.6123186662013059 1.6995213155600335
-0.30875776734685595 -0.3087577673468586 0.8569727429772593
0.0678822509939085 0.06788225099390863 1.635
-0.06788225099390827 -0.06788225099390886 1.605
0.056427384220077335 0.07766563145999501 1.634
-0.05642738422007709 -0.0776656314599952 1.6039999999999999
0.5063271748701562 0.6968995693345308 1.6906226019574415
-0.23383290442233823 -0.32184338205817303 0.7807662968102365
1.181618830082964 1.626358794614495 1.460561197476316
-0.2551952425056107 -0.3512461179749824 0.31543866727147973
1.4367781307961465 1.9775554429561875 0.38715381039102204
-0.26371993109961706 -0.36297934523341974 0.0710618946745099
-0.267615045354328 -0.36834051007177354 -0.1479339587115366
0.32312729689705816 0.444746569459833 -0.17862037664754396
-0.2722657834606736 -0.3747417019181939 -0.46320621757485203
0.10417870268145676 0.20446221633252532 -0.22947330999486693
-0.19632976500936997 -0.38531885935075194 -0.432453465704694
0.10417870268145676 0.20446221633252532 -0.22947330999486693
-0.19632976500936997 -0.38531885935075194 -0.432453465704694
-0.1936047148702397 -0.37997064731966657 -0.1385623381568267
0.16212110109618738 0.318180576175441 -0.11602960623920171
1.598681249387303 3.1375886150016306 0.5577346554317775
-0.19056361939389252 -0.3740021613895433 0.06648225507193464
1.0323087924671073 2.0260200810212874 1.652052719586635
-0.18447304187171545 -0.36204872995992493 0.2952209578553015
0.4166009247996335 0.8176253516149246 1.8009745844549445
-0.1687294463017264 -0.3311501838998396 0.7294209550416105
0.04358308797499638 0.08553662632208338 1.633
-0.04358308797499605 -0.08553662632208354 1.605
0.029665631459994818 0.09130142556433479 1.633
-0.02966563145999448 -0.0913014255643349 1.605
0.28202564407980857 0.8679856818456788 1.79118463375283
-0.1106702202199819 -0.34060791482660413 0.7028821741330002
0.8905734458763037 2.7409032330189507 2.093863750277526
-0.12090595518831797 -0.3721102678295417 0.28426694949611564
-0.12436500476659755 -0.3827561277708859 0.06374238968882054
1.107698475145623 3.409145361109833 0.5677428951412528
-0.12604533611694443 -0.387927655904848 -0.13253190946838544
0.04926471389831807 0.15162119892850318 -0.1594239630670375
-0.08500635709510573 -0.2616226657868523 -0.2750863500793895
0.038228947453816706 0.2413680748909702 -0.24437675830569547
-0.043032986014537346 -0.27169958063028415 -0.2750863500793895
0.038228947453816706 0.2413680748909702 -0.24437675830569547
-0.043032986014537346 -0.27169958063028415 -0.2750863500793895
-0.062359112879193566 -0.39371994339481353 -0.1295219950977626
0.07633225784599644 0.48194290859373057 -0.1585446917066202
-0.06160705433359177 -0.3889716326133956 0.06237499401528974
0.029896495887063924 0.18875904619042788 0.03026915946891668
0.46209696133718015 2.9175653895693845 2.1461581013312574
-0.059842732797231735 -0.37783214484082833 0.2779329373362187
-0.05447437887216835 -0.3439376921151465 0.6834298837400938
0.015017708643862022 0.09481808069713325 1.633
-0.015017708643861677 -0.09481808069713331 1.605
-1.6465195194651677e-16 0.096 1.631
4.939558558395502e-16 -0.096 1.6039999999999999
-1.5622044614203458e-15 0.910840269570979 1.7876246818971442
1.8126074226002943e-15 -0.3522790761815593 0.6913866157835766
1.980550423957513e-15 -0.38491868949860436 0.27965979774482597
2.0362186169719022e-15 -0.3957377666817227 0.06267870469116597
-1.0092651691057147e-15 0.5884500917767488 0.09320133844498148
2.0510884650986643e-15 -0.39862771201447494 -0.1295219950977626
-8.3048707620049715e-16 0.4842138727948094 -0.15733062446024976
-4.1680701371927516e-16 0.243018517812943 -0.24301851781294428
1.3626013810018086e-15 -0.26482069405543 -0.26482069405543135
0.035158624266609394 -0.22198281721718718 -0.22474986095657604
-0.017965120857391687 0.11342730902467556 -0.11484119469946344
-0.017610171737516903 0.11118624848143359 -0.11257219905465142
0.03505319041699709 -0.2213171340894995 -0.22407588000496678
0.06424334019677409 -0.4056164864751507 -0.13343559922267914
-0.11426500425611472 0.7214408436963854 -0.2373322941552571
0.0638589432077391 -0.4031894994033946 0.06465495296750942
-0.4576689725275936 2.8896081685158284 2.125592798264082
0.06207505862788331 -0.3919264954353251 0.2883007271446412
-0.14277056460435536 0.9014178685217485 1.79118463375283
0.05680035986970567 -0.3586233581614277 0.7126113990806575
-0.015017708643862348 0.0948180806971332 1.631
0.015017708643862733 -0.09481808069713313 1.6039999999999999
-0.029665631459995147 0.09130142556433468 1.63
0.029665631459995505 -0.09130142556433457 1.605
-0.2806243448342621 0.8636729262269934 1.782284784648301
0.12070234200719202 -0.37148361089402426 0.7665975942247116
-0.8738296458692684 2.6893711153875097 2.0544967154316236
0.13121356637177678 -0.4038338330764615 0.30850159685611345
0.13417447601142937 -0.4129465759294837 0.06877016369890118
0.13465286505530447 -0.414418906014183 -0.14158240099110406
-0.03409355244009467 0.10492916506869979 -0.11032905329060003
0.07614651532754595 -0.23435487663684643 -0.24641529984966504
-0.11032809834786242 0.2165310848699191 -0.24301851781294428
0.11372303437854231 -0.2231940219892472 -0.2504965069616747
-0.11032809834786242 0.2165310848699191 -0.24301851781294428
0.11341405991968503 -0.22258762547036118 -0.2498159322381187
0.22025253884977777 -0.4322699466107488 -0.15763410921297294
-0.5227929270215461 1.0260388907762685 -0.3741613957516838
-2.4159203799592417 4.741510718171978 0.8428462654350748
0.2190553076431558 -0.42992024806711393 0.07642219896910621
0.21483721225832494 -0.4216417697516222 0.3438141797974474
-1.3131537304867715 2.5772093067966035 2.1015021934486873
-0.413718700574285 0.8119686680710273 1.7885146683396491
0.19618401592583118 -0.3850328106682203 0.8481076385719819
-0.04358308797499667 0.08553662632208323 1.629
0.043583087974997006 -0.08553662632208306 1.6039999999999999
-0.05642738422007763 0.0776656314599948 1.629
0.05642738422007789 -0.07766563145999461 1.6039999999999999
-0.5332461413324406 0.7339503480909834 1.7805048270901107
0.299434929830071 -0.412136823775659 0.9998109627753495
-1.6535664947488211 2.2759390276691565 2.0439205928255797
0.32797835852940627 -0.4514234829856815 0.4054035462911398
0.33328346371145784 -0.45872533384445524 0.08980646360806484
-2.559084813559004 3.522278070334938 0.6895702373574985
0.3341575227344159 -0.4599283728810794 -0.18471773552899864
-0.6813224732092744 0.9377599341359457 -0.3766258002704324
-0.14404037098205932 0.198254562437666 -0.24505611602243332
0.16128895869145005 -0.22199520671453102 -0.2744011661782807
-0.28260617473792043 0.282606174737919 -0.39966548512474886
0.17905376287584754 -0.17905376287584537 -0.25322025985295954
-0.28260617473792043 0.282606174737919 -0.39966548512474886
0.17905376287584754 -0.17905376287584537 -0.25322025985295954
0.5251696708842353 -0.525169670884229 -0.24131853133709938
-2.969660131811409 2.9696601318113935 0.6651724611405567
0.5093757843087554 -0.5093757843087492 0.11409478831080332
-2.052719012731537 2.0527190127315262 2.109140656651654
0.48650147996402443 -0.4865014799640185 0.4998736040096872
-0.6453439423314296 0.6453439423314262 1.79118463375283
0.46393519961493485 -0.46393519961492935 1.2876755263328197
-0.06788225099390874 0.06788225099390839 1.629
0.06788225099390897 -0.06788225099390816 1.605
-0.07766563145999512 0.05642738422007719 1.629
0.07766563145999529 -0.056427384220076954 1.605
-0.7335834863490636 0.5329796006750314 1.7796148498538205
0.6503182661106744 -0.47248387706810646 1.577620086926347
-2.2994924446240335 1.6706790538463618 2.0650728791391386
0.8734138171977937 -0.6345722827416891 0.7843744781059491
-3.323362978541234 2.414564539908759 0.6506278471420833
0.8743432562598653 -0.6352475597474736 0.17117361966078593
-0.33449195790101643 0.2430226326908657 -0.13433960733731956
0.9577040193436946 -0.6958126992948542 -0.38463580024867744
-0.18182645699727598 0.13210465372505809 -0.22474986095657604
0.15106320949502738 -0.10975384611511925 -0.1867243958351457
-0.32262865177413835 0.16438750881499814 -0.36209460089871637
0.16931116883183292 -0.08626834940346532 -0.19002236710450743
-0.3213910060175104 0.16375689680453745 -0.360705558593156
0.16872285496740447 -0.08596858851724862 -0.1893620870184953
-0.346112892155783 0.17635332695149078 -0.12621556939102208
0.5182527190900615 -0.264062949646069 -0.1889890943413807
-3.4903683364766795 1.7784314955443887 0.620444430530863
2.2799809441997256 -1.1617083154320778 0.4052871623208603
-2.6045914323943675 1.3271056203400684 2.1238300644730623
2.105988343520168 -1.0730546573621227 1.7172602596201414
-0.8095444026703746 0.41248347565631843 1.7831747649671215
0.7586389441031707 -0.3865458489981403 1.6710458578723482
-0.08553662632208345 0.043583087974996236 1.63
0.08553662632208361 -0.0435830879749959 1.6059999999999999
-0.09130142556433483 0.02966563145999468 1.63
0.09130142556433495 -0.02966563145999433 1.607
0.8067495155585747 -0.2621288075313303 1.6648170191970666
-0.8602227574934505 0.2795033170574021 1.7751649791622952
-2.7016772265593643 0.8778281437730204 2.063897747828247
2.317134466464633 -0.7528826269744684 1.7701332193712649
-3.6852241139857504 1.197401899666419 0.6137197409023066
2.364179244723722 -0.7681684020357558 0.39371919553331736
-0.35363506145917173 0.11490299674661805 -0.1208161605308434
0.6614926106392333 -0.21493197810920683 -0.22599285576264358
0.19715220362803124 -0.0640586341144665 -0.2072980945402061
-0.3322892436217146 0.05262944587688759 -0.3364312708414612
0.16253401253471933 -0.025742858609011546 -0.16456001944579415
-0.3302374036946187 0.05230446635839898 -0.33435385447157717
0.16253401253471933 -0.025742858609011546 -0.16456001944579415
0.6032636649412328 -0.09554757793984152 -0.19845556407292203
-0.35906670794385376 0.056870579576859745 -0.11812212504419006
-2.464013676032668 0.3902614270304288 0.39512608480857336
2.763307903506948 -0.4376649757412963 0.44312052471692975
