3.4911206702538005 3.4911206702538067 0.9820681908367028		65 0 189
3.479039632708211 3.479039632708217 1.1812127107727068		63 0 191
3.454452896798458 3.454452896798464 1.3778067236014833		62 0 192
3.5776021421622093 3.5776021421622155 1.6439290814365195		45 0 209
3.687735259359766 3.6877352593597723 1.9240055389082091		28 0 226
3.4479367963268808 3.4479367963268865 2.019754613083041		48 0 206
3.0983651842202184 3.098365184220224 2.020014448073083		80 0 174
2.7646329420066227 2.764632942006628 1.992133126059498		112 0 142
2.412376278575173 2.412376278575177 1.9105963417570913		146 0 108
2.209209011843687 2.2092090118436905 1.9145694252173935		163 0 91
1.5064116225276225 1.5064116225276252 1.8195230273418859		225 0 29
1.075041243401599 1.0750412434016008 1.7800869782038977		247 7 0
0.18669000084881124 0.18669000084881154 1.6669537147641926		153 101 0
2.3903328776658572 2.585847538714934 1.7942458695707182		143 0 111
2.224233794195307 2.40616256253934 1.0646679066233127		179 0 75
3.484889703809023 3.769932442249272 0.8131286080087851		54 0 200
2.096470910191416 2.2679494532994284 -5.297148896935211e-15		205 0 49
2.25025886480888 2.434316325314299 -0.5250524446732352		185 0 69
1.3323812566309257 1.5600180162228021 -0.6665920611880015		221 33 0
1.3199727515634687 1.5454895234484654 -0.4879488375239743		211 43 0
2.4549688042760858 2.8743991593064804 -0.5987066418618078		152 0 102
2.0539919523045675 2.404915586154455 -0.24890778079329706		199 0 55
2.103836807441692 2.4632764131647 -5.55601338790758e-15		194 0 60
2.168540189450434 2.53903433991565 0.26278901702197194		186 0 68
3.4631068594376964 4.054777163773993 0.8445667719325185		39 0 215
3.4567516622158436 4.047336183864227 1.2778430109177583		34 0 220
2.217581082764495 2.5964538485741886 1.1094586759268406		169 0 85
3.175784646361719 3.71836607525949 2.0254939176142988		47 0 207
2.540356948671358 2.97437583112284 1.9930408898388086		111 0 143
2.0262984406237714 2.3724906500188623 1.9119578303662303		164 0 90
1.6652772254625885 1.9497891168899688 1.8629584434476933		199 0 55
1.386537493253891 1.6234268223750892 1.823417432239347		225 0 29
1.1709460061048536 1.3710016231890814 1.8029864114851206		243 0 11
2.209859653441054 2.8031936068058614 1.818754220574108		139 0 115
-0.029250501198072935 -0.037104083884525706 -0.14541215609003127		0 255 0
3.197925244427259 4.0565488338876 0.8181336622704215		51 0 203
2.6856146188782506 3.406685903451508 -0.687067881720733		111 0 143
1.1489725995586737 1.5814251131493273 -0.4692937001111563		200 54 0
1.2737824586646975 1.7532111467194136 -0.343233044762471		226 28 0
2.0628072332594165 2.83921058127543 -0.2762002780343798		174 0 80
2.5378879353192954 3.4931030703554007 0.3398113706667918		116 0 138
2.548514618441086 3.5077294448788097 0.5131748056191857		113 0 141
2.8835431949855104 3.9688567204757494 0.7769986969018923		70 0 184
2.9164172571822378 4.01410398533577 0.9869445662858336		63 0 191
2.910822780036596 4.006403848138018 1.188915030119861		61 0 193
2.91960484365518 4.0184913217270655 1.4008751029658129		56 0 198
2.032735303107611 2.797820120300813 1.1236684395051555		165 0 89
1.8398643213494366 2.5323559880253352 1.1547785194302853		187 0 67
2.7781529115609565 3.82379943977686 1.9577704779538294		59 0 195
2.634233950991159 3.625711984435587 2.066058105999363		72 0 182
2.3300512562374496 3.2070404228563785 2.019820009176923		107 0 147
1.8464335173997513 2.5413977107010197 1.9250158289911263		162 0 92
1.2562307434594335 1.7290532832376289 1.8253646383428526		225 0 29
2.631688785663036 3.9386006021654523 0.7502535784902078		82 0 172
2.427562765472712 3.961422394447685 0.7358645476300958		89 0 165
-0.012497177308081137 -0.020393539874540047 -0.15101299311885694		0 255 0
2.420898208610104 3.950546826087472 1.1123594915487542		85 0 169
2.3460220656860025 3.828360065931081 1.859821677714979		78 0 176
2.0265648648907666 3.3070532938479333 1.9762472922283303		114 0 140
1.6520342842354672 2.695874933924256 1.9375515643072547		160 0 94
1.3452534038147586 2.1952540366308657 1.870596160099953		198 0 56
1.1206690464826081 1.8287656742156606 1.8318553428331348		224 0 30
-0.007838459377531866 -0.014258104676817563 -0.1473779664862143		0 255 0
0.9761462197519932 1.9157948257944075 1.8363988518628704		223 0 31
2.012436280776086 3.949628586310872 0.7020820792557751		104 0 150
1.828285297639278 3.5882119322074697 -6.907054019305076e-15		137 0 117
2.0167609786936382 3.9581162838769965 -0.34961641569931606		107 0 147
0.8486364864496283 1.6655428836610253 -0.44877501774557754		187 67 0
0.7726866751953256 1.5164829862021971 -0.5530096333110829		168 86 0
0.791362956480386 1.5531372520560256 -0.888167409549843		192 62 0
0.5736834952690814 1.125917254650017 -0.9180929053953187		135 119 0
1.6775186723102824 3.6388192955538448 2.041606533677675		104 0 150
0.8271879755073088 1.997008429101696 1.8461349862003311		222 0 32
-0.05257733877387572 -0.12693292434137726 -0.2696454267470585		0 255 0
1.1512555087334295 2.779376662940993 1.8435349519631898		173 0 81
-0.18734838053560957 -0.45229900117771027 -0.24944578137208528		0 255 0
1.3874661149562781 3.349639512060567 1.8473475360881022		134 0 120
-0.2884622463126581 -0.6964094672806368 0.05932441600348854		19 235 0
1.6266997264400052 3.9272005414800786 1.7607270961164314		96 0 158
-0.2880414209552567 -0.6953935049954079 0.11921414775217838		20 234 0
1.675619411648743 4.045303108978037 1.0512099427795372		103 0 151
1.668356889246652 4.02776982889787 0.8671836573202155		107 0 147
1.6677563949353589 4.026320107387418 -7.474611154128248e-15		114 0 140
1.0181473114480284 2.458025047791543 -0.42138926970265317		233 0 21
1.4651779521394754 3.971538623056488 1.3754455765805331		107 0 147
-0.28766955833122576 -0.7797624581517855 0.13163864959274987		32 222 0
0.6728863070661327 2.0709311096481 1.8597656725659253		221 0 33
-0.13444035359546808 -0.41376486299279924 0.1044482143345479		0 255 0
0.9333265565183424 2.872483777804986 1.850847234415852		172 0 82
-0.13649206679900389 -0.42007938694232666 0.08785911658499258		0 255 0
1.1236824498060296 3.458338976780793 1.8527939102006754		134 0 120
-0.12881883232941008 -0.3964635995383716 0.0660251670074755		0 255 0
1.2190810791640525 3.7519457678250654 1.8186833912816702		115 0 139
-0.2852644721449229 -0.8779537696614335 0.0726523177135958		44 210 0
1.2647520335203295 3.892506512174462 1.6953030249443912		109 0 145
1.299996177055749 4.000976832515265 1.5519984939801184		105 0 149
1.3222300779893519 4.0694057433858 1.3902749787574207		104 0 150
1.3246968352987827 4.076997641747242 1.2090051793672427		107 0 147
1.3269276125138165 4.0838632680570575 1.0309049029676418		110 0 144
1.3317453249937112 4.098690662443273 0.857236398525939		111 0 143
1.3337952054173785 4.104999545676372 0.6836271498429504		113 0 141
1.334617815265802 4.107531278464383 0.5111771548219866		114 0 140
0.8569295079692876 2.63735783919678 0.218246297560358		227 0 27
1.0984173017140637 3.3805808464338543 0.1396587699350118		171 0 83
1.2979014316082507 3.9945298689369264 -7.203689712004341e-15		125 0 129
0.8120118039028191 2.4991153608637 -0.1032436119941133		237 0 17
0.8125961033270144 2.5009136495823263 -0.2069552854859321		237 0 17
0.13807192943272734 0.4249417041611304 -0.1850748236993848		0 255 0
0.12092024915788599 0.3721542601443574 -0.39130614613113457		0 255 0
1.1240655468614558 3.9856357894768886 -7.102524179281564e-15		129 0 125
1.0375768142054278 3.6789698755336593 1.9476529489462888		119 0 135
0.5124091690276298 2.1343377939430224 1.8746946484275377		219 0 35
-0.2722835767586919 -1.1341427196723992 0.1847347970513051		81 173 0
0.5806538029661358 2.418597151996988 1.8071452563236363		206 0 48
-0.2672877383040079 -1.1133335549056949 0.8318687759937713		114 140 0
0.7084594687928247 2.950946062481152 1.859726463059762		171 0 83
-0.26362599875709225 -1.0980813120127957 0.9644992301643284		124 130 0
0.8530392443556519 3.5531641683927244 1.8618712200469674		132 0 122
0.8202592021315835 3.416625466053257 1.4554261458537927		153 0 101
0.8261883845381692 3.4413222881682324 1.1499259377067603		159 0 95
0.8249616072369611 3.436212392957558 0.8484030510729607		166 0 88
0.8294296723931083 3.454823223725207 0.5627387594282366		168 0 86
0.8332249695625688 3.4706317741525856 0.2809061023543862		169 0 85
0.9538876082311325 3.9732278352572608 -7.008218023991457e-15		133 0 121
0.9462938675658087 3.9415976290098613 -0.31902515134577997		135 0 119
0.6141797008196086 2.558242566618134 -0.41669925059231755		235 0 19
0.06306825299947562 0.3981972779033519 -0.2929135082818049		0 255 0
-0.21327006650980496 -1.346534205461173 1.5962413702989753		212 42 0
0.06577099738797683 0.415261734380031 -0.21422387323143832		0 255 0
-0.24733060385465575 -1.561583974712878 1.3503436830365894		210 44 0
0.06860215523581134 0.4331369615300805 -0.14248900607938553		0 255 0
-0.2608251342271655 -1.6467850862921425 0.40028630868562337		157 97 0
0.10802571296949563 0.6820475088850111 -0.05434740988476852		10 244 0
-0.26460695673667456 -1.670662573889788 0.13312296064354376		155 99 0
0.10601827118288237 0.6693730202641596 0.05333747198574296		8 246 0
0.6165314661797837 3.892626478437472 0.9461860549478116		136 0 118
0.6147606348497222 3.8814458894450627 1.1083262918243912		133 0 121
0.6114956962577782 3.860831878464855 1.270097326856397		131 0 123
0.6080657897830026 3.8391763012645455 1.4340018560323602		129 0 125
0.6026911214227391 3.805241980764056 1.5958301538663369		127 0 127
0.598958808661634 3.7816770854153874 1.7651084292957242		124 0 130
0.596156722787881 3.76398541148573 1.9417525547807137		119 0 135
0.5511596285514022 3.479884939594183 1.973121605740678		137 0 117
0.5062144499513938 3.196112250131037 1.9829940532494603		154 0 100
0.3431335935710003 2.1664602461448146 1.8733964713421452		219 0 35
0.42844971880375793 3.6199533964315656 1.8573325620686674		133 0 121
0.17221657085200945 2.188219008207617 1.8746946484275377		219 0 35
-0.2186383597639509 -2.7780637623423488 -4.7794586959036015e-15		226 0 28
0.19534337095519966 2.4820728652113444 1.808907753094503		205 0 49
-0.21835522510712713 -2.774466195424839 0.2190304228029287		226 0 28
0.23897683912176554 3.0364886450851043 1.8665164822825946		170 0 84
-0.21633379483806792 -2.7487814885662707 0.43671045021427624		226 0 28
0.28502226068387626 3.6215511986167686 1.850978451174433		134 0 120
-0.22029836840037503 -2.7991561719405738 0.6740959530861498		219 0 35
0.3011903689017103 3.826986491829202 1.5900914291441461		128 0 126
-0.2166628903673867 -2.752963043739555 0.8972578624575521		218 0 36
0.3037839403493679 3.8599409416410366 1.2580489833981516		134 0 120
-0.214311359546682 -2.7230840116882544 1.1314261383126398		214 0 40
0.30525293355416167 3.8786062700571966 0.9340503457681424		139 0 115
-0.21143710674931382 -2.6865631671813697 1.373105130219054		209 0 45
0.3071953826479431 3.90328742593238 0.6201316533107747		142 0 112
-0.19791976279439327 -2.514809027400845 1.5458422698317649		214 0 40
0.051779630698633165 0.6579225888203641 0.051939743594120735		6 248 0
-0.1490233703063054 -1.8935214535868088 1.6222208665619637		247 0 7
0.055590913171257986 0.7063495242249305 -1.215223502666382e-15		13 241 0
0.14755205031287913 3.7554504568817446 1.9149739576180056		124 0 130
-3.773797560821425e-15 2.200305320136965 1.8792382760514879		219 0 35
9.804279539188414e-15 -1.905455365363292 1.6274126245695173		246 0 8
-5.225521957346951e-15 3.0467304029791054 1.8670387921954839		170 0 84
2.0658642283098963e-15 -0.40149937200495606 0.24603913160232424		0 255 0
-6.186313051322749e-15 3.6069177796318717 1.8378164029563706		136 0 118
1.6506420641489172e-14 -3.20801213883713 1.3288021361638547		177 0 77
-6.499938073634933e-15 3.789776238253422 1.7471107761014304		127 0 127
1.3052199550442464e-14 -2.536686511617117 0.6090045498843019		239 0 15
-6.522273218568324e-15 3.8027987010196216 1.57517079693711		131 0 123
1.3063892353274538e-14 -2.538959000258782 0.19982040687808866		243 0 11
-6.5573540648677696e-15 3.8232525201510263 1.4104723205929388		134 0 120
1.3048514766396349e-14 -2.535970376229218 -0.19958519706591418		244 0 10
-6.573890884889581e-15 3.832894280867046 1.245382845432158		137 0 117
-6.614509056892554e-15 3.856576626968549 0.9258821308999826		142 0 112
-4.911686560834485e-15 2.8637492860896856 -0.22538195673304637		220 0 34
-7.31525888371343e-16 0.4265147449114987 -0.10239713068772571		0 255 0
-0.1463280437740046 3.724297410170814 1.8990884403313726		126 0 128
-0.1726935936756688 2.1942801578687585 1.8798873667022815		219 0 35
0.17459843208441736 -2.218483424679568 1.616806630966015		229 0 25
-0.19616814271220392 2.4925525840163396 1.8165452583677386		204 0 50
0.03359986904284924 -0.4269268151670752 0.26243007314635525		0 255 0
-0.23837498072920876 3.0288413091269515 1.8618156978306102		171 0 83
0.24679506611986 -3.1358286379965254 1.6027251631080577		173 0 81
-0.28243640441786566 3.5886947794823505 1.8341855023894507		136 0 118
0.25148035443640715 -3.1953608705945777 1.3276545250951408		177 0 77
-0.2977119443901664 3.7827889178260192 1.5717275849650587		132 0 122
0.19824300193329816 -2.5189161700782132 0.8209762726796568		236 0 18
-0.3002778323192073 3.8153916151824916 1.2435292703482372		138 0 116
0.19811125761118067 -2.5172421997485595 0.6062051116682771		240 0 14
-0.3017445573978527 3.8340281243234413 0.9233149863278809		143 0 111
0.19836698451788617 -2.520491518181708 0.4004410646116957		243 0 11
-0.30386416584653436 3.860960303232916 0.613406965703831		145 0 109
0.19826649066540655 -2.5192146227173753 0.19887957000702103		244 0 10
-0.05023233441060593 0.6382623253971369 0.050387662758856845		3 251 0
0.19833075144548765 -2.520031133345592 -4.335532134820792e-15		245 0 9
-0.30639690318361723 3.893141782380843 -6.697870149134744e-15		146 0 108
0.1980320075114793 -2.5162352317563923 -0.19864436178465025		245 0 9
-0.22804866939516505 2.8976330831471144 -0.22875384114467917		217 0 37
0.011627521980612968 -0.1477416748600311 -0.2908559750841355		0 255 0
-0.18171875567191625 2.308955713970219 -0.36683348369707		248 6 0
-0.29450669170489396 1.8594420708336872 -0.14816542698877977		182 72 0
0.3995183236616499 -2.5224594211590783 -0.200996461820581		242 0 12
-0.09953821341876765 0.628459545740784 0.050077374498741244		2 252 0
0.3996741663957723 -2.523443373457694 0.2010748658293589		242 0 12
-0.6039097721171885 3.812936238431911 0.9268156390534589		141 0 113
0.3994093641500612 -2.521771477877746 0.6129704505043709		238 0 16
-0.5992992948213977 3.783826830422237 1.2447649868964754		137 0 117
0.5035773213158004 -3.179462075213511 1.3333925880007718		176 0 78
-0.5967679409463397 3.767844491059411 1.4073581334727538		135 0 119
0.4131501003229238 -2.6085270717019045 1.618433041803534		204 0 50
-0.5917100647874524 3.735910317800198 1.5667540638476931		133 0 121
-0.5863183821161689 3.7018685731677357 1.7278575814533301		130 0 124
-0.5829186421802933 3.6804034599981 1.8986345694294908		126 0 128
-0.5421539793590302 3.423025508365136 1.94088186960123		141 0 113
-0.5043476973483556 3.1843260380560108 1.9756814225825767		155 0 99
-0.3442035856808043 2.173215910448732 1.8792382760514879		219 0 35
-0.42865174525059346 1.785463015941138 1.8361972933211705		240 0 14
0.51892986514093 -2.161498447964514 1.6150443506330752		229 0 25
-0.4911198737454152 2.045661497198595 1.7968058627719041		228 0 26
0.615345477145393 -2.5630983744798206 1.6152995593683566		204 0 50
-0.5702715904870733 2.3753521247448828 1.7748331179447017		210 0 44
0.7353479074252124 -3.0629444697346315 1.6049942773628183		173 0 81
-0.6348427585204702 2.644310396108858 1.6664804832294697		197 0 57
0.7594596717795938 -3.163377196256408 1.3475465562070137		174 0 80
-0.6353419640075245 2.6463897366093136 1.3867180501961995		207 0 47
0.7604943051245389 -3.1676867542902354 1.058489980381174		180 0 74
-0.5928219841050176 2.4692812740971544 1.051873131396998		229 0 25
0.7605193579610513 -3.1677911068644016 0.7821296628036314		186 0 68
-0.5900694799567056 2.457816269201017 0.8212850879410996		235 0 19
0.7623594341399472 -3.1754555757493046 0.5172339699018926		189 0 65
-0.582423631813646 2.425969019688585 0.598973312106816		242 0 12
0.6408507699710253 -2.6693355648225134 0.21605076487070482		229 0 25
-0.5752401856577659 2.396047813067041 0.39028016385805486		247 0 7
0.6549643242154909 -2.728122749072143 -4.812026849316232e-15		225 0 29
-0.1489999108712859 0.6206292944956545 0.05023251311824768		3 251 0
0.6115460076817423 -2.5472724451964113 -0.20617121630242596		238 0 16
-0.5375682626360644 1.6544649920229062 1.0660328105537298		204 50 0
0.8239870389854187 -2.5359713447311543 -0.20985637537730742		234 0 20
-0.5643990565303579 1.737041684680715 1.5599217578677538		254 0 0
1.0232012909260506 -3.149089768299508 0.26059307250694824		188 0 66
-0.4740212367051136 1.4588873564787714 1.796042189999705		250 4 0
1.0244380540680689 -3.1528961338610832 0.7958973818659466		182 0 72
1.0224376335755974 -3.1467394726439752 1.3704991706501124		169 0 85
0.8174438436616558 -2.515833460202688 1.6210442816234927		204 0 50
0.8512926478116287 -2.0552022558953045 1.6162192039277083		229 0 25
1.0110094161116174 -2.440792644063532 1.61895528944409		204 0 50
1.2085122661791747 -2.917606703303962 1.6090786889802076		172 0 82
1.2969244870076466 -3.13105268590758 1.4037809491052666		163 0 91
1.2990562986562058 -3.1361993345019568 1.102971652940874		170 0 84
1.2995265960044304 -3.1373347327383887 0.8152658468441336		176 0 78
1.3026188906424203 -3.144800192392277 0.5391259367448495		179 0 75
1.2964856318768692 -3.1299931958989395 0.2666319560052324		182 0 72
1.2978169100128785 -3.1332071856301846 -5.816602940967496e-15		183 0 71
1.0436740490368999 -2.5196520438816865 -0.21463936528457503		230 0 24
0.21533630967997142 -0.42262130359461614 -0.03732971311701726		0 255 0
1.5900933083695008 -3.1207338317393774 0.27565126902627723		174 0 80
1.5924208338516939 -3.12530185770256 0.8421022421036553		167 0 87
1.1118061474274636 -2.1820424250263164 1.0143938810579325		236 0 18
1.2051987791031133 -2.3653357850897168 1.6267890233900568		203 0 51
-0.5422091369366351 1.0144019468783325 0.2761429738231221		81 173 0
-0.49086288987352866 0.8374925714328731 -0.07639905850049683		51 203 0
-0.5297997644698789 0.9039252635389284 0.43399000852985076		74 180 0
0.2601917887218496 -0.4245944094028026 0.36180080235622686		0 255 0
0.28258570764761515 -0.46113796378323796 0.3314243445963884		2 252 0
1.6588899336034117 -2.7070623369116595 1.6177013606545716		171 0 83
1.3061127472646903 -2.1313822902042765 1.035427942657651		232 0 22
1.8332826339755568 -2.9916453592368866 1.140040713536164		162 0 92
1.8342439357644609 -2.99321406118295 0.8428023303527196		167 0 87
1.839409535553323 -3.0016435539134365 0.5575782777022625		171 0 83
1.8956497503499032 -3.0934192433137198 0.2855335516094685		165 0 89
1.8179421342967832 -2.9666119389546814 -5.967474943776997e-15		177 0 77
0.02493879016942814 -0.04069640681293167 -0.14689744455708412		0 255 0
0.01553299792653092 -0.021379337516793114 -0.166849183104855		0 255 0
2.1231406754058297 -2.922252440245503 0.2842786448477667		166 0 88
1.8823250027235978 -2.5907981021995794 0.7688288351516667		190 0 64
2.052277801343049 -2.8247180615528675 1.446244688443679		155 0 99
1.5739060133220928 -2.166295781257363 1.6408898346126422		201 0 53
1.1253581089572722 -1.548922555224399 1.6352003071554362		246 0 8
-0.5021892805819134 0.6634113885370645 0.7106386254827022		68 186 0
-0.4898523551876587 0.6471138347609328 0.950273831575985		91 163 0
-0.5145299529393234 0.6526781338098651 0.509299696813899		51 203 0
0.010017143535028916 -0.012503438993150802 -0.1451182994964563		0 255 0
2.057097552294191 -2.4085517765547926 -5.432579894196528e-15		199 0 55
2.2015465738604814 -2.5776798507810628 0.26678881161040396		182 0 72
2.2055312653629837 -2.58234532509786 0.5378749477820886		180 0 74
2.1984690787983743 -2.5740765670228813 0.8126989212931974		176 0 78
2.1965881620506367 -2.571874296464899 1.0989558906171744		171 0 83
2.1884010682926034 -2.5622884412905833 1.3957473653654031		165 0 89
2.0937591519758008 -2.4514769946349966 1.6426619123523079		167 0 87
1.747322113489303 -2.0458513384377723 1.6487236677877974		200 0 54
0.27481075804897687 -0.2748107580489736 0.331930858042899		0 255 0
1.9066697527753633 -1.9066697527753402 1.6523794684342799		199 0 55
2.2063697873106225 -2.206369787310596 1.2924614977963087		184 0 70
2.208771717205535 -2.2087717172055084 0.7499279982411282		196 0 58
2.4068674310016105 -2.406867431001581 0.26788680289919664		181 0 73
2.632017148662369 -2.2479550104811294 -5.936614517565568e-15		178 0 76
2.6254190590607296 -2.242319709591412 0.2717298001665615		178 0 76
2.3143392147769677 -1.9766324229516714 0.4820521377213622		205 0 49
2.205281797433719 -1.883488589192275 0.6962613936518378		212 0 42
2.1995906369775207 -1.8786278789687627 0.9398799508884925		208 0 46
2.188697529440308 -1.869324286216553 1.1922423568984917		203 0 51
2.4941464060250804 -2.130202272104118 1.6712534174189826		162 0 92
2.0691813518994775 -1.7672478273785088 1.6675250071820178		197 0 57
1.3288897733648606 -0.9654949353809648 1.6425980944832472		245 9 0
0.31200067019112754 -0.22668175566002577 0.32937966459873574		0 255 0
0.34738312098212937 -0.25238861090474524 0.31196947982501166		0 255 0
2.2118017682432094 -1.6069680481461284 1.6753589556371584		196 0 58
2.160529367089317 -1.5697164681948752 1.1061826537342019		219 0 35
2.177222187384915 -1.581844512051978 0.6460986661879782		228 0 26
2.504644620100323 -1.8197308340426923 0.24365348065807263		203 0 51
2.05904832222603 -1.2617864346782977 -4.141869419981968e-15		253 0 1
2.5776775831185876 -1.5796028545056828 0.23792876985646688		209 0 45
2.5689656697178997 -1.5742641871075345 0.4772050471249405		207 0 47
2.2142498584388024 -1.3568940583900115 0.6234685867865583		235 0 19
2.155180681511272 -1.3206964202140443 0.8212850879410996		235 0 19
2.143978189799807 -1.3138315244641277 1.041547045018615		231 0 23
2.137543317514796 -1.3098882296562928 1.2773650189181402		224 0 30
2.352138277056331 -1.4413921899942002 1.6905046821083336		194 0 60
1.959462587248572 -1.2007602177966177 1.6696760968912958		222 0 32
1.7431349921961095 -0.8881716404281753 1.6708945317166464		242 0 12
2.4473465395665737 -1.2469853456412718 1.6831929369586334		195 0 59
2.1285715340916496 -1.084561367689075 0.9895361862868501		241 0 13
2.524292305223189 -1.2861911714741512 0.6801622072806975		217 0 37
2.557833651802203 -1.3032813411664714 0.22593086437122084		220 0 34
2.0972350282843326 -0.8687031921992765 -3.893385502677854e-15		237 17 0
2.5518685434275086 -1.0570185600809303 0.2173837636752056		227 0 27
2.542835905647652 -1.0532771190085104 0.4359287413353467		226 0 28
2.5402090457876785 -1.0521890380280559 0.6600971382698485		223 0 31
2.098182939019856 -0.8690958296818493 0.7379111011738583		254 0 0
2.1209565184098307 -0.878528955128957 0.9509128887626207		248 0 6
2.1137645324364778 -0.8755499369983973 1.165754609356403		242 0 12
2.4825229877472417 -1.0282946904278658 1.6466346422155593		200 0 54
2.1478300358048013 -0.8896603305026228 1.689062057363408		220 0 34
1.7084637978128718 -0.7076688758775239 1.579389823215617		252 0 2
1.7666691409768034 -0.5740256006302191 1.5865282084291468		251 0 3
2.4688236895406512 -0.8021694432581328 1.5907541526791056		208 0 46
2.1025727029856536 -0.6831672839616834 0.9157333076742495		254 0 0
2.1196033832913685 -0.688700887433256 0.5350594221097562		240 14 0
2.5293387590645926 -0.8218319812653646 0.20930751649911744		235 0 19
2.487129903677817 -0.597107060946002 -4.386949186324323e-15		243 0 11
2.5182109097839676 -0.6045689503229278 0.20381903284638297		240 0 14
2.5092946870248434 -0.6024283546272355 0.40872637694429803		239 0 15
2.1066466203892067 -0.5057611064433468 0.5201324062312751		231 23 0
2.1011241818267563 -0.5044352862461775 0.7020955878885599		237 17 0
2.0904496706979625 -0.5018725628605899 0.8904971111275554		245 9 0
2.082725255671646 -0.500018094886452 1.091355768836908		254 0 0
2.0684324367975706 -0.49658669266740724 1.3035543375975198		247 0 7
2.1371269292671093 -0.513078781175132 1.596834259561454		231 0 23
1.8129100606627537 -0.4352411976877595 1.5923687424033088		250 0 4
1.9270263863185213 -0.30521099568765914 1.6663515699106015		242 0 12
2.4376599775457204 -0.38608741124508344 1.512420359804068		219 0 35
2.8474510398808723 -0.4509919393030308 1.1941548669100799		202 0 52
2.152307743349262 -0.34089205733652345 0.5231643940136591		233 21 0
2.3768407943084324 -0.3764545989470506 0.1893931715846075		253 0 1
-0.4607927138529114 0.18035079173439053 -0.25212827445736335		0 255 0
1.7438120472308287 -0.888516617199073 1.671543527669483		242 0 12
1.6641889443733915 -1.019816296725761 1.6670005633946052		242 0 12
-0.45232095232143804 0.3313520715420145 0.6564994750765938		35 219 0
-0.4958293293548858 0.4371323553982362 0.27379842953434647		14 240 0
0.27798012690476503 -0.27798012690476165 0.33575898810310834		0 255 0
-0.5113782599494996 0.6486802303113637 0.5061800411456563		50 204 0
-0.5109566918414694 0.6640900003550774 0.06594490496478835		32 222 0
-0.49898911546283575 0.6591838471153618 0.7061101318858182		67 187 0
-0.4839902665724659 0.6393697898394124 0.9389018552030978		88 166 0
1.1258047394999744 -1.5495372894285047 1.63584928315232		245 0 9
1.8027954932357504 -2.9418948671849012 -5.917755428887673e-15		179 0 75
0.25514793320170837 -0.4163635852626263 -0.07734272461032343		0 255 0
0.025065477776095444 -0.04090314219761002 -0.14764367504982448		0 255 0
-0.5279378294212977 0.9007484970653435 0.4324647885093694		73 181 0
-0.5258736766397621 0.897226713983954 0.20686493161223385		63 191 0
-0.5246013194650675 0.8950558640297221 0.16431815444897524		62 192 0
-0.3791585590403639 0.6469066681193039 -0.05901313285376352		19 235 0
-0.5362701748052376 1.0032909302278878 0.27311830575195556		79 175 0
-0.5319512212212502 0.9952107363956209 0.6915196948779586		101 153 0
-0.5230193433324258 1.0068550964747887 0.9690359029483177		125 129 0
-0.5148364162368597 0.9911022912386436 1.3076561906012978		158 96 0
-0.5532886327670843 1.3815716814676708 0.6164506288562964		142 112 0
-0.541316030340453 1.4325513067931874 0.3676597730260743		137 117 0
-0.3894391927566224 1.0951842360524564 -0.0914800756846399		79 175 0
-0.5315150042963298 1.6358349784844362 1.054028805761349		201 53 0
-0.5571206237364958 1.7146409718946094 1.5398051656322513		251 3 0
-0.47301861521982874 1.4558016048394922 1.7922433085388476		249 5 0
-0.6245313299881949 2.601360205214069 1.3631224085135547		211 0 43
-0.5829070717807523 2.4279826920724252 1.034280616015173		232 0 22
-0.572442956214503 2.3843965139101284 0.5887090336776141		245 0 9
-0.15038062447062786 0.6263803805335542 0.05069799469864541		4 250 0
-0.630176237931039 3.168109887949975 1.3379830518435862		175 0 79
-0.6287790017115483 3.161085507123901 1.6422080817173736		167 0 87
-0.5376511872823889 3.3945959980709755 1.9247621179497354		144 0 110
-0.5641069083806466 3.5616308472269185 1.8373625401642686		136 0 118
-0.5932777004219946 3.745807979662248 1.7483664231735363		127 0 127
-0.5960446793539558 3.763277997084992 1.5782314332409653		130 0 124
-0.5988220866022207 3.780813856305594 1.4122024261999364		134 0 120
-0.29590845561089124 1.8682924598183939 -0.14887065017561876		184 70 0
-0.3028943546928884 3.848637684159265 0.7679088396186031		144 0 110
0.011627521980612968 -0.1477416748600311 -0.2908559750841355		0 255 0
-0.29923346418409447 3.8021216598378116 1.2392042679496214		139 0 115
0.07848236600405889 -0.9972130106269097 -0.20715146550970737		58 196 0
-0.29864433121505046 3.794636015716308 1.4042439501958996		135 0 119
0.19818832956976828 -2.518221491833792 -0.19880116722177069		244 0 10
-0.296769874876034 3.7708187897037444 1.5667540638476931		133 0 121
-0.2945643273876851 3.7427946517614283 1.7307874080246528		130 0 124
-0.2911724569644371 3.699696851725065 1.890918772882892		127 0 127
-0.272257389923333 3.4593581373023317 1.9433242630894805		141 0 113
-6.496823741204844e-15 3.7879604327937604 1.7462736783187545		127 0 127
-6.554136728528969e-15 3.8213766584629414 1.4097802786798401		134 0 120
-4.909977678897678e-15 2.8627529258036755 -0.22530354147792514		220 0 34
-7.28271648419195e-16 0.4246173666435041 -0.10194161046763998		0 255 0
0.09166579123341305 1.16472431071522 -0.09194924005399628		79 175 0
-0.2206869274488271 -2.804093282762299 1.165085036218622		208 0 46
0.30273956535464736 3.846670899136776 1.2537239525921005		135 0 119
0.3014407217834714 3.8301675268011497 1.4173927500479953		133 0 121
0.29894388390356497 3.798442193506021 1.5782314332409653		130 0 124
0.2961314529592961 3.762706870121787 1.7399954517488057		128 0 126
0.2946669177218743 3.744098185551764 1.9136123391503002		124 0 130
0.2722573899233204 3.4593581373023325 1.9433242630894805		141 0 113
0.25649805411631865 3.259116790032435 2.003365043411512		151 0 103
0.10712882407252869 0.6763847752532908 0.3835153854259209		24 230 0
-0.21398049732654267 -1.351019689106423 1.6015586615577555		213 41 0
0.5713528695926897 3.6073800458048115 1.8609634879646286		132 0 122
0.605776175380452 3.8247202448624202 1.7851989451825754		120 0 134
0.6084706679060702 3.8417326011273234 1.6111334729728128		124 0 130
0.6114404940658943 3.860483345542234 1.4419604228298017		127 0 127
0.6149111544102132 3.8823962325481003 1.108597657258137		133 0 121
0.10694468930899315 0.675222194111114 -0.053803550146587		9 245 0
0.06831114759535714 0.4312996115993808 -0.1418845733278591		0 255 0
0.06563453445427865 0.4144001413256972 -0.21377939740819818		0 255 0
0.062447433986447184 0.39427758091950443 -0.2900301832099067		0 255 0
0.177301248105918 0.8913535666060916 0.37644400210215007		52 202 0
0.14903755900500198 0.7492624061958886 0.3892475467711747		34 220 0
0.17503841028578374 0.7290874501203721 0.41991075837801484		34 220 0
-0.27683984646189685 -1.1531209488196292 0.4912105218786249		95 159 0
0.17916535829662147 0.7462774257210897 0.39105214261725596		35 219 0
-0.2741220827616238 -1.1418006483037215 0.18598215848739433		82 172 0
0.18682544805014129 0.7781839958102978 0.36894162224609767		38 216 0
0.20979795507447002 0.8738713740371356 0.3722548047843302		51 203 0
0.21239410009334028 0.8846850962873573 0.3356516447934819		50 204 0
0.21110936490122312 0.8793337890870044 0.2938314541040395		48 206 0
0.8242808593087462 3.4333768737686747 0.8477029595605283		166 0 88
0.15332208910905876 0.638632462515749 0.1040236262216632		6 248 0
0.10733419443855377 0.44707909541775115 -0.11038411636042605		0 255 0
1.1227087097911992 3.9808248081219277 -7.093950864205987e-15		130 0 124
0.12178641171562983 0.431822043261689 0.0710618946745099		0 255 0
0.11680374901283179 0.41415485396777924 0.1033084757000842		0 255 0
1.1009291130332752 3.9036001831335283 1.67999931497476		111 0 143
1.0373350195687379 3.678112536421731 1.9471990721530326		119 0 135
1.219361642319182 3.7528092524287455 1.8191019487994275		115 0 139
-0.13738054333788052 -0.4228138365591938 0.08843102355103732		0 255 0
1.263610324024747 3.888992691655672 1.6937726509974276		109 0 145
0.3094360516966963 0.9523462421154377 0.36941976806738863		64 190 0
0.3239251408299106 0.9969390732093965 0.3405950490637116		69 185 0
0.321585969153395 0.9897398430499578 0.29350043871026243		66 188 0
0.33208240072065703 1.022044537683607 0.25799853124137606		70 184 0
0.34250537837318873 1.0541231644131495 0.22046863730029073		73 181 0
0.35160689923788974 1.0821347653416968 0.1802135900735216		77 177 0
0.32539636714028064 1.0014670422042813 0.12463132684247287		63 191 0
0.33371451849928385 1.0270676797016178 0.08499177286729237		67 187 0
0.37323727042057575 1.14870620263364 -2.071563694735809e-15		85 169 0
0.8132460969108645 2.502914124134611 -0.10340054674284131		237 0 17
0.8122882431008372 2.49996615323247 -0.2068768783895439		237 0 17
0.13807192943272734 0.4249417041611304 -0.1850748236993848		0 255 0
0.12157798467973618 0.37417856193177124 -0.20046495312619006		0 255 0
0.44876115330907407 1.2164203333061763 -2.2237599468156632e-15		97 157 0
0.39918721843218113 1.0820443028909128 0.22941161963094964		80 174 0
0.3930787197257972 1.0654864926222904 0.2726529921680259		79 175 0
0.3843130172556164 1.041726016382725 0.4599243541706202		84 170 0
1.2448690397284905 3.005379719090904 1.9934406983912358		153 0 101
-0.29111135825107043 -0.7028049892505963 0.05986922566465938		20 234 0
1.549653927433831 3.741195528595501 1.8668178063233554		106 0 148
-0.294221593671665 -0.710313761785169 -0.15293140173263173		24 230 0
1.6231649638899885 3.9186668697920606 1.756901096702408		97 0 157
0.45333128673539846 1.0944385406846493 0.4370263437493009		92 162 0
-0.09299916052493269 -0.22451983462860803 -0.24301851781294428		0 255 0
0.43813963914778425 1.0577626590438387 0.37200512595924906		84 170 0
0.3810093461778739 0.9198379309335322 0.2807954040596592		60 194 0
-0.051754264093508646 -0.12494584628518914 -0.26542424841038403		0 255 0
0.3753022630727933 0.9060598134996564 0.23544813801219244		56 198 0
0.37855031053745053 0.9139012937400633 0.1967640406482821		56 198 0
0.3785809534760323 0.9139752723379784 0.15668651256536673		55 199 0
0.3878993004704005 0.9364717520306807 0.09983381362625403		57 197 0
0.43970992489338273 1.0615536641876637 -1.97070790384609e-15		76 178 0
0.43098836634870186 1.040497959264064 -0.0442495744543938		73 181 0
0.42733051964812224 1.031667136150443 -0.08788371387469386		72 182 0
0.4312832366224022 1.041209839077972 -0.17849885382188874		75 179 0
0.471035371222213 1.0217547059140717 -1.9296919021623573e-15		73 181 0
1.4636740254315532 2.872622018946988 1.9756814225825767		155 0 99
1.6718801567692128 3.2812495596208655 1.8763949661223347		130 0 124
0.44874963042093585 0.8807207390056851 0.23730728830432787		57 197 0
0.44510672515711874 0.8735711348643578 0.15528514272686644		54 200 0
0.44349290225473337 0.8704038290821114 0.11562101871576959		52 202 0
0.4524192076530635 0.8879226898322214 0.07842931484902009		55 199 0
0.4520106429931856 0.887120836538567 -1.7076448257205968e-15		54 200 0
0.4516621591686304 0.8864368985234963 -0.03908860334133022		54 200 0
0.4542212370887318 0.8914593717338937 -0.07874170639117423		55 199 0
0.4542627275741789 0.8915408013965106 -0.11842877092216587		56 198 0
0.49198921896353204 0.9655832097331049 -0.1716411183404728		69 185 0
0.48172031124794246 0.9454293435704257 -0.25474280764562945		68 186 0
0.4337556591108745 0.8512934133933159 -0.31043767893483515		55 199 0
0.25877900850265767 0.5078824006915242 -0.41413632034173914		12 242 0
0.23245359243808536 0.4150757560408298 0.07534881624658797		0 255 0
1.967421765200571 3.5130843454670297 2.0515920597062087		102 0 152
1.661386734804762 2.711136746164548 1.948520377366137		159 0 95
1.9181196742449869 3.1300868265316137 1.8704946868803345		131 0 123
2.1618434360573504 3.5278078584384955 1.907418588541945		99 0 155
2.3426436458395314 3.8228469858047878 1.8571434171142833		78 0 176
2.4201026861991703 3.949248651499041 1.7087568805668543		72 0 182
0.3098011709291611 0.5055495634552273 0.19265220834745156		0 254 0
0.28225273028936526 0.460594594119409 0.15235161998540026		0 255 0
0.26466074633275255 0.431887085419868 0.12160688631044735		0 255 0
0.25738755287708837 0.4200183124084283 0.0979860442385546		0 255 0
0.2521111871341386 0.411408066068887 0.07642219896910621		0 255 0
0.24636598187669223 0.402032743176622 0.05580749401123118		0 255 0
0.24630066310666363 0.4019261526315496 0.03709920732331091		0 255 0
0.2485973276133101 0.4056739684814895 -8.160316522925041e-16		0 255 0
0.2805628015706005 0.4578368810885654 -0.042259965569680716		0 255 0
0.4475909851113653 0.699206168987308 0.1651364384293481		33 221 0
2.5626502201663794 3.934849389396226 1.324342905689217		76 0 178
2.6459645680986337 3.959965820425127 1.14340159411791		75 0 179
2.5453190784759623 3.809339200669547 1.8977000930043177		71 0 183
2.220163540512803 3.3227095487912837 2.0361598924811606		105 0 149
1.2539972726769653 1.725979174432739 1.8221192961887018		225 0 29
2.1085744842199565 2.902203798047184 1.8278314361825179		137 0 117
2.4138229008199645 3.3223421999078893 1.8931873415455502		102 0 152
2.7146283573055463 3.7363653917937234 1.9130045846047334		68 0 186
2.8697088774016493 3.9498154158712655 1.8011535580032774		53 0 201
2.9201704627868557 4.019269829673777 1.4011464964597127		56 0 198
2.8805363496117162 3.9647181528656064 1.1765446472206431		65 0 189
2.878952169481269 3.962537715975289 0.9742660084968776		68 0 186
2.8928307554893897 3.981639950838571 0.5825071003695275		71 0 183
2.8923253618350273 3.9809443361499857 0.3872688907738679		72 0 182
2.5208726458591078 3.469683533570815 0.1685060243043049		118 0 136
2.666790952726228 3.6705228530084844 -7.781546883108074e-15		101 0 153
2.008332532729854 2.764232588343458 -0.26890636942793633		180 0 74
1.2600989710330919 1.5984279246160862 -0.8430870376235502		227 27 0
1.2848211485730343 1.6297878573241995 -0.32869918816155086		213 41 0
3.1488212802129683 3.9942607522259497 0.5413109905639834		59 0 195
3.139122544593545 3.9819579647434358 0.6001344991257104		60 0 194
3.136788560178743 3.978997319627457 0.8024929028528989		58 0 196
3.121242579413022 3.959277337036645 1.2103882554317704		54 0 200
2.9987602023262108 3.803909182384152 2.006362923580377		50 0 204
2.9126238713452723 3.694645767423162 2.1020311218751755		57 0 197
2.813896309500906 3.5694104522542927 2.095358819561696		67 0 187
1.17232271781706 1.3726135454999806 1.8051062295610178		243 0 11
-0.09540218020431696 -0.11170160129841586 -0.28830223079198125		0 255 0
1.917803794785116 2.245459741013139 1.8095853547697085		178 0 76
2.0780173994228175 2.433045770488518 1.791899541381705		163 0 91
2.3205227820616807 2.716983092531187 1.8205696616258298		139 0 115
2.6422842340313952 3.0937173489616687 1.875607632561435		105 0 149
2.997012309915942 3.5090505626990267 1.9114741333939		68 0 186
3.3023501752346647 3.866555269825183 1.8759026268745085		38 0 216
2.1891789306335454 2.5631992010750047 1.0952490425828396		172 0 82
3.4277548865812975 4.013385321693856 1.4885360919810937		33 0 221
3.439072290819043 4.026636299535141 1.2713075512190597		36 0 218
0.6278515460386166 0.7351197102624026 0.19229780997359336		53 201 0
3.485554162006763 4.081059578247382 0.8500411181305528		37 0 217
2.1801531353475236 2.5526313525805455 0.39731912143411696		184 0 70
2.2080184607961417 2.5852574567916444 0.2675730907371537		182 0 72
2.691905640559677 3.1518165512652008 -0.16285407423131124		129 0 125
2.195721888590593 2.570860020560106 -0.2660829619683492		183 0 71
1.9899780308174024 2.3299649139560454 -0.3626609113178446		205 0 49
2.6915967636972518 3.1514549029248484 -0.6564143938743364		125 0 129
2.7730312459076223 2.9998483010499797 -0.6470308183599689		130 0 124
2.185379958198879 2.3641307195605887 -0.25337793734379865		195 0 59
2.1901020853454902 2.36923908792788 -5.53372660177008e-15		195 0 59
2.214465721404719 2.3955955209278823 0.2567502070763415		191 0 63
3.5043292697659045 3.7909620462232487 0.8176644379920229		51 0 203
3.5080537058864696 3.794991118519183 1.2407310776218783		45 0 209
3.4421336154433315 3.7236791664404807 1.6476366829043831		44 0 210
3.4372003308286816 3.718342369211205 2.097426973956428		33 0 221
0.8046881688789976 0.8705067567663085 0.6040198153126833		102 152 0
1.0768766172821924 1.0768766172821944 1.7831260477884676		248 6 0
2.242770630407531 2.242770630407535 1.7762690671074544		165 0 89
2.511424898686568 2.511424898686572 1.8096770309959453		140 0 114
2.8640290974532285 2.864029097453233 1.8672363690444933		106 0 148
3.2408830156353368 3.240883015635342 1.8984653164945593		70 0 184
3.635334472980344 3.6353344729803503 1.8966664280050427		33 0 221
3.5014031552980627 3.501403155298069 1.396532809545667		57 0 197
3.4927885545314057 3.492788554531412 1.1858807809677958		62 0 192
3.5063753458885714 3.5063753458885776 0.9863594007711194		64 0 190
0.9566752181566585 0.9566752181566601 0.1601313646036156		107 147 0
3.5133030923425377 3.5133030923425435 0.3910342218689818		69 0 185
3.7411522102592194 3.741152210259226 0.20787563432273115		47 0 207
3.62667892154792 3.626678921547926 -8.796699502050078e-15		58 0 196
3.474825618286096 3.4748256182861024 -0.1930773031851897		74 0 180
3.050969772500108 3.0509697725001135 -0.3395760512481006		116 0 138
1.4940650336996808 1.4940650336996835 -0.8752030336738637		239 15 0
3.3747910059365185 3.1196247172213587 -0.36169640577638335		96 0 158
3.4387527414964905 3.1787503374029535 1.1242628141635715		81 0 173
3.4998320742612377 3.2352114918475134 1.283753502425633		72 0 182
3.56197231484975 3.2926533393968875 1.3680366277269205		65 0 189
3.634230806882354 3.3594484023733875 2.049981676527412		42 0 212
2.778808956877275 2.5687045778720177 1.9281362951819496		122 0 132
0.967269755190842 0.8261264155414751 1.7508181990822584		222 32 0
1.1506463192301497 0.9827447970541026 1.7717295820483436		246 8 0
1.4243278892289284 1.2164909399573776 1.7314897796309057		243 0 11
1.8200496552477066 1.5544692571315095 1.7389967168070548		214 0 40
2.4032008261571085 2.0525274089106356 1.7699192142096145		166 0 88
2.684471245073089 2.292755041098993 1.798784438416925		142 0 112
1.2096030526427972 1.0330986043398636 0.7333380726160693		163 91 0
3.462692690297397 2.9574189464785405 1.8862217546117819		73 0 181
3.7353098296761824 3.1902559797482635 1.8122274305409172		51 0 203
3.7590546576495414 3.2105359786999617 1.6062352910692703		54 0 200
3.7638629647716 3.2146426609426886 1.3959900231978952		57 0 197
3.217894484151978 2.7483415267736335 1.015967982308424		114 0 140
3.5156608361550465 3.0026580168003707 0.9196514118241089		88 0 166
3.7652133623173 3.215796009404168 0.8842405567081223		66 0 188
3.472020716726629 2.9653858336852403 -7.831274428695566e-15		99 0 155
3.3736283928798825 2.8813508502898673 -0.1743150718915975		108 0 146
3.38325491894585 2.889572680270921 -0.3501655020995543		106 0 148
3.4034112573794206 2.906787819616699 -0.5297436973396067		103 0 151
0.3971425790368982 0.3391918061305635 -0.08272055711736556		0 255 0
3.39155570548328 2.673686932557421 -0.3398898104908519		116 0 138
3.384770360778253 2.6683377981052296 -7.39230537694912e-15		117 0 137
3.7638262366157647 2.9671613557715033 1.1506370189503907		73 0 181
3.764215208933296 2.9674679968214583 1.5574191949105156		65 0 189
3.700900505853546 2.9175547095387544 1.9520312401755304		60 0 194
2.9235127408087354 2.304711610553254 1.8968190863943843		127 0 127
3.2694556797674243 2.3753985947797136 1.8630507437949966		107 0 147
3.654163128543582 2.654904917156036 1.8709173447411545		76 0 178
3.774514696991695 2.742345449945739 1.7212147557337503		70 0 184
3.791947859238113 2.755011383715379 1.3219004154694014		77 0 177
3.7720222779053922 2.7405346014819276 1.1193614398690517		82 0 172
3.5864043644531596 2.605675293399262 -7.603214806550396e-15		108 0 146
3.3945221836125494 2.466264728652143 -0.1648557950715175		125 0 129
3.401182640584342 2.4711038338981 -0.33086929062975734		124 0 130
3.468146965424474 2.317341715461278 -7.153964185889704e-15		127 0 127
3.7991073241853046 2.5384823571833723 1.0969552687280937		89 0 165
3.751736831633978 2.5068304059928606 1.8690042968786151		76 0 178
2.6784329338043014 1.6413458128152285 1.9250158289911263		162 0 92
2.7460126044797004 1.68275868826735 1.80362245858144		161 0 93
3.010086857744216 1.8445835987953094 1.798784438416925		142 0 112
3.4016228667965662 2.0845171737277535 1.8391927643726675		111 0 143
3.753539962812653 2.300172247526328 1.8234739864549951		85 0 169
3.506176487591393 2.1485877149537074 1.517048868366241		112 0 142
3.5769558378306088 2.1919613565643306 1.3630877981766973		110 0 144
3.555012835091896 2.178514667191891 1.175897354007435		116 0 138
3.5634528210504994 2.183686697239213 1.0033650384818766		118 0 136
3.5842600941887093 2.1964374106173508 0.8361717996003587		119 0 135
3.4302954706289053 2.102087767954235 -6.900195472800043e-15		138 0 116
3.559923113237733 1.993652735511941 0.9795596959968937		125 0 129
3.5789541167486028 2.004310609573293 1.3328114684981418		117 0 137
3.553242608209569 1.9899114729339733 1.686885976315474		110 0 144
3.102493874369995 1.5807995858920858 0.4121230747483925		175 0 79
3.710316889006053 1.8905008806375825 0.6595422681413007		124 0 130
3.704479281722114 1.8875264711622617 0.8270048802476043		122 0 132
-0.06247921497866574 -0.03183475009606401 -0.1376222960932233		0 255 0
3.69001734565592 1.880157746687574 0.9942629613583885		121 0 133
3.681541893469725 1.8758392881027348 1.16531379972846		118 0 136
3.6718275100188102 1.870889562508346 1.3389902843435433		115 0 139
3.6547512956023773 1.86218879668215 1.513242496364752		113 0 141
3.626980770009473 1.848039007146729 1.6861207910602451		110 0 144
3.7423690173462516 1.9068322557373756 1.936299792513122		95 0 159
3.3915718322314357 1.7280921623103682 1.9394831748112145		120 0 134
2.985370174076643 1.5211220798536647 1.876403352671075		151 0 103
1.878552766944801 0.957170442976554 1.800700209611833		227 0 27
3.1744819248524307 1.4634562123923598 1.7810840584305425		145 0 109
3.818367369016892 1.760291467920015 1.741597135733469		100 0 154
3.856333011746336 1.7777938689495802 1.0194688136675518		113 0 141
3.4768354490471585 1.4401523971348846 0.5960480964449868		153 0 101
3.8728596221501785 1.604190980661746 0.8338313046907581		120 0 134
3.8611846639105156 1.5993550546187383 1.0033650384818766		118 0 136
3.853817453301233 1.5963034560675144 1.1764401016531711		115 0 139
3.847705413591231 1.5937717663258688 1.3532016136124245		112 0 142
3.845917606764558 1.5930312324913576 1.5357347603949854		108 0 146
3.8154101026487774 1.5803946105324482 1.7106067998244494		106 0 148
3.754616666464853 1.5552131447618034 1.8735148150640448		105 0 149
3.5183472463848586 1.4573471465906436 1.9403909266382895		120 0 134
3.077784924579471 1.274860257828272 1.8656570641576575		152 0 102
2.841585335069411 1.177023184426247 1.8847973914565865		167 0 87
1.9401374364006794 0.8036312390249305 1.7935605815081508		228 0 26
3.257789759353198 1.2018620945543326 1.7692838634676196		147 0 107
3.493230786586217 1.2887208752113386 1.542269165042461		137 0 117
3.5148149359331433 1.296683688302267 1.2172704624002528		144 0 110
3.526095305295105 1.3008452362688878 0.9023112374631965		149 0 105
3.534694676831772 1.148491920672252 0.8922762182910058		152 0 102
3.5024825548791276 1.1380255677923814 1.5254359245206621		140 0 114
1.9928723143292641 0.6475234670028345 1.7896662533725531		228 0 26
0.25020627785007526 0.08129694779461272 1.6610372135517282		153 101 0
0.09481808069713321 0.015017708643862182 1.613		146 108 0
0.09481808069713321 0.015017708643862182 1.6119999999999999		145 109 0
0.24916653700432895 0.08095911551485188 1.654134715932267		152 102 0
3.557496055713624 1.4735631143653767 1.775153672661558		122 0 132
3.8485173257920673 1.5941080713709113 1.5367728686661515		108 0 146
3.854706427887476 1.5966716813977413 1.1767114755221413		115 0 139
3.8719537233548817 1.6038157450945967 0.8336362635975876		120 0 134
3.8621028072898307 1.7804537811280858 0.8459238968079337		115 0 139
3.8483874762682753 1.7741309269226881 1.0173683141507572		114 0 140
3.8432273744629493 1.7717520874073451 1.1935367145364009		111 0 143
3.838294697912937 1.769478092370762 1.3732829615899895		108 0 146
3.8357784379586732 1.7683180806431056 1.5582271787393516		103 0 151
3.8116567460165016 1.7571978283430936 1.7385363506735243		100 0 154
3.6090361476558557 1.6637884530657945 1.8320772550190987		112 0 142
3.3014837030379987 1.5220048340794043 1.8523400453516723		134 0 120
1.8731358127980888 0.9544103669800599 1.7955077494163676		228 0 26
3.5126199017276836 1.7897692343308766 1.8174277190109305		115 0 139
3.6965380624807924 1.8834802178587933 1.5305442239822211		109 0 145
3.7098341496866807 1.8902549126688906 1.1742691118093989		116 0 138
3.7298155228588095 1.9004359308159358 0.8326610584777162		120 0 134
3.7340717601383324 1.9026045920289394 0.6637649105879369		122 0 132
3.0989558808092763 1.5789968881327523 0.41165310160945134		175 0 79
3.655751265566863 2.047319079405607 0.8334412225274608		120 0 134
3.559923113237733 1.993652735511941 0.9795596959968937		125 0 129
