2.5200044633980476 -0.8187990847528426 0.41966958820222355
2.527443738722844 -0.8212162518315684 0.2091507000189108
2.2900627286462805 -0.7440864861460327 -4.1298730662850525e-15
1.913585363616385 -0.621761575061957 -0.1583527705145155
0.3210315192203823 -0.10430946370627261 -0.05346306620801973
2.079697153727412 -0.8614387667026019 -3.860827536771879e-15
2.5391880551506105 -1.0517661298591263 0.4353033754309944
2.1271556516382213 -0.881096720187114 0.7481005302625338
2.1055384829443184 -0.8721425957339927 1.1612178906419373
2.1657585275410898 -0.8970865549326873 1.7031610943601465
1.0083686985054243 -0.5137895143620798 1.5576770855366828
1.1858239425215158 -0.6042074773345208 1.5582618206436885
1.3930648366620433 -0.7098019870750985 1.563473216911628
1.7438120472308287 -0.888516617199073 1.671543527669483
2.0692457376608866 -1.0543333645960762 1.6872996869174628
2.4481059102104448 -1.2473722643099234 1.6837152035374092
2.1155093527445112 -1.077905853866797 1.2097620214943878
2.126926304610135 -1.0837230813979848 0.9887713474826896
2.1369908186343296 -1.0888512074301055 0.7792876806100438
2.525158222904811 -1.2866323785701048 0.6803955259341817
2.5491067849944065 -1.298834780433551 0.4531267061558096
2.556945885877048 -1.3028290018344109 0.2258524489032375
2.3360036509733515 -1.1902533102828032 -4.496641701049295e-15
0.48805574583798056 -0.2486768232764315 -0.043109471345342945
0.510421318094331 -0.2600726515335484 -0.09073198972333503
2.0624561914109383 -1.263874779600687 -4.148724503960284e-15
2.5714908478354475 -1.5758116182481612 0.47767411829891043
2.154370301905713 -1.320199818953065 0.8209762726796568
2.13450625756706 -1.3080271169266922 1.2755501157506546
1.9746295935468718 -1.210054571209939 1.68260004248866
0.9132049423756976 -0.6634822274206209 1.5536370448459216
1.0719820925065162 -0.778840579466151 1.5514257136976235
1.3311760675093196 -0.9671560253084438 1.6454241094623583
0.3486706276349814 -0.25332403924313207 0.3131257328393375
2.2145597343788364 -1.6089718278344598 1.6774480141282981
2.5447833774610418 -1.8488933482865426 1.6027251631080577
2.1612763891577518 -1.5702592114969514 1.1065651261350156
2.1694858458928707 -1.5762237309468352 0.8713150489177455
2.1795807601689807 -1.5835581154849976 0.6467985813085945
2.5804952835688924 -1.87483956683003 0.5051937154471415
2.5715548742967713 -1.8683439792760608 0.25016255431900103
2.023224695814675 -1.4699587852200529 -4.289257540690626e-15
0.40587587113613127 -0.2948860814716192 -0.03948387245192861
0.4264605105918098 -0.30984169745982654 -0.0834898522036436
2.6312570353009943 -2.247305812340417 -5.934900053046055e-15
2.312837856142864 -1.9753501415403298 0.4817394207547071
2.1923623616083794 -1.872454348586768 0.9367913256758065
2.5144653495621943 -2.1475562893281896 1.6848685379037756
0.7956797528364705 -0.7956797528364609 1.5487890307760448
0.9883263612443229 -0.988326361244311 1.636501759039426
1.1584948208775119 -1.1584948208774979 1.638359087623954
0.2774518079027155 -0.2774518079027121 0.3351208566816324
0.3154466089509538 -0.31544660895095 0.32411706805210133
1.9096829039171086 -1.9096829039170855 1.654990759180704
2.3224731549280966 -2.3224731549280686 1.6735225989740299
2.1867793327136598 -2.186779332713633 1.2809856751864626
2.1959843474809206 -2.195984347480894 1.0090676346200542
2.205335408196436 -2.2053354081964094 0.7487612935443696
2.3420004618125736 -2.3420004618125456 0.524583333455721
2.4117999731882915 -2.4117999731882627 0.2684357998815546
2.153503192475009 -2.153503192474983 -5.223434682445662e-15
0.3395378090206146 -0.33953780902061054 -0.03779090487093547
0.35626467461031763 -0.3562646746103133 -0.07979951910639668
2.0590450022160045 -2.4108319474507742 -5.437722906144795e-15
2.2087372781478987 -2.5860990837760287 0.5386568156188117
2.1953532888771847 -2.5704284457455584 1.0983380819757658
2.1105345023602227 -2.4711184063539826 1.65582303889203
0.6983354204699022 -0.9611762471593963 1.6352507032298458
0.8196433424470121 -1.128142277778616 1.6327035224653514
0.9576048254264657 -1.3180299686729253 1.629174637661658
1.1258047394999744 -1.5495372894285047 1.63584928315232
0.27627537018487164 -0.38026042459393317 0.3414951380574164
1.5703994712713596 -2.1614694401753622 1.6372340577384277
1.9022936387892686 -2.618282571856837 1.6490155504823567
2.0408776037185588 -2.8090270356527207 1.4382109440593478
1.8796223856136802 -2.587078268871533 1.039029700361164
1.8817537009640368 -2.590011772786587 0.7685954890155383
1.8823833771910032 -2.5908784477611335 0.5072264683569367
2.123726443054715 -2.923058680247026 0.2843570764068951
1.9275861503438376 -2.653094727483854 -5.624588603316028e-15
0.2770761628458423 -0.3813626211345392 -0.03709920732331263
0.28930725693275733 -0.3981972779033507 -0.07795664792950871
1.7453436348191984 -2.8481419550991673 -5.729167178961437e-15
1.832703123681094 -2.990699684385159 0.5555453701256717
1.8253345273524384 -2.9786752280344713 1.135098123136869
1.687743712602813 -2.7541474248518734 1.6458387292658616
0.2555999050135243 -0.41710113622627276 0.35541571534729516
-0.5501286898395619 1.0796883460589028 1.2117625592499535
0.5372442879196724 -1.0544012834937673 1.6287859001306404
-0.5469247867959631 1.0734003322869163 0.8752696751484806
0.6301263688904444 -1.2366926313801816 1.6251071025378312
0.7380261060596213 -1.4484577890896497 1.6256421808011732
0.865748561265841 -1.6991272214662838 1.6287105678844207
1.0150565926765354 -1.9921607324692014 1.6244432060468206
1.2032642481618363 -2.3615390543411414 1.6241777747269774
1.4551308103807115 -2.855855015337365 1.633131487680398
1.1122253049032291 -2.182865067891714 1.014776313534673
1.5916145729214761 -3.123719481530736 1.1391139767246012
1.5941859959533546 -3.1287661833871985 0.8430356931938984
1.5959918197723282 -3.1323103121854077 0.5567963895328039
1.5905457304241468 -3.1216217600167475 0.2757296988346679
1.463860317807702 -2.872987638321462 -5.530297872476602e-15
0.21577961138983257 -0.42349133218749796 -0.03740656186434646
0.2247737823190582 -0.4411433865415049 -0.07841721298718195
-0.5722890985647685 1.3816281033533286 1.0865178193146245
1.2106025713558832 -2.9226531464110694 -5.4257225518979935e-15
-0.5534418154503482 1.3361267368446101 1.446213158562733
1.3018632402237875 -3.142975890903201 0.5388131892922189
1.2968733685489293 -3.1309292750312565 1.1011182228538423
1.229304143799727 -2.967802736242699 1.6367621210142804
0.8580996711426887 -2.0716358639405392 1.6291426584618505
-0.27193665974199444 0.8369349808423588 1.7271080715840468
0.36459664806996156 -1.1221131014741774 1.6239373361420542
-0.32748688248495744 1.007900986864793 1.7293871580641678
0.4275037067396816 -1.3157211203140884 1.619789651245887
-0.3831033070328282 1.1790707410923231 1.7063672065650197
0.5008228427244051 -1.5413742180941814 1.6206967637408283
-0.45537307623785667 1.4014942200100926 1.7253852650106798
0.5876440623222875 -1.808582456328056 1.6241677729470358
-0.5287686218848435 1.6273824825498175 1.7111312047882226
0.6899175675397884 -2.123347939625159 1.6220934859895018
-0.5885832841246862 1.811473083807078 1.6267636534824204
0.8161270740093107 -2.5117808599214135 1.618433041803534
-0.5927360816586122 1.824254080410464 1.3936061092022252
0.985782544191574 -3.0339267074930816 1.6254164109936189
-0.5546760985916436 1.7071174971000869 1.0999587613842106
1.0227230254893613 -3.14761781863861 1.3708817166052687
-0.5590069943774736 1.7204466237613576 0.9217237086162037
1.0234292002505567 -3.149791201075509 1.0760971432458157
-0.5541185502231858 1.7054015396653053 0.5826347233093481
1.025339133443676 -3.1556693710210775 0.7965974405108313
-0.5425439264557375 1.6697785106472325 0.27807699158093135
1.0271527850798352 -3.1612512168038553 0.5264597803810721
-0.5616498424663882 1.7285804738158648 -3.117302357013761e-15
1.0235092266548815 -3.15003749702264 0.26067149883265994
0.9247457859663594 -2.8460748815407966 -5.1325790559693e-15
0.8239870389854187 -2.5359713447311543 -0.20985637537730742
0.31451579862797824 -0.9679800956188359 -0.16120281293809366
-0.5978069041712064 2.490044960502769 -4.3920909387303494e-15
0.6297675790948581 -2.623170752414147 -4.626906210598861e-15
-0.5803090295359817 2.4171610673075974 0.39371919553331736
0.7625899082258253 -3.1764155694062244 0.5173903384349753
-0.5956163849438506 2.480920791268685 0.8290055183394021
0.7591627109128237 -3.162140265226325 1.0566366080133123
-0.6282734513586122 2.6169472624979178 1.3712900844178038
0.7442887065929853 -3.10018557845258 1.6245087566377665
-0.5927351504260865 2.468919585794266 1.844745543518355
0.5227048009890763 -2.1772221873849036 1.6267929302101924
-0.4291466195209943 1.7875243156258624 1.8383171652356385
-0.13780505760204498 0.8700668911647821 1.7288879000670188
0.18484623000713848 -1.1670731646894965 1.6263616140064887
-0.1663560422858838 1.0503307139578313 1.7353489731209133
0.21651778999120072 -1.3670395245109832 1.6205492849778158
-0.19531719774502404 1.233184253104715 1.7184899738315602
0.25353283122823994 -1.6007432971870899 1.6206967637408283
-0.23184425232282155 1.4638069992718992 1.7352617415097555
0.29748455973885973 -1.8782435896435907 1.6241677729470358
-0.27773830195438487 1.75357062464775 1.7754291030621285
0.3492587384012692 -2.2051328885944224 1.6220934859895018
-0.325063203811975 2.0523682954329536 1.7747380915022717
0.41248350968115327 -2.604318384027758 1.6158218060343665
-0.3851815257458221 2.4319404416024977 1.7889328888257279
0.4956912155838419 -3.1296711632034726 1.614524582967268
-0.470480298098512 2.9704956947442085 1.8430126468929213
0.5042996803793042 -3.184022870844848 1.335305279816667
-0.5621560815395329 3.549313811303968 1.8310084677234635
0.39972422803356444 -2.523759450199132 0.8302407958258549
-0.5966226292622592 3.7669270291939476 1.5797617526007686
0.39971338524514965 -2.523690991527354 0.6134370293188557
-0.6009353894464076 3.794156725339045 1.2481632109926155
0.40014300247022644 -2.5264034879329134 0.40513083532918764
-0.6039097721171885 3.812936238431911 0.9268156390534589
0.3998300092152813 -2.52442732629542 0.2011532698811039
-0.6077084559781459 3.836920184412803 0.6152836183243331
0.4001284159513004 -2.5263113922769502 -4.386949186324323e-15
-0.610736509617999 3.8560385626679414 0.3072596931544692
0.3996741663957723 -2.523443373457694 -0.20107486582936826
-0.6113739292517888 3.8600630718462656 -6.703013968889284e-15
0.1558340562818339 -0.9838975088873463 -0.15777654739543767
-0.12999345704480744 0.8207463863144879 -0.06539931557171959
-0.12510723897119597 0.7898960195511913 -0.1266667164419617
0.19840915396326397 -2.5210273317882894 -4.337246022519965e-15
-0.3071028221419758 3.902111333192895 -6.713301615542435e-15
0.1982895459201363 -2.5195075675042164 0.40028474023846217
-0.30347681646352304 3.8560385626679428 0.6126250281264325
0.19794472101505922 -2.515126151662175 0.819741013154331
-0.29938265950451126 3.8040173661247056 1.239822124907307
0.248332467355699 -3.1553631728607434 1.6127092834764771
-0.29138212398918134 3.70236092386789 1.8922803828279968
0.17599403242648587 -2.2362162083557653 1.6297300911614871
-0.20606565354013365 2.618312382974517 1.9081976343118605
-1.5093190209928696e-15 0.8800055164993188 1.7271080715840468
6.107069209393868e-15 -1.1869049372951452 1.6336344970110075
-1.8239032151993796e-15 1.0634232184263188 1.7353489731209133
7.148313936948475e-15 -1.3892701743168758 1.6266263808120034
-2.1484787575121796e-15 1.2526663564132292 1.7241473253496653
8.36453619485956e-15 -1.625642180801176 1.6256421808011732
-2.5430192305294974e-15 1.4827024110235356 1.73602147462092
9.812098944601164e-15 -1.9069750617303853 1.6287105678844207
-3.0208443063312446e-15 1.7612973911296197 1.7612973911296166
1.1512625622179356e-14 -2.2374713178584527 1.6256180676163627
-3.5756757218106e-15 2.0847907676510204 1.7805795278832868
2.0744550265681154e-15 -0.40316898807092477 0.24706227364344094
-4.2202999293791e-15 2.460637656770668 1.7877579036553446
1.6294891279588728e-14 -3.1669015446365036 1.6136169330355103
-5.1758190196487304e-15 3.017751201927307 1.8492803149512762
1.6506420641489172e-14 -3.20801213883713 1.3288021361638547
-6.1756187551141626e-15 3.6006824910495796 1.8346393647387509
1.3059526076961287e-14 -2.53811041729106 0.824682065791782
-6.5286097698086604e-15 3.8064932148828396 1.5767011146856305
1.3062199191003474e-14 -2.53862993527028 0.6094711246233201
-6.57552160249141e-15 3.8338450675897353 1.2456917747652767
1.3064835702862698e-14 -2.5391423396389974 0.4021606383680523
-6.6128418101527795e-15 3.8556045420031038 0.9256487539477581
1.3069018221295227e-14 -2.5399552093818625 0.19989881023642933
-6.654358742463001e-15 3.8798109085518337 0.614501679316007
1.3063892353274535e-14 -2.5389590002587816 -0.1998204068780979
-6.69089742424279e-15 3.901114715821602 0.3070243866537897
5.16103889109466e-15 -1.0030445589170736 -0.15886665108465406
-3.471433031812696e-15 2.0240122702114673 -0.15929322029961726
-6.957499639366945e-15 4.056556618267025 -0.6424954496290244
-7.298986767235158e-16 0.4255660023284641 -0.10216935774570429
-7.170832743767587e-16 0.41809400694217 -0.13584697773244953
0.09189849311079745 1.1676810684117587 -0.18551439145451137
-0.22067709658833118 -2.803968369836105 -4.824025708089676e-15
0.310004943603671 3.9389862826546227 -6.7767423112726355e-15
-0.21648868950504696 -2.750749611917448 0.4370231342302102
0.3070404418561647 3.9013187165100587 0.6198188761832586
-0.21703578191229678 -2.7577010800535713 0.8988021041592446
0.30273956535464736 3.846670899136776 1.2537239525921005
-0.21241532181883666 -2.698992568130739 1.3794578095148975
0.2947368071589776 3.7449862150484936 1.9140662119170533
-0.17383720124758775 -2.2088110698155874 1.6097575237663966
0.20689046575954526 2.628792615903382 1.9158355142729893
-0.002704007154984889 -0.024492590408633528 -0.22319901738220246
0.13752132716947438 0.8682754877163994 1.7253282476109855
-0.007081810903464109 -0.044712794318390245 -0.28582444608285157
0.16627439652372172 1.049815222903337 1.7344972824484586
-0.01440039873899474 -0.09092053935025565 -0.28331269657467983
0.19504163038545505 1.2314443892708684 1.7160654062563818
-0.023047635882110045 -0.14551704596035603 -0.28915323933032
0.23499097939766253 1.483674652106978 1.7588137383750915
-0.26464425832028543 -1.6708980868198113 -2.901520780381079e-15
0.2757486826607567 1.7410086628190171 1.7627105547990554
-0.2616945679813435 -1.6522744749744935 0.2649566236892741
0.3264897709666822 2.0613752859668177 1.7825266785827765
-0.26164432239242325 -1.6519572368113424 0.5434441427657892
0.38429606059329124 2.4263498346545687 1.7848204441019333
-0.2548669194013082 -1.6091663984106253 0.8301315291091308
0.4723469614205231 2.9822813431210107 1.8503249278192018
-0.24999461719848504 -1.578403892997595 1.161072281101318
0.569402028839871 3.5950629220468127 1.854609370211764
-0.245667040111589 -1.5510806466103313 1.3412611725960335
0.6100600482304829 3.8517675535579787 1.6153418990761743
-0.23739805004321882 -1.4988722980413243 1.5175559297765584
0.614470448768555 3.8796137266355557 1.2762759888406414
-0.21327006650980496 -1.346534205461173 1.5962413702989753
0.6168356052121945 3.8945467367140276 0.9466528147597894
-0.1847543850919051 -1.1664932787169109 1.6255535204654392
0.6206833840363049 3.9188406560928892 0.6284202804928406
0.6233649211129678 3.9357712148723274 0.3136130088313126
0.6259180467215144 3.9518910155504443 -6.862473536758228e-15
0.10694468930899315 0.675222194111114 -0.053803550146587
0.06577099738797683 0.415261734380031 -0.21422387323143832
0.062819896725976 0.39662921810536456 -0.2917600451063595
0.10744521946485552 0.4475415479342801 -0.07289778931310288
-0.25799758070971224 -1.0746372636140704 1.105173289579511
0.9550545132602697 3.978088344506843 -7.01679128229455e-15
0.9578182579215877 3.9896001695092203 0.6498458834555043
0.9697944244938274 4.039484493379135 1.3498032456510907
0.8846470947914326 3.684820340545934 1.9308595432024644
0.6136892765883656 2.556199802680491 1.9099602196319865
0.27235701640034143 0.8382287056095056 1.729777815995371
-0.27045360835705917 -0.8323706180101792 0.8752062614035611
0.32942225502239075 1.0138574510615652 1.739607440436752
0.38455489186653447 1.183538259837849 1.7128326604316935
0.46098743944192677 1.4187734532149994 1.7466577996645944
0.5401222820801126 1.6623254556194993 1.7478724209735659
0.6376604588619379 1.9625170965470142 1.7624062485603762
0.7561309823701152 2.3271318763886675 1.777770560954299
0.9299025753334088 2.8619458472805177 1.8440572571430882
1.123407189852615 3.457491813753725 1.8523400453516723
1.2673208816538042 3.9004126137843604 1.6987463686954822
1.2993117644773047 3.998870427189951 1.3661772378562536
1.30349590200314 4.011747878370492 1.0127005450037492
1.289855575407954 3.9697672697667943 0.6611062081672777
1.3117635654278272 4.0371931299835575 0.3340852879574993
1.299446113411947 3.9992839106943374 -7.212263096813557e-15
0.8107489442965885 2.4952286786438393 -0.20648484350016014
0.7940932004051469 2.4439675698697423 -0.4070067646800196
0.5911451157559923 1.8193575908437862 -0.4592672519970567
0.5740782288780443 1.766831114068693 -0.6036215714228806
0.12156588738320613 0.37414133028139623 -0.3933954753171429
1.0192805078157625 2.460760825831359 -0.42185827530180375
-0.05356692934341605 -0.12932200731555807 -0.27472058988105025
1.4967431513867866 3.6134576154670404 -6.708157791027007e-15
1.6923808617440022 4.085768829123051 1.436926265947247
1.4893907375174875 3.595707318187599 1.9830554992055245
0.9961087426703815 2.4048192361532554 1.8911593836064957
0.4003375640784235 0.7857067090086579 1.7306677330459872
-0.06767481559064507 -0.1328193040363255 -0.29255965513050214
0.4825470931375846 0.947051994392799 1.7344972824484586
0.5644334091554052 1.1077629384664889 1.7112162922288041
0.6757840599211956 1.3263008954542652 1.7428590990305663
0.7877435095917671 1.5460336875683047 1.735154171824508
0.926120158897956 1.8176131532132334 1.7422861063984494
1.1097640830526172 2.178034648031364 1.7760080945596153
1.3557133516659596 2.660737266433219 1.8299550560404823
1.6472118950704573 3.232835370058338 1.8487091287809907
1.9851631345677245 3.8961020230441634 1.81123061899484
1.9908941090776726 3.9073496938241696 1.4248771935194948
1.9975544910875531 3.9204214295274387 1.0563445792155095
2.011539683806992 3.947868915680124 0.7017692819412321
1.6925838056613223 3.32188275843881 -6.394389208839065e-15
2.0158560068791234 3.9563401766866435 -0.34945953394414414
2.0303682582349745 3.9848220736561677 -0.7083380388306446
0.8243881019009928 1.6179527494043444 -0.4359520135737419
0.7731178244699662 1.5173291642980475 -0.5533182056081412
0.7921709998487566 1.5547231264596937 -0.8890742978233118
0.5729503137311679 1.1244783048612657 -0.9169195602078134
0.36564996698203733 0.5966865155182254 -0.11083908987696446
2.101043068521371 3.428590676096857 -6.8967662010032435e-15
2.4373659806140497 3.977419787615364 0.7388361859242333
2.4279505748413186 3.9620552418201305 1.5098394838171865
2.094519116415974 3.4179445538469175 2.0425143078559462
1.333000437425254 2.1752590127558205 1.8535582163095525
0.51645470169517 0.7108389141555668 1.724438337320035
0.6210764367774343 0.8548383788111203 1.7242770675826493
0.7311217355826323 1.0063027385194432 1.712024475936868
0.8673152468711677 1.1937570251424703 1.7276644429598602
1.0169908777345964 1.3997678573980115 1.7302082244631698
1.1963754131611517 1.6466694887712432 1.7383919194282216
1.4130565233874275 1.9449054513943114 1.7466339189563804
1.7231907213843412 2.3717685544370917 1.7965279463226562
2.104909484873525 2.8971593592082177 1.8246544077829385
2.72440133089742 3.74981673595482 1.9198916206279744
1.985235817226758 2.732442686702731 1.0974113694894783
2.9142514396611396 4.0111229932566905 1.1903154537350473
2.9183696842733697 4.016791270685042 0.7863830324101627
2.024147652917163 2.7860002338393497 0.2710239403392783
2.011604924073582 2.7687366486256715 -5.8697506870448e-15
1.9515160727907543 2.6860314400981067 -0.2612989101466769
0.4204655158273973 0.5787211341664169 -0.23242762071048448
2.225882355492717 2.60617339014621 -5.878322939916312e-15
3.4637482103052677 4.055528089159015 0.8447231816691758
3.4198898001891953 4.004176488704226 1.7109752779833554
2.494075228087307 2.920186898658062 1.956730495890292
1.663701705836839 1.9479444204197585 1.8611958975215686
1.164980282007707 1.3640166577183903 1.7938005741999288
0.6193722523662396 0.6193722523662407 1.7190988994230492
0.7401443454838311 0.7401443454838323 1.708095341512475
0.8836928549225358 0.8836928549225374 1.7201063561064218
1.0438407177532685 1.0438407177532703 1.7284241701389962
1.2169469996676108 1.2169469996676128 1.72102295161918
1.4268831032921123 1.4268831032921148 1.7234643074572018
1.705627334550798 1.7056273345508008 1.7525087136063746
2.059140295799918 2.059140295799922 1.7845151959078496
2.5133144611459257 2.51331446114593 1.8110386077578544
3.248720929025118 3.2487209290251235 1.9030566598575875
3.7295630659666927 3.7295630659666994 1.7137560135428294
3.4769772961166083 3.4769772961166145 1.1805125008144788
3.772671411525389 3.7726714115253954 0.4199021806540315
3.6535443065604083 3.653544306560415 -8.861862899217002e-15
0.6261184533171826 0.6261184533171837 -0.06968762322964298
0.7216091806986126 0.6163124636878025 -0.1503034844391465
3.497868846857839 2.987462222385653 -7.88957586668842e-15
3.515384399746008 3.002421917802652 1.5021155579783618
2.9567643749879853 2.5253153441437006 1.981239976235665
1.9331869069035315 1.6510975985771694 1.8470955857641638
0.9645906698760286 0.8238382605193841 1.7459688886381992
0.7060701130117323 0.5129899648565756 1.7128696072579626
0.8392160618814931 0.6097261591420843 1.6927656105728157
1.0101030628306702 0.733882832814954 1.7184899738315602
1.1879826521234271 0.8631199193002692 1.7193074835993953
1.385477447170975 1.0066082869620154 1.7125443059961967
1.6276112797053468 1.1825288137671648 1.7182721340888776
1.944251284656822 1.4125812434322402 1.7460464406234217
2.360046542273351 1.714674181033594 1.7876489507731574
2.82221401599066 2.050458505750019 1.7774532241787033
3.6459429406720236 2.6489326010791556 1.8667086404428166
3.7793478427906444 2.745856935912726 1.5178723828746892
3.763370714672012 2.734248872859149 1.1167940567613854
3.5702278362012354 2.593922357668759 -7.56892039726887e-15
3.3931195049640914 2.4652456229609134 -0.33008490347833247
3.164395197552704 2.299067686437968 -0.6195060991484683
2.3140222448487155 1.4180346554166297 -0.881815607926481
-0.03768044670272569 -0.023090607436895203 -0.13601105758164755
3.467202233970985 2.1247042616179557 -0.6440593679227936
3.4140999421653264 2.0921631353474113 -6.867617430138458e-15
3.521016581116233 2.1576817359617992 1.3417707560538947
3.298698543984701 2.021445067589874 1.9712546143585281
2.1504378415459375 1.3177900041452866 1.8324078679764526
0.7756065165256826 0.39519125896355706 1.7084201474934944
0.9224060893260148 0.46998937728023654 1.689359047573375
1.1041006853451416 0.562567397987591 1.7055590283956337
-0.06279660576459899 -0.031996468778932044 -0.13832140937007675
1.303175070244851 0.6640008634364425 1.7124700259122745
1.5183336798966458 0.7736296507318696 1.7040657264319339
1.7891755479833447 0.9116304753106559 1.7150270362251916
2.1297633424278657 1.085168624367317 1.7366468155440324
2.5863146666423393 1.3177931430549734 1.7787699899728506
3.097912766876089 1.5784653950370708 1.7715531280479835
3.805570998732994 1.9390352737123935 1.7691443075400817
3.707409555439969 1.8890195201954931 1.3519658429682342
3.720333282450006 1.8956044880094258 1.0024314901943645
3.738470818885855 1.904846024414623 0.6645468829290662
3.126061404229525 1.5928078421372363 0.2761218481262314
2.99322233809288 1.5251229572535419 -5.76174116011016e-15
2.89787026146115 1.4765386475475324 -0.25596595484084894
2.790115833742195 1.4216350243290168 -0.4959682367875296
2.690554051809504 1.3709057626372962 -0.7249608846408967
1.9245778936569855 0.9806214163526178 -0.8947030619358736
0.3816113940395505 0.1944407170801978 -0.21822591844354652
-0.0664400193413164 -0.027520357095504298 -0.14113948340298482
3.179462075213511 1.3169763126043432 -0.5450681648363446
3.0482452790197487 1.2626245360097408 -5.658876481598003e-15
3.4439957954675267 1.4265497672385672 0.5904182605522883
3.8222303904139965 1.5832196662240892 1.3442422888292747
3.5315148590755654 1.4628013503512103 1.9476529489462888
2.318156910520662 0.9602120320465728 1.8230077870701176
0.2500577425745985 0.08124868575802495 1.6600511366946165
0.8136487986134706 0.26437052048575843 1.6790544542726853
-0.08810682436678738 -0.02862764260930296 -0.12750939407994263
0.9781198803189475 0.31781041439259955 1.6782878299709052
1.1645515499538874 0.37838573585857793 1.6853548357538122
1.3768102675014853 0.44735277388692973 1.6949967501438337
1.6058796976679763 0.5217819435528711 1.688521838769044
1.88952248860009 0.6139430730211873 1.6968546396682955
2.248691869145578 0.7306442790441886 1.7178477275761561
2.7322506962560986 0.8877620662596796 1.760489888218164
3.272813172612425 1.0634014618722851 1.7533990612699892
3.499847335062704 1.137169332970122 1.5242882074616915
3.522322050065392 1.1444718105417164 1.2033688754901823
3.5309967300037024 1.1472903849121898 0.8913427317206329
3.5434268238443645 1.1513291672270447 0.5901054929014985
3.2144835981197337 1.044449034246725 0.26600453432280174
3.136962281732732 1.0192608316746852 -5.6571620834763564e-15
3.3111546755921 1.075859371373554 -0.27400424692379394
2.944356768827145 0.9566795069286188 -0.49033920798217634
3.2767692083248927 1.0646868557942666 -0.82716712608322
0.732390533653338 0.23796810971849905 -0.25021447794239055
-0.08782289443174876 -0.024768617874474284 -0.12559321152919925
0.9294478814514302 0.22314069400850242 -0.15139308551863379
3.1508892215671844 0.7564615743127633 -5.557727759338971e-15
3.5556301621382143 0.8536312770739753 0.5791586940502829
3.509733583520755 0.8426124834334726 1.1727857329745435
3.4319042667117055 0.8239273176339028 1.7983305812287675
2.421742274821838 0.5814088801510848 1.8094952523900716
0.8984779432890458 0.14230492619177618 -0.14407877499701077
3.090273081705069 0.4894511724958381 -0.24624140641148098
3.083046017259369 0.48830651793841645 -5.35372094594652e-15
3.073542015302749 0.4868012319076739 0.24490822930616404
3.063614926946187 0.4852289355742677 0.49127737529217436
3.0496986104479906 0.4830248075743217 0.7412944224121657
3.02885948428811 0.47972421424063644 0.9964034838905232
3.5032897579936186 0.5548665876145003 1.4691984009949273
3.4542975110032983 0.5471069779946969 1.7819917676874735
2.978914011500339 0.471813628486401 1.8482357025177951
2.4495110035014047 0.3879644293583637 1.8018577760961536
2.0516177150843466 0.32494432356353864 1.7740890444777337
1.733331974455262 0.27453281467072044 1.7549381755492113
1.465088769105388 0.23204726472052095 1.7367812083210088
1.2337642088335092 0.19540905370853995 1.719298164580582
1.0348662315119146 0.16390670888877681 1.7097986646554546
0.8539445927827021 0.13525153639605253 1.6968516889698084
0.09481808069713321 0.015017708643862182 1.6119999999999999
2.307955060951278 0.1816400025713821 1.682012587971699
3.364032727442442 0.264755117463597 1.7193605021847513
3.200267455052987 0.25186651100794827 1.0430452898898306
3.5951921027428453 0.28294775484825124 0.5711832564088465
3.609112962373461 0.2840433502616467 -6.209219013018656e-15
2.584449444403188 0.20340058247646797 -0.4106023287467896
0.9236188654932931 0.0 -0.22174127109061628
3.630005529293629 0.0 -0.5749363941321508
3.396848907009499 0.0 -0.2673378068069938
3.6160889345076654 0.0 0.28459237117536296
3.60433445689246 0.0 0.5708704956973483
3.5824547947188594 0.0 0.8600713015767099
3.3337525029482693 0.0 1.0832018505736374
3.5414171642830854 0.0 1.4669030194669157
3.478650254137701 0.0 1.7724608343734156
2.9998523856165407 0.0 1.8383119062092668
2.462254885116005 0.0 1.7889328888257279
2.068832110047613 0.0 1.7669495466582916
1.476862568823512 0.0 1.7291838979148564
1.044634583162599 0.0 1.7046887069669647
1.954846385455671 0.0 1.669596540865756
2.836209944197418 0.0 1.738031689134486
3.570048518583175 0.0 1.478762514727122
3.598979496486865 0.0 0.8640385314713416
3.6170855027267397 0.0 0.28467080279517126
3.3928628225447137 0.0 -0.2670240951560681
0.9226514797219055 0.0 -0.22150902231506983
0.8773843346713913 0.06905164467982085 -0.21129268714333616
-0.27423835066752134 -0.021583026274303113 -0.2750863500793895
1.013676626193601 0.07977808064965723 -0.16104705944727676
3.2472969723691962 0.2555678142918719 -0.2563580806994903
3.595161046624327 0.28294531067871653 -6.185215746442985e-15
3.599974261354018 0.28332411889325665 0.28420021330383965
3.591254891299408 0.28263788958752334 0.5705577351045142
3.5549375721721588 0.27977965458491444 0.8561040841154005
3.1936332724098784 0.2513443895105494 1.0408830478099576
3.5249757039856973 0.27742160441898567 1.4646076401931452
3.47147870255589 0.27321129909646086 1.7742762478675345
2.995703016753097 0.23576694055812758 1.841445732340828
2.46353193017231 0.19388416772150777 1.7953953209609383
2.0654849531910875 0.16255719123670592 1.7695457235455783
3.095193999794916 0.4902305693533813 -0.24663351861620914
3.0804312675761474 0.48789238227325066 0.24545718375907893
3.05929821868141 0.4845452361517066 0.7436278123466321
3.5032897579936186 0.5548665876145003 1.4691984009949273
2.9923833547221466 0.4739469628741262 1.856592614109034
2.053869457147356 0.32530096446994367 1.7760361864309369
0.09481808069713321 0.015017708643862182 1.6119999999999999
1.9170892843409255 0.4602524164303577 1.6838745170098675
2.266850029042144 0.5442225419931637 1.6937617219131298
2.742099285614223 0.658319793764736 1.728108375354832
3.353952786864153 0.8052128230836436 1.7574837162909502
3.514515575997793 0.8437605382532902 1.4971257195557823
3.535619163920663 0.8488270614539511 1.1814354605565225
3.537346949327065 0.8492418660302768 0.8733732381221234
3.5575503134956943 0.8540922646291251 0.579471457836691
3.2593894905457477 0.7825101842489957 0.26380856784140116
3.151861164807765 0.7566949172398583 -5.559442131234911e-15
3.2099719614738036 0.7706460851925977 -0.25980881033819214
0.9170251171100261 0.22015825216107343 -0.14936960398529694
0.7198182959997451 0.23388314207912572 -0.24591928878235372
3.215431342792032 1.0447569751577543 -0.2660829619683492
3.251445804547869 1.0564587831314527 0.26906322608723027
3.5199029042488976 1.143685782417878 0.8885422757277128
3.4988120242999883 1.1368329401115937 1.1953368917970577
3.462075979043158 1.124896675445946 1.5078376520378505
3.4108980267030726 1.1082679507177833 1.8273775747898677
2.9349013232087473 0.9536072464105423 1.8910651608606308
1.9769718904311946 0.6423571060998993 1.7753871388201132
0.24990920758790822 0.08120042381526957 1.659065061754663
3.2427475235641334 1.1963127207924682 1.761114525659476
3.51213891262383 1.2956964511822615 1.2163436869681186
2.308444940747743 0.9561892024492722 1.8153702555279387
2.64630090986275 1.0961337269854137 1.7552670301195328
3.2154996384117114 1.3319035600359157 1.7733685409800763
3.8205302433755386 1.5825154422627319 1.712902371547441
3.8459485128188455 1.593044034198203 1.3525837282224074
3.853999638813586 1.5963789197775988 1.0014979423416022
3.4604155972755515 1.4333510718389295 0.5932331742159072
3.141961845504386 1.3014432088667172 0.26765151875035936
3.0288520757310056 1.2545916081896846 -5.622874214080735e-15
2.9836104952207916 1.2358519319591597 -0.25416218263376084
3.1749012845522557 1.315087171257307 -0.5442862898722389
3.036758515188278 1.2578665626429688 -0.7891301736825488
3.85251908309523 1.7760356237586452 0.6718974456919228
3.8158438863111064 1.7591281264582999 1.365250405605316
2.7845252026058445 1.4187864554863105 1.9150917444815703
2.886672330256165 1.4708330166169046 1.8143685113457673
3.164579988872288 1.6124340412912292 1.8096770309959453
3.558730973640276 1.8132639989738106 1.8412855637512722
3.7965179463329557 1.9344225131189676 1.7649356996531913
3.729131895668748 1.9000876053646325 1.544039635710725
3.7438389628223527 1.9075812303668178 1.365250405605316
3.750986711493383 1.9112231902212977 1.1872950801550508
3.756712569413959 1.9141406605520206 1.012233768666434
3.7691305516334968 1.9204679385242445 0.8414379251278183
3.777182648874818 1.9245706869905015 0.6714282596196866
3.09276439939228 1.5758421707807204 0.41083064958790194
3.1251734750107176 1.5923554196029042 0.27604341823468465
2.896094511541395 1.4756338577714798 -0.25580910464302836
2.811227104023919 1.4323917538087108 -0.4997209553561807
2.6477396800539346 1.4828054674647486 -0.4806449129290113
3.6005234222444287 2.0163900010480535 1.34084393183648
3.3755169278751658 1.8903803096198453 1.9712546143585281
3.1020319575546877 1.7855490041151003 0.2816904120004852
2.314832694989607 1.4185312999017163 -0.8821244500671629
-0.06193448549009927 -0.03795350152137434 -0.14256104387013907
2.6318798326756996 1.612818035753263 -0.7410610837872365
2.70617039525717 1.658343351054547 -0.5026918756522972
3.4035754114418832 2.0857136946252823 -0.3141620643565456
3.406428391434995 2.087462003013609 -6.85218575666542e-15
3.5626239462813114 2.1831787621273855 1.0031316513693072
3.512098768236695 2.1522168932007344 1.338372402125686
3.4534784545416586 2.1162943187674057 1.6777037641876376
3.3047747246815686 2.025168555909795 1.974885652198654
2.64645613512156 1.6217504053802523 1.9020337924249502
2.1490588954772285 1.3169449849075792 1.8312328553455361
2.922119832584013 1.9030896207880093 -0.8372016359683778
3.1266063201077006 2.089131552279438 -0.5955789421504835
-0.05979443767190824 -0.03995336591876646 -0.14113948340298482
3.39416619941676 2.267909347998017 -7.001359421518338e-15
3.768014963066743 2.517707105681477 1.4724558289151302
3.23308842875961 2.1602806226012454 1.981239976235665
2.506919563291898 1.8213836770201934 1.8988998931667664
2.945442047187406 2.139988911056826 1.8550632353680798
3.2753319404608945 2.379667948079166 1.8663992436457364
3.643701072496773 2.6473037885076542 1.8655608126348744
3.756301802422777 2.729113007483342 1.7129095018420037
3.7678087407440857 2.7374732875409076 1.5132380160346388
3.774042574914248 2.7420024331780635 1.3156585040124305
3.761011198814778 2.7325345842433655 1.1160938617803489
3.7765908967222743 2.7438538973466384 0.8336210102979146
3.5750807910545386 2.5974482357561737 -7.579208712374069e-15
3.3775503843087655 2.4539339946811722 -0.16403155551240467
3.386669003651461 2.4605590594303326 -0.3294573944560149
3.3880514285562118 2.461563449915408 -0.4956661169565388
3.091702912897198 2.2462536501778714 -0.6052748445504489
2.781095380978612 2.0205840687202357 -0.8253002502928258
0.8035996147759464 0.5838492956234511 -0.32274395289757174
3.4012579448544673 2.681335561350794 -7.428314099381762e-15
-0.056475406414680365 -0.04452162053469359 -0.14113948340298482
3.7328519550372565 2.9427432010680676 1.5444428556415435
3.07321575144529 2.422727948205129 1.9939486538159257
-0.16219101148826776 -0.12786108371841196 -0.28426329179611964
0.9650371830739789 0.824219618817558 1.746777105197134
-0.13865778687824784 -0.11842493766182222 -0.25097918694150706
1.1215348977040354 0.957881294202263 1.7269047163782356
1.8194347979523375 1.5539441193912187 1.738409241176998
2.230553397861139 1.9050725750081094 1.7975725362950143
2.6939538437255575 2.3008539454560677 1.8051384460909197
3.4458353400557526 2.9430214092290594 1.8770391029603677
3.7402549656706774 3.1944795248881515 1.5982022265177256
3.7316668062438767 3.1871445437980404 1.178178468703281
3.4781026221123845 2.9705802716060306 -7.844992396994476e-15
0.7517379103993688 0.6420448298027679 -0.07780456665212873
0.7260930350703961 0.6201420371031738 -0.15123742341030028
3.3543917336172644 3.1007678238526934 -7.834703919776197e-15
3.4311085013365656 3.171684074483167 1.5181813408568208
0.6240161028979533 0.6240161028979544 -0.06945362948111866
3.3441375969616245 3.3441375969616303 -0.18581567526833806
3.7635088384584607 3.7635088384584674 0.41888237691510755
3.4267234800699775 3.4267234800699837 0.573575960334953
3.552002543158369 3.552002543158375 0.7956110021819232
3.473092448522161 3.4730924485221673 0.9769967697165881
3.4604786193262753 3.460478619326281 1.1749108265614892
3.419070243686701 3.419070243686707 1.3636943709909095
3.3906796768957363 3.390679676895742 1.5580371168147502
3.672479310862205 3.672479310862211 1.916046038741784
3.5602832088009753 3.5602832088009815 2.0855656178264037
3.104785457630675 3.10478545763068 2.0242002183998835
2.775341013223066 2.7753410132230703 1.9998491244701215
2.4203941909900015 2.4203941909900055 1.9169465095415912
2.163404092321228 2.163404092321232 1.8748734535043976
1.069993992528649 1.0699939925286508 1.7717295820483436
2.4247973562089804 2.6231310015524842 1.8201158012654586
2.2384310278889887 2.4215210434213903 1.071463657643705
3.4734941133426993 3.7576047619354234 0.8104696771957977
3.4964311486522908 3.7824179069391612 -8.834425658976753e-15
-0.030684649618924018 -0.03592710869263282 -0.14541215609003127
2.2025114964831998 2.5788096300152388 -5.816602940967496e-15
2.166598650107736 2.536761089418661 0.26255373652412406
3.465030912153026 4.057029940060914 0.8450360011699547
3.458645882237401 4.04955403055459 1.2785432393553824
3.444592584835044 4.033099733388589 1.7233341130031434
3.27117128014721 3.8300494740401687 2.0863308659809197
2.566969122134046 3.005534682874939 2.013919510816211
2.0240842218743635 2.36989813295684 1.9098685562537898
1.6679030945453244 1.9528636145661589 1.8658960233919049
1.3820955029701754 1.6182259199787248 1.8175758285635917
1.1603912932496157 1.3586436422220838 1.7867345913705242
2.223094676404287 2.8199821533991676 1.8296468823937366
1.9720903002629127 2.501584620151221 1.0350141234938828
3.2089298900988656 4.070508160374139 0.8209490098402212
1.99134603114796 2.7408526746740844 -0.26663195600524475
1.9942747301431947 2.7448836830216274 0.26702409515605574
2.071181069319094 2.8507361778329603 0.4170578167215383
2.921271898634111 4.020785826060498 0.7871650622338697
2.9106533860815684 4.006170697360883 0.9849940150574151
2.893108061624136 3.982021629988871 1.1816795174945784
2.8839709157534847 3.9694454276077993 1.383777349985013
2.870494948610777 3.9508973500717124 1.5867705817780784
1.9275110180991517 2.652991316820663 1.2097893816613425
2.839506172529971 3.9082449589365615 2.001006256139935
2.630498106912862 3.6205700361885187 2.063128043186296
2.340523238328785 3.22145386967839 2.028897714616749
1.827896612772683 2.515883850310824 1.9056900127668535
1.2544439664612286 1.7265939956813858 1.822768364078663
2.010329564453475 3.008670811017881 1.8437166249761148
-0.013220658500556244 -0.01978611369816515 -0.15024554533674184
1.8558309211487498 2.7774472511240287 1.085364159778533
2.627299824736132 3.932032057950135 0.749002353930829
0.37332104342819916 0.6092045745589884 -0.1131644152111548
1.821189764377695 2.9719115895814316 -0.2743179648464172
1.8236874372236056 2.9759874212289263 -5.986334153106891e-15
2.451812853629225 4.000994941718912 0.7432154513451672
2.4534076570507932 4.003597424373037 1.1272970025144784
2.4368935164254473 3.9766487961320847 1.5154007198839752
2.401524943427949 3.918932530614779 1.9038218841537242
2.0735742010883627 3.3837655584327844 2.02208943376519
1.633329490234569 2.665351484276494 1.9156140638435417
1.346520957911293 2.1973224969218226 1.872358714142911
-0.008306240656742805 -0.013796619702479902 -0.14586863833921745
-0.008185179943647956 -0.01396525901644923 -0.14662187548211755
2.211058524544553 3.948129082884787 1.4702931496535632
2.2426637749918137 4.004564318351198 0.7269496629945451
0.97649123789214 1.916471962020849 1.8370479256426144
1.35648724201246 2.6622561117573706 1.830999660750364
1.4704370441545842 2.8858951905417367 1.8138800534726651
1.641550355466934 3.2217239729551297 1.8423550343385504
1.874680809843045 3.679268251866876 1.903651489115243
1.9922920259401864 3.9100932601443623 1.8177349037603854
2.001436648066975 3.9280405915992733 1.6263973851807747
2.0047077948237506 3.9344605785891695 1.434763608717715
2.0055817611337887 3.9361758340507076 1.245912758921233
2.0125603261437557 3.94987203905262 1.0642799484827536
2.020184301620952 3.9648349334178796 0.8851278654711431
2.024988657432482 3.9742640126057722 0.706461248319019
1.6939453259321704 3.324554892425835 -6.399532877647905e-15
2.0191698709850487 3.9628440011947483 -0.1747468291587205
2.027168168050197 3.9785415430409596 -0.3514205582222941
2.029708755206701 3.9835277260844664 -0.5291561438305251
2.034402963046113 3.992740627705121 -0.709745633182847
0.9409305086073458 1.8466801011430873 -0.41226130307618764
0.8221837945749748 1.6136265526889395 -0.4347863341866948
0.791362956480386 1.5531372520560256 -0.888167409549843
0.5729503137311679 1.1244783048612657 -0.9169195602078134
1.1365926025702071 2.4654599449079893 -0.42998780893994976
1.7770415469013767 3.854701099070411 1.3791529202418917
1.685350495173547 3.655807832626257 2.0511381716809804
0.8280604623551103 1.9991147986826505 1.8480822201331482
0.9305053775527471 2.246438702348948 1.766608303765776
1.1528863619129501 2.783313890805231 1.846146478957119
1.3809894313483138 3.3340034146550197 1.8387241287297376
1.627760155858346 3.9297606445637765 1.7618748966478044
1.705480419225437 4.117393958455817 1.4480485249155755
1.7265872180331785 4.168350278395748 1.083184903477959
2.052708495121145 4.955676688519953 0.8495718880220858
1.6704345299987773 4.03278569737939 -7.486614117077802e-15
1.5356078871048464 3.7072853875356273 -0.315809234232022
1.0200359729493644 2.4625846800028004 -0.422170946068946
1.480715509460934 4.013655015075642 -7.337435110610307e-15
1.4658361528292372 3.9733227540948333 1.3760634668688174
1.3581751367262662 3.6814948003462136 1.9993952418174803
0.6714772310095015 2.0665944194659778 1.8558711791683955
0.9359603944869422 2.8805898975605326 1.8560703063257173
1.1192782950497944 3.4447843821923554 1.8455320800338497
1.2232895297915287 3.7648980470382645 1.8249617589719214
1.266750026301951 3.898655701665854 1.6979811809123022
1.2956484211595183 3.987595815769779 1.546807932098294
1.2998994112019056 4.00067901783993 1.3667951261883688
1.3020986354678967 4.007447534157928 1.1883805806576409
1.3046975232560563 4.0154460883185115 1.013634097994477
1.3102319139427336 4.032479191423196 0.8433883461519349
1.291076110604436 3.9735236908475495 0.661731784713261
1.3152894682271818 4.048044742982812 0.5037741295262048
0.836609664087769 2.5748197902046592 0.21307115695322085
0.837932465791014 2.5788909552296833 0.10653930639873317
1.300990796173141 4.004037955398623 -7.220836486937131e-15
1.273748550167526 3.9201949433514622 -0.16195134166707134
0.8122882431008372 2.49996615323247 -0.2068768783895439
0.5875436915612195 1.8082735468891495 -0.45646926526059567
0.572023475406129 1.7605072331352256 -0.6014610757670392
0.13621702218270315 0.41923288665474395 -0.2701272100600152
0.12199637144339381 0.3754662239864522 -0.39478855099914034
1.1001853460222275 3.9009629842383737 -6.95163466546247e-15
1.1496266958724788 4.076268787350491 0.6708026784453688
1.1116344638272282 3.9415584938231643 1.3306488862964658
1.0370932249602973 3.677255197409968 1.9467451954128037
0.5116995093648325 2.1313818487127305 1.8720982952542027
0.5778222720877574 2.4068029770802744 1.7983327977315173
0.715423530293613 2.9799534662492815 1.8780073246106141
0.8636444417921925 3.59733799483691 1.8850184691573237
0.9300071273817719 3.87375847386577 1.6501572740718562
0.9713481878495966 4.045956383527695 1.3519658429682342
0.9697415874056038 4.0392644110677045 0.9972969824169404
0.9596623363632667 3.9972813090183736 0.6510970255946138
0.963976183235142 4.015249774402001 0.3249864109775785
0.9552878943604479 3.979060446749759 -7.018505934648365e-15
0.9372201185946801 3.903802744506561 -0.3159661078097226
0.6049629331069909 2.5198519661837904 -0.41044599898923456
0.7969813856055147 4.006695994343814 0.6470308183599549
0.7844879440162804 3.943887222049688 1.3065516619890312
0.34420358568079684 2.173215910448733 1.8792382760514879
-0.24198352221678507 -1.5278238299226794 1.3211503773968931
0.4792803293268464 3.0260569052413593 1.8774850124998148
-0.212559640652832 -1.3420487531306455 1.5909241161620558
0.5178664652221796 3.269680179195979 1.8539338850054037
0.5759512943355001 3.6364133569898502 1.875941098131571
0.6070544360118275 3.832790864859917 1.788965929794287
0.6097710698297995 3.849943015742955 1.6145767302704053
0.6123208533389896 3.8660417152361974 1.4440365745436556
0.6147679244496785 3.881491914167828 1.2768938559322855
0.6159647919031287 3.889048637864914 1.110497216321049
0.6175959531608487 3.8993473847265228 0.9478197148539281
0.6211467772496152 3.9217664056953176 0.6288894499608442
0.6243003649877994 3.941677375053939 0.3140836278190718
0.10818016236857086 0.6830226640123629 -0.05442511291090237
0.07028833204015088 0.44378306288248937 -0.10787095752634271
0.06631697063071273 0.41870887376832694 -0.21600217229005947
0.0631924453013697 0.39898139723754666 -0.29349030565796963
0.09220745173894164 1.1716067599959665 -0.18613808255046532
-0.14896375363839193 -1.8927639519986112 1.6215718985344298
0.09182170085918222 1.1667053303405834 -0.0921056317832737
-0.19664938628329007 -2.4986673633587397 1.5359200585187651
0.31031868743372076 3.9429727759939466 -6.783600786054629e-15
-0.20780377696135047 -2.640397335021462 1.3495097270831926
0.3086583312563036 3.9218759504687113 0.3096127640799258
-0.21047162438351238 -2.6742955505723294 1.1111548062796686
0.3071953826479431 3.90328742593238 0.6201316533107747
-0.2121136711828859 -2.695159733391551 0.87841835249618
0.30456651027927617 3.8698844353908255 0.9319499436858922
-0.21511349930798965 -2.7332761637224565 0.6582306550458739
0.3013968004729547 3.829609453637443 1.2481632109926155
-0.21099001121291341 -2.6808822797592358 0.42592301797542637
0.2980018122615272 3.7864720383461448 1.5732579008896275
-0.2124143296852297 -2.698979961878003 0.21307115695322085
0.2948765860589682 3.746762274369572 1.9149739576180056
-0.2141689012876272 -2.721273907882345 -4.681755839901077e-15
0.2556955380548763 3.24891985665168 1.9970970324131097
0.2077152808340473 2.6392728851094884 1.923473420672578
0.17221657085200945 2.188219008207617 1.8746946484275377
0.14227137573152845 3.6210483138608542 1.846439807936595
-3.759459388562758e-15 2.191945476718412 1.8720982952542027
1.3063892353274535e-14 -2.5389590002587816 -0.1998204068780979
-5.2196745349980845e-15 3.04332107476371 1.864949553178062
1.3069018221295227e-14 -2.5399552093818625 0.19989881023642933
-6.197007357934137e-15 3.6131530742794977 1.8409934442644325
1.3057199369425918e-14 -2.537658223191618 0.6092378371932917
-6.496823741204844e-15 3.7879604327937604 1.7462736783187545
1.648741309734846e-14 -3.204318034969474 1.3272719882410566
-6.53019390814112e-15 3.807416843653214 1.5770836942489173
2.0658642283098963e-15 -0.40149937200495606 0.24603913160232424
-6.555745396588722e-15 3.822314589243054 1.4101262996128046
9.835557215620018e-15 -1.9115341614782413 1.6326044069221657
-6.580413756673146e-15 3.8366974285602216 1.2466185630253537
-6.6128418101527795e-15 3.8556045420031038 0.9256487539477581
-6.69089742424279e-15 3.901114715821602 0.3070243866537897
-5.536714503726971e-15 3.228170611244513 -0.5112919955340849
-7.427818478308461e-16 0.4330775101586625 -0.08614447280454833
-7.347808568250924e-16 0.42841254793093353 -0.10285275288161014
0.1752962305751364 -2.227349795167237 1.62326834550379
-0.3071812576422054 3.9031079507173962 -6.71501622424168e-15
0.03359986904284924 -0.4269268151670752 0.26243007314635525
-0.3055305773871407 3.8821340694425834 0.30647533857497977
0.24798305736840598 -3.150923498025334 1.6104401612137011
-0.30370922605772954 3.858991606554582 0.6130941906010058
0.25126297751967 -3.1925988349855983 1.3265069147865582
-0.3014394823348019 3.830151778112416 0.9223814802520833
0.19794472101505922 -2.515126151662175 0.819741013154331
-0.29781611077661585 3.7841124772588737 1.2333346356993329
0.19811125761118067 -2.5172421997485595 0.6062051116682771
