-1.0434013706370886 3.2112592210758386 -0.42655339033706025		213 0 41
-0.27891714600261625 0.8584187084881522 -0.26222804309091		29 225 0
-0.15060305483369976 0.4635085425099765 -0.22933501890255467		0 255 0
-0.1261343039925993 0.38820147087107887 -0.23282129492345294		0 255 0
-0.10488735850489271 0.3228100965283047 -0.2306713757821994		0 255 0
-0.022877605651507787 0.07041003028363255 -0.1346664130179164		0 255 0
-0.015761265952344804 0.04850818874657209 -0.14167052664582847		0 255 0
-1.4690261330607046 5.208773765863985 0.5974864654800448		86 0 168
-1.463941771168128 5.190745978443326 0.8108364063752794		85 0 169
-1.4643027589514352 5.192025944574065 1.0290680351643415		83 0 171
-1.4752093182730337 5.230697686888014 1.2597059877863548		78 0 176
-1.4849933784141842 5.2653893473288536 1.4966384623889215		72 0 182
-1.5054209046440665 5.337819891846139 1.7539836664211872		63 0 191
-1.4960382992375698 5.304551682522328 1.9842544833422764		60 0 194
-1.4287115773099688 5.065829133599764 2.131914261416796		71 0 183
-1.228034758095093 4.354282805172208 2.0427278050420665		116 0 138
-0.008947272030588014 0.037268070131944366 -0.14010009732991313		0 255 0
0.008947272030588151 -0.03726807013194434 -0.14010009732991313		0 255 0
-0.011367547431192788 0.04734924270163883 -0.1352546785918361		0 255 0
0.011545212368344555 -0.04808927042350944 -0.1373685922673171		0 255 0
-0.013881471118576174 0.05782048845872161 -0.13169698506032312		0 255 0
0.0145390287297494 -0.060559413025361664 -0.13793539842121447		0 255 0
-0.01684734198733824 0.070174229706494 -0.13127354856581688		0 255 0
0.017994105878335397 -0.07495084507801122 -0.1402090688070184		0 255 0
-0.02081557190990661 0.08670309689063381 -0.13574345271738472		0 255 0
0.021335832007002613 -0.08887013615345356 -0.13913619648616096		0 255 0
-0.06664814427507215 0.2776095000259086 -0.2287268903300489		0 255 0
0.27024354945932166 -1.1256453944313032 1.4449594700098765		143 111 0
-0.07754821333580514 0.323011555178549 -0.22575608481181536		0 255 0
0.2610298341390062 -1.0872675081259158 1.6453260441210502		160 94 0
-0.09647886576001813 0.4018633973687843 -0.23573213255065362		0 255 0
0.2448781161034026 -1.0199907607056524 1.839047187085952		176 78 0
-0.1772543882693399 0.7383176627057928 -0.2869144659579179		13 241 0
0.2069641830887499 -0.8620678642365 1.8840437426899421		172 82 0
-0.19777682312702208 0.8237997559001912 -0.24613673113244985		22 232 0
0.16934536089543206 -0.7053741928036046 1.9197618073265907		168 86 0
-0.27587404173386476 1.149098082607971 -0.24472864491943944		62 192 0
-1.238357687105609 5.158130989390649 -0.6701394892664331		92 0 162
-1.2612697009284919 5.253566395299412 -0.25479182031707115		88 0 166
-1.1265074654434024 4.692241286816503 0.15164971676496988		124 0 130
-1.348542724142123 5.6170846988262415 0.6377530927995999		63 0 191
-1.2906471971356341 5.375932473496853 0.8312014514712701		77 0 177
-1.2882246478550594 5.365841829535442 1.0526745542029865		75 0 179
-1.2841778014202687 5.348985501011017 1.2750582278128841		73 0 181
-1.2827587702321839 5.3430748107295365 1.5032343477781338		70 0 184
-1.4021908118237651 5.840545066112375 1.899608185375974		33 0 221
-1.321548056219427 5.5046438147341705 2.038106770513141		50 0 204
-1.2129338231010296 5.052232974497566 2.1045128919008755		76 0 178
-1.0546505859594806 4.392935843222711 2.0398477440398555		116 0 138
-0.8377387036093527 3.489432829539851 1.972841704902962		170 0 84
-0.7266559178003725 3.0267397273487067 2.044691370357584		193 0 61
-0.6165286165487062 2.568026504764467 2.048567630273341		217 0 37
-0.5148040030225748 2.144312995431539 2.00661770551726		240 0 14
-0.4387714089378892 1.8276144487712225 2.001513696516044		254 0 0
-0.3712948126032528 1.5465541975720802 1.9852683133788476		230 24 0
-0.3138585496106632 1.307314944534196 1.9783165688619806		211 43 0
-0.2608241322914008 1.0864106982673951 1.958802584923909		193 61 0
-0.2145105441812515 0.8935007203601295 1.9527400464862168		181 73 0
-0.17099391298058683 0.7122409064248931 1.9384504050758258		171 83 0
-0.822174157126764 4.133348609528622 1.9028410147620618		137 0 117
-0.923976295136949 4.645142518330065 1.9183367249852734		107 0 147
-1.0458711620397976 5.257949396598173 1.930063899259929		70 0 184
-1.1703231458540115 5.883611769700772 1.8971961621606042		33 0 221
-1.176049435027226 5.9123997694046055 1.6491372572095155		36 0 218
-1.1569891698297137 5.816577345446761 1.3746232375935898		46 0 208
-1.078208249013295 5.420518911000343 0.8309041504574172		77 0 177
-1.0785062067942461 5.422016845919505 0.6103234261204343		79 0 175
-0.14401218419941827 0.9092571461207271 1.9563557787453956		182 72 0
0.13875565225998904 -0.8760687096261952 1.8849476080198615		172 82 0
-0.2076845561027304 1.3112686806682117 1.9535243976605607		207 47 0
0.1745678345275529 -1.1021779296618364 1.6420215840587198		160 94 0
-0.2854643005248357 1.8023506598243104 1.9432329330671445		245 9 0
0.01123185037181543 -0.07091511229765037 -0.1306020382116481		0 255 0
-0.3937450542602703 2.4860084327315572 1.9523828785955795		227 0 27
-0.5249247125632981 3.3142441990368434 1.8447328899575053		187 0 67
0.007657050392494444 -0.04834471351355305 -0.1359564572007497		0 255 0
-0.7413314036768108 4.6805822728405815 1.9194627730417353		107 0 147
-0.8395217005502406 5.300531408451583 1.9320960385869819		70 0 184
-0.9358960484318914 5.909015093365168 1.8920706152023536		34 0 220
-0.9408437204050893 5.940253464780061 1.394039765552906		40 0 214
-0.9405368056923115 5.938315681547383 1.1469147236942012		44 0 210
-0.9403591395694374 5.937193941794981 0.9037437613290709		46 0 208
-0.8210129144369905 5.183671532094256 0.16493405252791848		98 0 156
-0.8619595579813747 5.442198464793466 -0.6960794424519293		79 0 175
-0.13746154143928482 0.8678980154718398 -0.2552907349771596		26 228 0
-0.04745621110682334 0.2996267247564407 -0.2061643369720203		0 255 0
-0.009064086316350913 0.0572283887090052 -0.12832674649121573		0 255 0
-0.007461099919166684 0.047107530915779905 -0.13247721509382304		0 255 0
-0.015221408393414867 0.1133246869378387 -0.11986168719387248		0 255 0
-0.02941149128020074 0.21897106729924382 -0.2026293065341358		0 255 0
-0.035107483275354845 0.2613782147173849 -0.21128391677840344		0 255 0
0.15331537131425688 -1.1414460480846647 0.520010880877191		70 184 0
-0.10843863625194569 0.807334918530556 -0.286061866541276		19 235 0
-0.12030235408265823 0.8956613121424633 -0.2510441346325614		29 225 0
-0.1493909870489454 1.1122286716898435 -0.23239990288205264		55 199 0
-0.7038587257332609 5.946872346981417 0.6611234248738308		50 0 204
-0.701311272087194 5.925349019800625 0.8970543423846877		49 0 205
-0.7029803875865088 5.9394513054495714 1.1409192630778597		46 0 208
-0.7000358379051446 5.914572930806738 1.3804933436335902		44 0 210
-0.6992471703803999 5.907909512534868 1.6275022538893902		41 0 213
-0.6987055297647107 5.903333214079395 1.8800105175831483		37 0 217
-0.6931405470156902 5.856314912236079 2.123119598798927		35 0 219
-0.613858813067076 5.186466924277163 2.115398355156508		74 0 180
-0.5344333120197733 4.515404254234558 2.0530137495506535		114 0 140
-0.5429458682523401 5.299202030820624 -0.2512123020361375		93 0 161
-0.05769129822373787 0.7330374467265073 1.9459259533204087		172 82 0
0.05683249524747758 -0.7221253202820825 1.9169585517927727		168 86 0
-0.07199513678501536 0.9147849479992852 1.95002825599868		181 73 0
0.06969246859688559 -0.8855267745614013 1.887659209538563		172 82 0
-0.08711714912196253 1.1069283327754909 1.946652837161196		192 62 0
0.08280638664898703 -1.0521549022248093 1.8503278531261533		178 76 0
-0.10416337898601005 1.323521219407969 1.9535243976605607		207 47 0
0.08746571863315812 -1.1113573283494913 1.6403693598662057		160 94 0
-0.12317150000235808 1.565042296691666 1.9595326971380815		225 29 0
0.08818131548339705 -1.1204498484371879 1.4028746176108184		136 118 0
-0.14360290009643978 1.824647849333761 1.9490609105427084		246 8 0
0.005668652495279653 -0.07202705918324656 -0.16001552775996727		0 255 0
-0.1669894955898832 2.121802719755547 1.9366620063399291		246 0 8
0.005705101171221675 -0.07249018352212834 -0.20197184237797672		0 255 0
-0.19704752967653522 2.503726254827456 1.9480944822918769		227 0 27
0.005796352870802313 -0.07364964629952378 -0.2700502395728473		0 255 0
-0.23137464444739234 2.9398936031081218 1.9371206406186443		206 0 48
-0.26341140724265416 3.346959270268974 1.8456960946198644		187 0 67
-0.33279696012381704 4.228586310909685 1.9151838017588754		135 0 119
-0.37232082645785014 4.730784648515098 1.9220902194120897		106 0 148
-0.420320732346135 5.340681280048749 1.9287091400459724		70 0 184
-0.4690958188228547 5.960427514846561 1.8908646046248185		34 0 220
-0.3745267138666129 4.758813105555788 1.3058895692173855		117 0 137
-0.4711122628950053 5.9860488660663504 1.3917820263301706		41 0 213
-0.4711060870722315 5.985970394797773 1.1454158578123868		44 0 210
-0.47124557105496245 5.987742706839769 0.9030004919424202		47 0 207
-0.4709346190768718 5.983791687343031 0.662659510638282		49 0 205
-0.422047219293185 5.362618376672298 0.16904819094997578		90 0 164
-0.27464017772851 3.4896343269977694 -0.16507585109904113		207 0 47
-0.27503390687986273 3.4946371302054584 -0.44284046591945014		205 0 49
-0.08988565269110871 1.142105505937892 -0.23725004266942498		58 196 0
-0.06662098292919044 0.8464998488234728 -0.24669140758321192		22 232 0
-0.03873769139699518 0.4922090378969621 -0.18656541554580305		0 255 0
-0.0059967915928633014 0.07619646173909045 -0.16927828481242094		0 255 0
-0.0061125529783898685 0.07766734960413424 -0.21639644059354485		0 255 0
-0.005467066996601154 0.06946567256519627 -0.25470891526116557		0 255 0
-0.016578214314021608 0.24796083556388354 -0.2605102432470153		0 255 0
0.08203755819588576 -1.2270381533592707 0.36778146941618295		72 182 0
-0.007945050569053083 0.11883435334971285 -0.10923036498799583		0 255 0
0.08028046192846647 -1.200757213181839 0.449348597888471		72 182 0
-0.016299628291407055 0.24379401628917446 -0.19575188310500546		0 255 0
0.08040606415058904 -1.202635849285599 0.5442231884630753		77 177 0
-0.053902531129602575 0.8062217320112683 -0.2837570016238772		19 235 0
-0.05964612457354753 0.8921288268601556 -0.24838175478178598		28 226 0
-0.07564340474426146 1.1314006134798276 -0.23482488610912813		56 198 0
-0.15137648491868616 3.8527888175293095 0.425680029288153		184 0 70
-0.23479529790481166 5.975939384918653 0.8991354936047614		48 0 206
-0.23496359361809593 5.980222796853658 1.1416686952290005		46 0 208
-0.23432295238587614 5.963917388673052 1.3834283989669924		43 0 211
-0.23394102438675823 5.954196671978558 1.6301406652520396		40 0 214
-0.2343171684219483 5.963770176960783 1.8875480764674235		35 0 219
-0.23207667096482298 5.906745708773719 2.128200072990593		34 0 220
-0.20787886108500672 5.290870321234263 2.144676577714326		69 0 185
-0.17976342094324504 4.575284585204779 2.06741410386945		112 0 142
-9.710157630466646e-16 0.56614885004679 1.9486971236163653		165 89 0
4.58577454935764e-15 -0.8912423074529418 1.8939863118317288		173 81 0
-1.5738216429238724e-15 0.9176136446276003 1.95002825599868		181 73 0
5.727364611743226e-15 -1.1131095951739214 1.637891030908878		159 95 0
-2.2808759616695315e-15 1.3298602885157431 1.956829990834365		207 47 0
6.0094934697228865e-15 -1.1679411556177461 0.4360945505441258		67 187 0
-3.1344819575672216e-15 1.8275536024267527 1.9461469189804246		245 9 0
5.159082028418848e-16 -0.10026642439260536 -0.27850070761045104		0 255 0
-4.3196721443272285e-15 2.5185764332154146 1.9536081362576072		227 0 27
-5.779237527605506e-15 3.369573188117103 1.8524385360713962		186 0 68
-8.181888098222342e-15 4.770433925280662 1.932224667198754		105 0 149
-9.226981620623752e-15 5.379773668687559 1.936837699368745		69 0 185
-1.031662029778004e-14 6.015085377843502 1.9023217123434468		32 0 222
-1.0360379313266584e-14 6.040598986622782 1.4001356658595048		39 0 215
-1.0354020866025796e-14 6.036891706339133 1.1515986826728324		42 0 212
-1.0354051671210399e-14 6.036909667242037 0.9076087645894922		45 0 209
-4.1689455113263545e-15 2.4306955633136464 0.07638768544308387		216 38 0
-4.058202394619279e-15 2.3661270047378418 -0.29891135383308826		210 44 0
-1.5269534441941311e-15 0.8902872326120497 -0.24731688872371435		27 227 0
-1.4759910552419608e-15 0.8605737109588261 -0.2500197752309905		24 230 0
-2.1352905336295014e-16 0.12449769881563114 -0.11418109733932498		0 255 0
-1.6703184824240793e-16 0.09738759390158805 -0.2705044483073419		0 255 0
-0.027536409566976505 -1.1684652408970717 0.5612448012797151		74 180 0
0.021087847671567395 0.8948304225945679 -0.24864797903825278		28 226 0
-0.02737030603560397 -1.1614168926973185 0.6566115043957288		78 176 0
0.026163301343326752 1.110199502677742 -0.22997509847135952		53 201 0
-0.028340003766457185 -1.202564526339345 0.7901565694068127		92 162 0
0.22207089944807296 5.652081818070214 0.6244770912198752		71 0 183
0.23685268649814278 6.028303421314638 0.907014148436981		45 0 209
0.23654453972306047 6.020460562168895 1.1493503817792985		43 0 211
0.23657918419915602 6.0213423229665635 1.3967490537871514		40 0 214
0.23594780647134717 6.005272686717275 1.6441242625753245		37 0 217
0.336489788171905 6.114290898199605 0.6760454383024175		41 0 213
-0.0896999171918797 -1.1397455126580092 1.427034018946886		140 114 0
0.03791611340165907 0.48176989968150813 -0.14039990066015762		0 255 0
-0.0873335722833282 -1.1096782497735476 1.637891030908878		159 95 0
0.08873715527963023 1.1275124626887327 -0.23421862384205777		56 198 0
-0.08474811905169838 -1.0768269516766524 1.893716312561089		184 70 0
0.4200155585604405 5.33680367944785 -0.6762798367532865		89 0 165
-0.07019303543923272 -0.8918870793445114 1.9012173404095976		174 80 0
0.19662259392704914 2.4983269341948824 -0.11818242438619322		225 29 0
-0.056804792394013634 -0.7217733221542803 1.9160241352831247		168 86 0
0.19368786332359034 2.461037646301816 0.07758037823032124		220 34 0
0.4231363673962462 5.376457315458062 0.5954018387981374		87 0 167
0.4240015626741188 5.387450663795482 0.8124715502831675		85 0 169
0.42225083023676807 5.365205499008241 1.0266324511606393		84 0 170
0.4222783366694981 5.36555500137407 1.2475145424440326		81 0 173
0.4744829041721802 6.0288769242266165 1.6544140975512058		34 0 220
0.46770753825737427 5.94278773775059 2.1461511043490065		30 0 224
0.3623954368145208 4.604670615620865 2.085517458333489		109 0 145
0.2858875361826933 3.6325455662579347 2.003183972009366		166 0 88
0.2474353715190963 3.1439644894931575 2.0715846653533707		190 0 64
0.209627086796069 2.6635646830787763 2.0724612574272285		215 0 39
0.1747034838142231 2.2198182334665506 2.026125046267534		238 0 16
0.14891677974124848 1.8921670920441782 2.021183932376412		253 0 1
0.12557351872203262 1.595562838324049 1.9977463603658685		232 22 0
0.10623442566469872 1.349836362525624 1.992365689628107		213 41 0
0.08820461302678076 1.1207458717933634 1.9709524695179566		195 59 0
0.07252911027539492 0.9215697244917805 1.9644912244809853		183 71 0
0.057885225296996266 0.73550152382325 1.952467108339086		173 81 0
0.04446325663395352 0.5649592420281039 1.950615562753597		166 88 0
0.0314762446286071 0.39994360857700983 1.9372264596537183		159 95 0
0.10456663235092747 1.1545750746985333 -0.24007960405594994		60 194 0
-0.10541524347760159 -1.163945035583244 0.7676982353657446		86 168 0
0.6398461510282902 5.406032834087154 0.600997420781403		84 0 170
0.6391362462159849 5.400034878612652 0.8175256378486276		83 0 171
0.6390267942718076 5.399110123805538 1.0371242101230027		80 0 174
0.6366104380991933 5.378694433585304 1.2554164011281808		79 0 175
0.71727112100387 6.060193102447806 1.6694531140519944		31 0 223
-0.18757742557306845 -1.1843172548308454 0.6777162749449871		84 170 0
0.06647941893015491 0.4197345319649863 -0.12346420345526435		0 255 0
-0.17395305259132898 -1.0982963492808873 1.6362388165088957		159 95 0
-0.14068521847148036 -0.888251511216728 1.911160098506881		176 78 0
0.8185101340413784 5.167869598580675 -0.660991658447507		97 0 157
0.4547783762620771 2.871357661966174 0.09136085350181068		244 0 10
0.8645684157639126 5.458670144569658 0.8309041504574172		77 0 177
0.8640225892388366 5.45522393152021 1.053611324091674		75 0 179
0.49427885414389255 3.120753864022876 0.7323685783350408		223 0 31
0.8895583118351112 5.616450138740762 2.047251535323385		49 0 205
0.5748091722494086 3.6292022819388468 2.020040893711765		164 0 90
0.41734396501246945 2.635006091237993 2.069397959312405		215 0 39
0.2970224605916852 1.8753260104532787 2.021912464084796		253 0 1
0.21198959960654065 1.338449655611165 1.9940185377907125		213 41 0
0.14494376227528458 0.915138898608286 1.969010945127401		184 70 0
0.08891395369980769 0.5613806098479127 1.956370905458434		166 88 0
1.015653514673667 4.717510860262526 1.3201360617133973		114 0 140
0.08115124434455379 0.3380192594109234 -0.13135621724388014		0 255 0
-0.16876837592798405 -0.7029708774513796 1.9132208917795843		167 87 0
0.22989333741711532 0.9575746654888356 -0.28610629742311655		40 214 0
-0.2101415304060645 -0.875302468286847 1.912967884259835		176 78 0
0.7862160264994734 3.2748254344196797 -0.6974544671541884		211 0 43
-0.243144975346222 -1.0127717099082798 1.8260312112812704		174 80 0
0.9980002218732134 4.156970094718709 -0.5400696147306877		157 0 97
-0.26679674639458023 -1.1112884264182392 1.6816761071687196		166 88 0
0.5985413998336035 2.493104355116522 -0.12091264278089572		232 22 0
-0.28759083576461486 -1.197902042090486 1.5377133051188876		158 96 0
0.6863563195250744 2.858879819917916 0.09239685013082198		242 0 12
1.091258655753136 4.5454194279177464 0.5160782601038006		132 0 122
1.0827982189756944 4.510179172553803 0.8848100634853617		131 0 123
1.0657305853261176 4.439087362037234 1.248904204373487		130 0 124
1.0514288510477325 4.379516351535581 1.6215257931395728		127 0 127
1.0291239489618265 4.286609748005266 1.990475512529466		124 0 130
0.8540998708377939 3.5575819956349415 2.0113716103616888		165 0 89
0.7379689056044885 3.0738617128482733 2.0765242749956947		190 0 64
0.6250102325549745 2.603354977965411 2.0767498809207368		214 0 40
0.5196360962512463 2.1644401122460124 2.025452376130635		238 0 16
0.4416461398959991 1.8395885649701376 2.0146271612251425		253 0 1
0.3737743767398245 1.5568823255000905 1.9985262419688627		232 22 0
0.3168741035361082 1.3198756306065675 1.9973242406377343		213 41 0
0.26290418535325993 1.0950747428077494 1.9744238898950452		196 58 0
0.21679441775924416 0.9030137384494716 1.9735306860041317		184 70 0
0.1729722205251408 0.7204811503854027 1.9608772329918893		174 80 0
0.13288044747335723 0.5534868973102903 1.9592485909616235		167 87 0
0.09393738919738852 0.39127738562677905 1.9430948958833303		160 94 0
1.0741702657069567 4.183616967340302 1.1816312076334932		146 0 108
0.41938203991745004 1.2907252000409177 -0.3942881719935443		88 166 0
-0.3863769599689027 -1.1891460088401349 1.3314791077838084		140 114 0
0.48743231214023136 1.500162402561267 -0.19926742589603774		110 144 0
-0.3666985133949925 -1.1285819777824273 1.7461191023806502		176 78 0
0.48274011663558164 1.485721309703399 0.049093479036236884		107 147 0
-0.27895780060021663 -0.8585438304739188 1.9183912626571935		177 77 0
0.6660050510609973 2.0497527813260055 0.41113356395159556		186 68 0
1.1182750161077035 3.441696607109088 1.3028531970115085		186 0 68
1.0796965190653451 3.322964201872857 1.9208269937164208		177 0 77
0.827096338746399 2.545540785417732 2.076137219985032		214 0 40
0.5856741938518031 1.8025198245660916 2.018269808698101		253 0 1
0.4194535348769025 1.2909452389006155 1.9973242406377343		213 41 0
0.2873700913850274 0.8844341993322515 1.9762425401829808		185 69 0
0.17606913805494107 0.5418850875963318 1.9611670531765781		167 87 0
-0.4523123868144413 -1.287997098310313 0.5097146059104412		94 160 0
1.169795917927989 3.023737765281584 1.463878218025306		204 0 50
0.582572273758132 1.4064538843694192 -0.07179148271523829		102 152 0
-0.509073730641106 -1.2290127047616424 1.210455991891328		136 118 0
0.6157646333440417 1.4865873290488874 0.050567078558796705		113 141 0
-0.5022926227806158 -1.212641662196932 1.39772791350979		151 103 0
0.7285680402584205 1.7589188439034724 0.2101858969466675		151 103 0
-0.500123537473564 -1.207405027030703 1.6312601104563047		173 81 0
0.7308990276756705 1.7645463453399184 0.3643388621740689		155 99 0
-0.473885209930784 -1.1440601008229354 1.8221350920043964		187 67 0
0.9109397557603248 2.199203112861419 0.6512038311895626		220 34 0
-0.4097591313304363 -0.9892460521641707 1.8772284630723368		182 72 0
0.9047698726211691 2.184307697308612 0.851192317326361		226 28 0
-0.34562121102429927 -0.8344034150986879 1.9192951621263843		177 77 0
1.1692377201087076 2.8227895615246497 1.3795503779211797		217 0 37
-0.27652431051701026 -0.6675887407760441 1.9122864792917786		167 87 0
1.152035104654628 2.781258773987121 1.6549884439968316		211 0 43
1.133643156313013 2.7368566828623284 1.9459017682340711		205 0 49
1.0236629895222167 2.4713410726039324 2.0749118985497392		214 0 40
0.855226357879067 2.0646990720905976 2.033524432726868		237 0 17
0.7258164460906248 1.7522759079454333 2.0197268699055284		253 0 1
0.612483545889959 1.4786660832179084 1.9977463603658685		232 22 0
0.5192319657958434 1.2535368538419727 1.9964978141124397		213 41 0
0.43249031204902577 1.044123976943734 1.9813667633113605		197 57 0
0.35620169551846176 0.8599469642609653 1.9780504469725042		185 69 0
0.2843614934414166 0.6865093740829384 1.966484024939948		174 80 0
0.2181488369338037 0.5266578807415077 1.9621262858433173		167 87 0
0.15430018316135438 0.3725135948647958 1.9470072098267328		160 94 0
-0.5333853686694383 -1.2459824979528735 0.6119637761211723		98 156 0
-0.532811728649717 -1.2446424810219983 0.5055262171724664		92 162 0
-0.556183103863872 -1.299237762745922 0.4226601363167814		96 158 0
0.2581648624911672 0.5066770712774591 1.9573301329148873		166 88 0
-0.6413918479829274 -1.2588023789966718 0.5275168888039167		100 154 0
0.41832585521387344 0.8210107181671773 1.9581636498296555		182 72 0
-0.6287902937334928 -1.2340704362410382 1.4749067512566354		165 89 0
0.6027240569334578 1.1829125660582926 1.9535243976605607		207 47 0
-0.5925254160889218 -1.1628966063949435 1.9204689828590753		202 52 0
0.8318660152097869 1.6326289806234404 1.951246407906356		246 8 0
-0.41021541537563716 -0.8050930837363949 1.9201990624693097		177 77 0
1.1326530159436101 2.222956708183029 1.9352293453278124		229 0 25
1.2139973761859564 2.3826040041582535 1.4700763687586673		235 0 19
0.9598301919695434 1.8837728182604574 0.7611615937281395		192 62 0
0.9601913341084384 1.8844815996162332 0.40345842736383725		181 73 0
0.7748972499233685 1.5208214833866582 0.0536401690042467		125 129 0
1.208848383304511 2.081184902441014 1.5809664727734296		246 0 8
0.9522546178367157 1.553938304693029 -0.0859470070241192		140 114 0
-0.3773692386831222 -0.6158106288155666 1.9113520678131217		167 87 0
1.3003018462522251 2.1218997615833786 0.07820812250306584		223 31 0
-0.471895492259777 -0.770063455192596 1.9192951621263843		177 77 0
1.2946441984117274 2.112667319409682 0.27355108666785066		223 31 0
-0.5711046685868437 -0.9319581169605791 1.9162790834712993		187 67 0
1.2937993611435645 2.111288670288281 0.4723561832101313		227 27 0
-0.6520093123713508 -1.0639824964168823 1.8361822087961575		189 65 0
1.2880735535982586 2.1019450015852983 0.674407688888059		231 23 0
-0.6880674865276412 -1.122824088748609 1.6437339199850411		175 79 0
1.2702111073297435 2.072796138505775 0.8752256343433352		235 19 0
-0.67866308542027 -1.1074775009351092 1.3831670186244192		149 105 0
1.2584930417450706 2.053673993411541 1.0875271916896299		242 12 0
-0.6846469170005683 -1.117242226594914 1.1923109519562651		133 121 0
1.2406880813987577 2.0246189388311486 1.3054084560785182		250 4 0
1.227429369140385 2.002982686863168 1.5431054727069173		250 0 4
1.2078380626523937 1.9710125803176823 1.7931058592948563		243 0 11
1.145670529276618 1.869564386093787 1.9951824589738136		241 0 13
0.9924266271772216 1.6194930659106872 2.0226409961080205		253 0 1
0.8375630305016121 1.3667786444007608 2.0008658893456537		232 22 0
0.7109899184324979 1.160230097925635 2.002282811132039		214 40 0
0.5920545004406634 0.9661451354162917 1.9865739467282335		197 57 0
0.48723062428668723 0.795088116263046 1.9816662701208003		185 69 0
0.38843875577581705 0.6338744389589764 1.9674184935203232		175 79 0
0.29814172983904624 0.4865230848413446 1.9640447542877022		167 87 0
0.21078028935404566 0.34396217079589475 1.9479852911870768		160 94 0
0.33457579132338194 0.46050407020484 1.9592485909616235		167 87 0
-0.8096720713902815 -1.1144180005720385 0.7572850565088348		108 146 0
0.5423600045733405 0.7464945046814105 1.9608754626236875		182 72 0
-0.803792404981215 -1.1063253340281978 1.0607365483388937		128 126 0
0.782662602945651 1.077242656523305 1.95930919176044		208 46 0
-0.8092770605439387 -1.1138743147847423 1.4661690387333186		163 91 0
1.0782301297174122 1.4840564566503376 1.9534319084227167		246 8 0
-0.7552640475905188 -1.0395317802854793 1.890719941237646		197 57 0
1.2659239653189318 1.7423948585561586 1.6705953043476014		252 2 0
-0.5316093104225016 -0.7316974436196855 1.9220068657714338		177 77 0
1.2886494035300708 1.7736737408447547 1.2052718265268487		224 30 0
1.3062439623549378 1.7978905735099686 0.8000826185434019		207 47 0
1.317002151460383 1.8126979504917133 0.4274207216921793		197 57 0
1.323653839988207 1.8218532143220159 0.07076989012999649		193 61 0
0.49842923022920543 0.6530987780995873 -0.3104436961800767		21 233 0
-0.8740233694601938 -1.1452450217705827 0.9463371438061317		127 127 0
0.4765261398807392 0.6243988530638707 -0.35836979546675646		19 235 0
-0.8660829404641464 -1.134840566814118 0.8068594847617446		117 137 0
0.5214941706744762 0.6833210915357777 -0.46380611877690125		34 220 0
-0.8618694485438564 -1.1293195695335043 0.682175463891342		109 145 0
1.2452773087007933 1.5295841864121043 1.7947416641714562		245 9 0
0.2622558654565366 0.30706216628025496 1.9499414573450455		161 93 0
0.37003711822468593 0.43325779931890884 1.9611670531765781		167 87 0
0.48166962032655414 0.5639626659689386 1.9627461599115865		174 80 0
-1.021276801579161 -1.1957615000097737 1.032959403679842		147 107 0
0.5998098741511242 0.702287130899862 1.962683341918215		183 71 0
-1.0157218568885864 -1.1892574954290356 1.2131449703166801		159 95 0
0.7278665263702921 0.8522222065884995 1.964877510275659		194 60 0
-1.014111295469991 -1.1873717702908753 1.4208531097606434		176 78 0
0.8665931236469616 1.014650182818157 1.9634412047613956		208 46 0
-1.0060960226089504 -1.1779870915392523 1.649683062123553		194 60 0
1.0191508523411426 1.1932723332668538 1.9587528376066752		225 29 0
-0.9542316123302884 -1.1172616692677975 1.83398156817741		205 49 0
1.1860125402206922 1.3886422681214308 1.944689925316072		245 9 0
-0.8505445762983295 -0.9958597481182822 1.9270799894678179		203 51 0
1.2838485489666063 1.5031935165117674 1.7987771277268694		246 8 0
-0.7114711446295349 -0.8330256809910905 1.9206181362178345		188 66 0
1.2936000947351507 1.514611109643794 1.5450336505865503		227 27 0
-0.5868263786654241 -0.687085410843811 1.9201990624693097		177 77 0
1.2766755627680448 1.4947950287334502 1.291279725506701		206 48 0
-0.4685985838699195 -0.5486584486050508 1.909483247889178		167 87 0
1.3169292173884988 1.5419260027802528 1.1147742544294006		201 53 0
1.3270934204521172 1.5538267555271703 0.9226383187363323		192 62 0
1.33277646425888 1.560480744902517 0.7388259207053343		184 70 0
1.340030852879499 1.5689745426713806 0.5644654088428946		179 75 0
1.3429944713928401 1.572444494121849 0.3944732724965631		175 79 0
1.3447682529700882 1.5745213255119483 0.22859995912482778		172 82 0
1.3483805006423786 1.5787507241317407 0.06524704239207858		171 83 0
1.0741527703250053 1.2576713050736172 -0.07799816919351896		119 135 0
-1.0396892321464728 -1.188673549269346 1.0373458891932297		148 106 0
0.49212531538802423 0.5626453821396917 -0.3410496267570424		14 240 0
0.02109392664466603 0.02109392664466607 -0.156381240938352		0 255 0
-0.638925488806002 -0.6389254888060075 1.9201990624693097		177 77 0
0.035881444783022645 0.035881444783022715 -0.1409469539953446		0 255 0
-0.9292338194818923 -0.9292338194819004 1.933691034643893		204 50 0
0.26052447311111626 0.26052447311111665 -0.25038969192111393		0 255 0
-1.1950499604995952 -1.1950499604996054 1.7997266969792398		220 34 0
0.5113163252261997 0.5113163252262007 -0.3299215529703223		11 243 0
-1.2007789209596587 -1.200778920959669 1.3172262394736487		180 74 0
1.367140842552627 1.3671408425526295 0.06076045793917105		153 101 0
-1.2436579890876653 -1.2436579890876762 0.9940672071629862		164 90 0
1.356768952857805 1.3567689528578075 0.3660232466965204		156 98 0
-1.2400926969691968 -1.2400926969692074 0.9641354706924229		162 92 0
1.3122025276166378 1.3122025276166402 0.6681055702753911		158 96 0
1.2927041382927518 1.2927041382927538 1.0050393135005125		172 82 0
1.2571562418358397 1.2571562418358422 1.379070834738509		193 61 0
1.2497078166892746 1.2497078166892768 1.8820405802775468		234 20 0
-1.2561860210992346 -1.2561860210992453 0.3388884193797699		138 116 0
0.9649755365145338 0.9649755365145355 2.0080678344759595		215 39 0
-1.2493581148895259 -1.2493581148895367 0.1950630706191006		134 120 0
0.6596788201329292 0.6596788201329303 1.9825702278951052		185 69 0
-0.4916602131745521 -0.4916602131745564 0.021851076914049836		0 255 0
0.40426884663819324 0.40426884663819396 1.967881703577643		168 86 0
-0.10730028973558627 -0.10730028973558718 -0.27602408526307687		0 255 0
-0.033900880227197894 -0.033900880227198185 -0.13316704036525834		0 255 0
1.0275055090918455 0.9801915066074751 -0.2940782874686169		93 161 0
0.5900875062321136 0.5629154847793639 -0.2863911520706931		20 234 0
1.1908041966937668 1.0665732016000264 1.9954067181317152		231 23 0
0.30737020938563087 0.2625189591231293 1.9518976280745726		161 93 0
-0.028695146363546666 -0.02450797027565265 -0.1379418282035669		0 255 0
0.4332577993189082 0.37003711822468677 1.9611670531765781		167 87 0
-0.0391823977948211 -0.033464929166703315 -0.1431252536029751		0 255 0
0.5639626659689377 0.48166962032655514 1.9627461599115865		174 80 0
-0.045450729696910636 -0.038818590374352514 -0.13237956115415472		0 255 0
0.7032574758378757 0.6006386270209211 1.9653951669851442		183 71 0
-0.11503935665106396 -0.09825289258381777 -0.2751895992224672		0 255 0
0.853351438802208 0.7288309817934264 1.9674810601050856		195 59 0
-0.1374778294960749 -0.11741715885203824 -0.2752345494376813		0 255 0
1.015931369942554 0.8676873608243766 1.96592041940468		209 45 0
-0.5569950259444447 -0.4757186935583768 -0.034543677746563896		3 251 0
1.1918470635264904 1.0179335569843262 1.956413261744185		225 29 0
-0.5046426767756595 -0.4310055632946776 0.02085601078190608		0 255 0
1.3132165762905126 1.1215929136401894 1.839061869494318		227 27 0
-0.7442429457583758 -0.6356435252646688 0.10805436815788357		35 219 0
1.3362760621291976 1.1412875751117286 1.5990375094650142		209 45 0
-1.406817284777429 -1.2015354709045698 0.3529229935971787		147 107 0
1.3183006503198813 1.1259351230721395 1.3447800913155663		186 68 0
1.3379596269371203 1.1427254752969016 1.1557973545538818		175 79 0
0.04592224514855559 0.03922130261449977 -0.13375289462937912		0 255 0
0.03683640372367556 0.03146126094232586 -0.1345558189772009		0 255 0
-1.4653653106022997 -1.2515402089336085 1.0594227729786838		186 68 0
-1.4751095269379266 -1.2598625559008454 1.274274391085356		202 52 0
0.038024510712788964 0.03247600017399178 -0.2621382192618083		0 255 0
-1.459975945959095 -1.246937256684928 1.4893010827606046		215 39 0
0.011995149405221239 0.010244825426248064 -0.1428851284869497		0 255 0
-1.4531715573268882 -1.2411257597777727 1.7389189956384377		235 19 0
-1.329861741778847 -1.135809227990127 1.8623721822894055		231 23 0
-1.1761692635976002 -1.0045434508745077 1.9306782017398487		221 33 0
-1.001411406215728 -0.8552861402516705 1.9378229572885226		204 50 0
-0.8337784705459542 -0.7121140876485756 1.9223537625074332		188 66 0
-0.6867619773255733 -0.5865501403444766 1.9192951621263843		177 77 0
-0.5483899617843889 -0.4683692744620992 1.9085488394468617		167 87 0
0.9158975564902485 0.7637743720632115 -0.33128895936121616		66 188 0
1.0500865263616375 0.8756756381765037 -0.2831527217914779		86 168 0
0.022247259984212384 0.016163580510122195 -0.14415546499625903		0 255 0
-0.7292886767281239 -0.5298592388357404 1.9156795695043967		176 78 0
-1.0636119562967763 -0.7727593195445942 1.9345174179829754		204 50 0
-1.4702201716484875 -1.0681774802339774 1.9352195011416362		243 11 0
0.058685065889759865 0.042637196127707375 -0.1319474613165481		0 255 0
-1.7181186870987633 -1.2482862943379982 1.6473194906908408		247 7 0
0.8684738394727078 0.630983178837024 -0.29821035893519404		51 203 0
-1.6744985884936523 -1.2165944376255975 1.137878926543251		207 47 0
1.3055107715037388 0.9485090962665569 1.2517140726968399		167 87 0
-2.359294000113638 -1.7141274271504585 1.0499137986131712		232 0 22
1.2942393694166154 0.9403199433000133 1.7035797189695419		204 50 0
-1.6594717923542364 -1.205676831170645 0.3912911309484637		173 81 0
1.1045048977431908 0.8024697806006417 2.0088942685178974		215 39 0
-0.5705295658324837 -0.4145139930617375 0.022162221617236744		0 254 0
0.7550977145638147 0.5486106024302652 1.9834741864621293		186 68 0
-0.05959050536076295 -0.04329503640992611 -0.13398325079319454		0 255 0
0.4620822860473538 0.33572243225134124 1.965963226869845		168 86 0
-0.048606627992962066 -0.03531478237982312 -0.1330648783887752		0 255 0
1.0741666457749748 0.7424022555905162 -0.27040877944078023		78 176 0
0.906791235379607 0.6267219906179802 -0.30621104146415407		55 199 0
0.013730957791358443 0.008414341756460606 -0.14586863833921745		0 255 0
0.024303775528707817 0.014893372798768161 -0.14942394032325307		0 255 0
-0.041519040472432454 -0.025442900724320563 -0.1352546785918361		0 255 0
0.03200934636748506 0.019615352681838942 -0.1372284215616191		0 255 0
-0.05392050487027026 -0.03304252788140494 -0.14005988185680343		0 255 0
-0.6760966964037044 -0.41431258841499796 -0.03739433369992904		11 243 0
0.050700941841470906 0.03106957711989027 -0.13169698506032312		0 255 0
-0.6807441172313228 -0.41716053156098043 0.025090591119130413		11 243 0
0.06344519512438027 0.03887926557591204 -0.13535180059351637		0 255 0
-1.617365528493039 -0.9911228705709005 0.20941872569980322		150 104 0
0.07378035127491862 0.04521265741051123 -0.13173183129232413		0 255 0
-2.0694427845365295 -1.2681561693744918 0.4629940513733499		220 34 0
0.20383754843492224 0.12491181033343209 -0.2627304578598862		0 255 0
-2.0707154133196233 -1.2689360372957812 0.664387695771545		226 28 0
0.31552180187416057 0.19335200886381734 -0.2514875607468674		0 255 0
-2.0735978175292162 -1.2707023768671577 0.8755641384628684		235 19 0
-2.08007814401844 -1.274673526047158 1.1015095627234943		246 8 0
1.3479197772538591 0.8260063018505676 1.0384425180967196		148 106 0
-2.0709153123177844 -1.2690585355594026 1.335258852257328		253 0 1
1.3281262931191602 0.8138768391727886 1.208247507832592		158 96 0
-2.083466165924253 -1.2767497085412758 1.6051102507892288		243 0 11
1.3175356518019117 0.8073868858266716 1.4060623111462804		173 81 0
-2.0471032291867806 -1.2544664722494698 1.862328445536669		236 0 18
1.3185396246706182 0.8080021211918861 1.6467698170427085		194 60 0
-1.809686124484703 -1.1089770833701345 1.931280911573303		247 0 7
1.2948624748874615 0.7934927451438604 1.8955857760946555		215 39 0
-1.5576623091987982 -0.9545366907328982 1.9454184219715187		245 9 0
1.162624491329962 0.7124572045977892 2.006414967990532		215 39 0
-1.3236282477304022 -0.8111204334134746 1.9376968040199896		222 32 0
0.967411363742695 0.5928304461570507 1.9891775474830624		198 56 0
-1.1214420442181539 -0.687220568550147 1.9353438019177414		204 50 0
0.7965388691760885 0.4881196468151979 1.9852821059700012		186 68 0
-0.9328022132650992 -0.5716219314675307 1.918014702340173		188 66 0
0.6347776584662544 0.3889922494017418 1.9702219048161735		175 79 0
-0.7693381268270171 -0.47145101046569915 1.9174873640629733		176 78 0
0.4872359364952038 0.2985785658943592 1.9669224647087917		168 86 0
-0.6143053628334186 -0.37644681050290907 1.9066800256089873		166 88 0
0.3446529849898187 0.21120362083654137 1.9518976280745726		161 93 0
1.0793676342695078 0.6440707358411126 -0.2602967485861708		72 182 0
0.7204528314806536 0.4299022599696515 -0.29462478593033387		23 231 0
0.02526808409298816 0.012874731905342834 -0.1486632611126072		0 255 0
-0.802819187763464 -0.40905680750793516 1.9147756735425243		176 78 0
-1.1689013337170928 -0.5955849774768447 1.9303855072597045		203 51 0
-1.6228763217782831 -0.8268967873279529 1.9395904586582455		244 10 0
0.0639734470113156 0.032596099344148644 -0.1306020382116481		0 255 0
-2.2321049267542863 -1.1373142661232176 1.9431934685027759		228 0 26
0.5688284667627881 0.2898325802125368 -0.3004134664885035		0 254 0
-2.5496168396681047 -1.2990946662704685 1.5731239680802171		222 0 32
-2.701462900267044 -1.3764640985511019 1.091559335941329		225 0 29
0.8953401305115091 0.4561985824492778 -0.2919398980387966		42 212 0
-1.7935533771217145 -0.9138610906702012 0.3839911331975814		168 86 0
-0.6451171961652394 -0.32870362935268244 0.022753620860740717		2 252 0
1.346401002861434 0.6860255761827228 1.1721302181570472		151 103 0
1.338261161843153 0.68187812002907 1.5994309275888827		186 68 0
1.2129375480106246 0.6180225493587846 2.003109241431939		214 40 0
0.8323808317699425 0.42411921745812703 1.9852821059700012		186 68 0
0.5091601549935505 0.2594300568377422 1.9669224647087917		168 86 0
-1.1361134574357963 -0.5455539115422038 -0.02970086588439015		69 185 0
-0.6541807646868552 -0.3141331287775476 0.03136725232069377		2 252 0
-0.7655612098107762 -0.3676172567129839 0.09375812818033692		18 236 0
0.37344926026587916 0.15468774846032712 1.9518976280745726		161 93 0
-0.6419886807957149 -0.2659204184755998 -0.03276987592194561		0 255 0
0.5248556009341309 0.21740230819439818 1.955411679048639		166 88 0
-0.7192901249887983 -0.29793972505140215 0.02446704579417225		9 245 0
0.6829208915398831 0.2828750953037454 1.9562049320956298		173 81 0
-2.747132408717585 -1.1378995013255044 0.32827466222156954		239 0 15
0.8536591801703296 0.35359721007084843 1.9635872827916339		183 71 0
-2.433700314388897 -1.0080716769715574 0.5025040037961236		247 7 0
1.0368066059638315 0.42945935774823707 1.9674810601050856		195 59 0
-2.4334112675814636 -1.007951949863758 0.7205549733180818		253 1 0
1.2338194163523184 0.5110647357723873 1.9650940139550375		209 45 0
-2.4727160748318306 -1.0242325340933205 0.9635807850787798		248 0 6
1.3782310381549872 0.570881988087347 1.8620539630052788		210 44 0
-2.729364225949474 -1.1305396790442293 1.3338916583492808		223 0 31
1.4065905370998792 0.5826288771724268 1.6212793258491487		190 64 0
-2.4502784235840496 -1.0149385546386918 1.4580385376341691		237 0 17
1.4221568934126185 0.5890766730738954 1.4006839200044952		172 82 0
-2.6920866395770044 -1.1150987971962176 1.914070321984681		208 0 46
1.407011867083938 0.5828033977660584 1.18131232340872		153 101 0
-2.3319689608952934 -0.9659331706359348 1.9578965435604951		226 0 28
1.419668947933077 0.5880461323138246 1.0093828929327768		141 113 0
-1.9704494136256503 -0.8161868710938657 1.940697838355146		246 0 8
1.1053223528287555 0.45783950933581036 -0.24776093321637335		64 190 0
-1.6852792214537393 -0.6980655099117171 1.9425044374744609		245 9 0
-1.4301788686086105 -0.5923994839971017 1.932237887824727		221 33 0
-1.2141024942456642 -0.5028977192275622 1.933691034643893		204 50 0
0.5848462959421075 0.24225126768289001 -0.29788275114351564		0 255 0
-1.0098246193573213 -0.4182830529560553 1.9162790834712993		187 67 0
0.5574765293390961 0.2309143391569365 -0.34417798768624264		0 255 0
-0.8328315553394755 -0.3449701253938933 1.9156795695043967		176 78 0
0.08402445561577768 0.03480406908707132 -0.13845420771307232		0 255 0
-0.664979089049431 -0.27544335737878345 1.9048112158434212		166 88 0
0.05637201699186348 0.023350053976356446 -0.1351368590709814		0 255 0
0.046402608794946114 0.019220589892359762 -0.13950758696649052		0 255 0
0.03540957663212891 0.014667126878917233 -0.14010009732991313		0 255 0
-2.748357901751715 -1.100656018223698 0.32684885410057796		240 0 14
-0.7426851872767668 -0.2974288466945142 0.03458025091934448		12 242 0
-0.6989668125496351 -0.27992061306173044 -0.017743881687735052		6 248 0
0.04489119925529624 0.014586034825561747 -0.1311069327590604		0 255 0
-1.428308638662404 -0.46408560900103035 -0.7066993563323041		119 135 0
-1.6690651710597257 -0.5423121483736572 -0.5098627153280733		140 114 0
0.07076838363152786 0.022994041712449842 -0.13535180059351637		0 255 0
-0.6533470698686823 -0.21228533147639447 -0.03239667164948565		0 255 0
0.6111520413382447 0.19857533562374335 -0.43671274134150695		9 245 0
-0.73195957216872 -0.2378280818438317 0.024186529248080707		8 246 0
0.5918231011092163 0.19229498223602343 -0.2928225688028808		0 255 0
-0.7344661429756092 -0.23864251606899245 0.03338014899296393		8 246 0
0.7088849743681284 0.23033069053576413 -0.28165025494825324		11 243 0
-2.4278022192433215 -0.7888407595901262 0.48696164145287196		236 18 0
0.8366172870286075 0.2718334347645337 -0.25556818813969934		26 228 0
-2.4837465950519735 -0.8070181891838132 0.9402215132053767		253 0 1
1.3831067880869543 0.44939863744288455 1.1280587207287869		142 112 0
-2.496533396572583 -0.8111728728496803 1.4431117663405544		239 0 15
1.3790240014066792 0.44807205963494584 1.544084270018579		176 78 0
-2.399815379399819 -0.7797472840896562 1.9572839134246491		226 0 28
1.2823988760096634 0.4166766532424808 1.9841014816414497		211 43 0
-1.734203036513308 -0.5634767238300953 1.941775942236829		244 10 0
0.8892888108333392 0.2889474502792914 1.9870900286357744		186 68 0
-1.2487484780731986 -0.4057429761668531 1.932038269755838		204 50 0
0.5437403955951409 0.1766719641663337 1.967881703577643		168 86 0
-0.8569257342136006 -0.278432049254847 1.9147756735425243		176 78 0
1.1181752317588536 0.33440530290629394 -0.24169659589903833		61 193 0
0.8217504377329371 0.24575549183933768 -0.23826761491342333		23 231 0
0.7238635370634786 0.21648110108267676 -0.26532718025860424		12 242 0
0.039430267438587685 0.00946636967685325 -0.14822834362854698		0 255 0
-0.6995376013229698 -0.1679441192555024 1.9038768124915009		166 88 0
0.04734924270163885 0.011367547431192709 -0.1352546785918361		0 255 0
-0.8744752932230534 -0.20994294324321486 1.911160098506881		176 78 0
-1.0604193296777196 -0.25458415677359975 1.9119400493649719		187 67 0
1.3919173948334944 0.33416980089365367 1.3025365676750245		154 100 0
-1.273456689994411 -0.30572990187613547 1.9270799894678179		203 51 0
1.3972943452414093 0.33546069247522114 1.5302482271057942		174 80 0
-1.5015976367893131 -0.36050169727801923 1.9275588352754418		220 34 0
1.3794967597242167 0.3311878702296313 1.7708213587268338		195 59 0
-1.7684105453512506 -0.4245578092721268 1.9366764855485143		244 10 0
1.3056766084129077 0.3134652199077058 1.9758373288688467		210 44 0
-2.0681193060954235 -0.49651151663702836 1.9353167310810346		246 0 8
1.1056642966487973 0.26544651229863286 1.9935168953948221		198 56 0
-2.4466840436262935 -0.587396869054931 1.9517702500266139		227 0 27
0.9083907481664852 0.21808532357966823 1.9852821059700012		186 68 0
-2.759454296686434 -0.6624863632867848 1.864128698067231		214 0 40
0.7232279427318626 0.17363166702313101 1.9683529630273648		175 79 0
-2.620614743669147 -0.6291539356871558 1.4816327785498173		234 0 20
0.5553837791110755 0.13333584850221245 1.965963226869845		168 86 0
-2.526276979730558 -0.6065054423863863 1.1730698061237188		248 0 6
0.39304997534715697 0.09436295033781575 1.9518976280745726		161 93 0
-2.617127960194405 -0.6283168330373589 0.9689975218185944		247 0 7
-2.634243110086068 -0.6324258169848195 0.7411247013662153		250 0 4
-1.0822518821076326 -0.2598256888685249 0.21231692131924607		53 201 0
-1.80780036280654 -0.43401446776718505 0.20525420825237492		145 109 0
-2.595652131254003 -0.6231609426751302 0.08388952879107422		245 9 0
-0.6641418311632925 -0.1594463466788819 -0.03221010136318343		0 255 0
-1.6811569413455145 -0.4036100722971614 -0.3580436399464091		132 122 0
-1.683157980392394 -0.40409047926840713 -0.5028977009353154		137 117 0
-1.6804778817307928 -0.4034470445075176 -0.6530433150195594		143 111 0
-1.4559256307085244 -0.3495368187334438 -0.7045740345738614		118 136 0
-1.2214969815786152 -0.29325547955750625 -0.716527283293406		92 162 0
0.8793811034395266 0.20019403295947877 -0.18677051180767182		27 227 0
0.8036320283406568 0.1829495040769725 -0.22895641939694852		18 236 0
0.743086169169372 0.1691660378652384 -0.2676299624895619		12 242 0
0.049735436073470536 0.007877319206793394 -0.2639722224793662		0 255 0
-1.4690479495165343 -0.23267433729408973 -0.69989840318865		117 137 0
0.08555055037711713 0.01354987604093576 -0.24058783050987356		0 255 0
-1.811024359889968 -0.28683807965528135 -0.5327097558190594		150 104 0
0.7951364136575793 0.12593723585881483 -0.22363786866272045		16 238 0
-1.841676596295355 -0.2916929169630441 -0.2355579691955774		147 107 0
1.415337467822682 0.22416743271144218 1.1115330918550461		138 116 0
-2.373149836396748 -0.37587000864397324 0.07550887770366646		212 42 0
1.4159298450803923 0.22426125605186556 1.5266072064695149		173 81 0
-2.7074726151333075 -0.42882153484190827 0.5229159870945228		252 0 2
1.3245816982796936 0.20979313094615337 1.9733580939075124		210 44 0
-2.740090842772265 -0.433987754570883 0.9987901692738583		242 0 12
0.9214408580405896 0.14594189459291948 1.9825702278951052		185 69 0
-2.760521789113856 -0.43722369857249666 1.5365268918031398		227 0 27
0.5644083796589875 0.08939350532676724 1.9669224647087917		168 86 0
-2.489128724125942 -0.39423925986642433 1.9548333946173346		227 0 27
-1.8003236194479735 -0.2851432488693179 1.9410474473546488		244 10 0
-1.2940730316266953 -0.20496103285327522 1.927906368013813		203 51 0
-0.8890917173450734 -0.1408182940488838 1.912967884259835		176 78 0
1.2105459534983507 0.16259664893052983 -0.057600557508851874		64 190 0
1.1834277826401203 0.15895422321845232 -0.13657319721125982		62 192 0
0.8659743537147282 0.11631489706515134 -0.15957525945171533		23 231 0
0.030936456490070666 0.0024347519288741093 -0.2810854098719513		0 255 0
-0.7168453883009458 -0.05641695558864328 1.902942410162161		166 88 0
0.05317838512376963 0.004185229675417573 -0.2796328721881461		0 255 0
-0.896127335371198 -0.07052675082591364 1.9102562069571865		176 78 0
0.07587799512764343 0.005971727726975628 -0.2782208984303016		0 255 0
-1.0852157025647349 -0.08540832806472584 1.9084688355862969		186 68 0
0.09899956173392337 0.007791434483348961 -0.275832159700755		0 255 0
-1.3033655225543397 -0.10257709124139174 1.9237744813176796		202 52 0
0.12376375278058833 0.009740418586852432 -0.27495391930906954		0 255 0
-0.9555477548797056 -0.07520323926146825 1.196406687104739		103 151 0
1.4811462867013545 0.11656874082034241 0.9759397553406403		134 120 0
-1.123837411505728 -0.08844792247886574 1.2004659251762535		117 137 0
1.4623879649087559 0.11509242887809945 1.137851999561		144 110 0
-2.1195918991731215 -0.16681550023656655 1.9346440938427156		246 0 8
1.4587241701777065 0.11480408197931083 1.3314412559704798		159 95 0
-2.5045136147900426 -0.1971094962494799 1.948707109808857		227 0 27
1.434614118836369 0.11290657978711838 1.5324328482110148		174 80 0
-2.8132915137879 -0.22141084393033206 1.8537014583365479		215 0 39
1.4168130951593587 0.11150560884051225 1.773940290027278		196 58 0
-2.719953009823099 -0.21406494435584544 1.499930606378905		231 0 23
1.3397581235286449 0.10544125105385249 1.9774901549730153		210 44 0
-0.5260883203071739 -0.04140404874867298 0.2382724994278482		0 255 0
1.1320962221987663 0.0890979049767455 1.990913284654064		198 56 0
-2.744132323269939 -0.21596789759395926 0.9910033600316269		243 0 11
0.9300508324691592 0.07319658794898018 1.9825702278951052		185 69 0
-2.716120805664199 -0.21376334334763958 0.745344217176805		249 0 5
0.7414857835736757 0.05835619675343798 1.9683529630273648		175 79 0
