0.2746493787680588 0.04350018814166063 0.5153595369971915
-0.19681059359443323 -0.03117173571639486 0.567420402471954
0.20133717434906262 0.03188867567579991 0.5804708903888107
-0.10233690910685825 -0.016208574073433093 0.5673283345303324
0.10391291776356139 0.016458189322471256 0.5760653031784584
-0.012656990993292802 -0.004112505668763383 0.5647193000740458
0.01274537672260082 0.00414122393308142 0.568662822449767
-0.0983728137099003 -0.03196326474819751 0.5663577837634386
0.0998903012431687 0.03245632633654392 0.5750943527789896
-0.18857750899609543 -0.061272546939370294 0.5646248295039727
0.19293568241938788 0.06268860332419607 0.5776737500203959
-0.2890073058468193 -0.0939041660248404 0.5631889423367101
0.26401731153208907 0.08578442466323509 0.5144909053584579
0.2771212529728683 0.09004215333562687 0.38180259529425803
-0.31114487184201156 -0.10109709724333431 0.4286784875117833
-0.31298682398897293 -0.10169558377540056 0.3139398927340648
0.28544116678683645 0.09274545720474538 0.2863103569053207
0.2933707453168578 0.0953219334519749 0.2131955318368765
-0.3146257471621459 -0.102228102194977 0.22864175984337326
0.2982995253965896 0.09692339117828015 0.15061291243008174
-0.3165005456953603 -0.1028372611648869 0.1598026980080251
0.3030236705570394 0.09845835898877364 0.09528696987194324
-0.3170348537378796 -0.10301086837175709 0.09969284082970965
0.30624373324770027 0.09950462078007409 0.04325050623894545
-0.31708796212753126 -0.10302812433359013 0.0447820261947982
0.30890808927668045 0.10037032253166665 -0.007654458460248955
-0.3152848679669607 -0.1024422635266582 -0.0078124691737568
0.3084469116728174 0.10022047684471005 -0.0592313996164205
-0.31293348900917745 -0.1016782541899668 -0.06009296199575735
0.3096255337374918 0.10060343436793748 -0.11432837727856274
-0.30876223661255786 -0.10032293212834638 -0.1140096071880876
0.30898988631612456 0.10039690000087559 -0.17530177587395568
-0.3041361608060892 -0.09881982898255814 -0.17254807182345042
-0.29815572950946645 -0.0968766690623177 -0.23925524435645723
0.30697430111572216 0.09974199666982929 -0.2463317124424497
0.2410775165896975 0.07833083345890805 -0.2657196107263763
-0.24742920225622003 -0.08039462123624241 -0.272720543317022
-0.08718578029453151 -0.028328377249128463 -0.13263914488892314
0.08500373120314522 0.0276193865211896 -0.12931950807877585
0.06340503491435988 0.020601544684010663 -0.138835794750999
-0.06537910104755956 -0.02124295765235382 -0.1431583385499891
0.03942893290733497 0.012811236903038939 -0.13862622933198138
-0.039844833762794414 -0.01294637128265798 -0.14008847451887985
-0.01919948563759764 -0.006238291041196355 -0.15029791574116064
0.01919948563759766 0.006238291041196288 -0.15029791574116064
-0.021151941737436727 -0.006872682484064164 -0.2567905013745822
0.021457921161498212 0.006972101225583661 -0.2605051773457241
0.010949910460552038 0.005579258049336532 -0.14189422588859918
-0.011300566028407358 -0.005757925985165786 -0.14643819001813346
0.017072298394265644 0.008698770513241229 -0.14265296358328883
-0.018080450350435935 -0.00921244959186766 -0.15107689461874282
0.03851490723575451 0.01962432542153407 -0.14453887979492216
-0.038315555570579904 -0.019522750674728678 -0.1437907521623355
0.05788597624295944 0.029494378064617775 -0.13529336797116456
-0.05879246186128111 -0.029956255556753606 -0.1374120416168404
0.07882680657263276 0.04016426405113115 -0.12800455639855854
-0.0883927385757552 -0.04503834985485564 -0.14353839489638245
0.22407272016196914 0.11417075345996683 -0.2636218032212043
-0.23180644862602107 -0.11811128493188175 -0.272720543317022
-0.2800180244143677 -0.142676309756274 -0.23984448427555372
0.28897015417173544 0.14723764769482808 -0.24751227262351488
0.2902385377865194 0.1478839214262823 -0.17576102232044583
-0.2849329128992886 -0.14518057052076833 -0.17254807182345042
0.2892668968995358 0.14738884566659477 -0.1140096071880876
-0.28845829095022074 -0.14697684035680736 -0.11369090896288654
0.28897148167054093 0.14723832408925366 -0.0592313996164205
-0.29233369531023523 -0.14895145750531644 -0.05992056319248435
0.28769867700114776 0.14658979771796252 -0.007609366385981035
-0.2945235749383502 -0.1500672569071704 -0.007789878682709099
0.2852172537843181 0.14532544943802148 0.04299571943076304
-0.29537154562735385 -0.1504993195536431 0.0445264511004236
0.2814350799179802 0.14339833559870957 0.09446276059421459
-0.29537372677325685 -0.15050043090298973 0.09914122164917996
0.274055668845558 0.13963833785502947 0.14769774871235672
-0.2949634336673942 -0.15029137612380059 0.15896564113655218
0.26634147739578123 0.13570776098909587 0.20659772754306613
-0.2933350391231282 -0.1494616676616792 0.22753629319829966
-0.29196329230692825 -0.14876272774856233 0.31258932607833284
0.2573820259318449 0.13114269245471016 0.2755650321483995
0.24850148407552383 0.12661783037361407 0.3654462168961951
-0.2893702091693723 -0.1474414858973227 0.4255477532330107
-0.2715963483994539 -0.13838525149927855 0.5649300361138218
0.2356622210992135 0.12007589913443238 0.49018577702096083
-0.17667066883180535 -0.09001820194900785 0.5646248295039727
0.18250421278855108 0.0929905410557135 0.5832683529805102
-0.09200359781381158 -0.046878174531187436 0.5653872785462527
0.09405721754505796 0.047924546047840993 0.578007333615924
-0.010766679619748991 -0.0078224506291563 0.5647193000740458
0.010879463217577956 0.007904392709440438 0.5706348726252123
-0.08353751869865708 -0.06069356001861797 0.5653872785462527
0.08540216639478425 0.06204830586960111 0.578007333615924
-0.15988417191394244 -0.1161626504504005 0.5627613083819206
0.1643857792531545 0.11943325962671826 0.5786060940521368
-0.2454643049689786 -0.17834025666724218 0.5623184398878971
0.22307000335804988 0.16206984416192216 0.5110167699940678
-0.2690264564385887 -0.19545916176121808 0.4357252366109843
0.23669614437325207 0.1719698151020647 0.38336186290839924
-0.2708261574933909 -0.196766721115228 0.31934471951001014
0.24452153485721587 0.17765529408691286 0.2883276182989827
-0.27216847525732873 -0.1977419720568259 0.23251329760505815
0.2521340608765622 0.18318611798551532 0.21539791438937128
0.2565586368704077 0.18640076061343566 0.15228073512408238
-0.27346524253699633 -0.19868412863443025 0.1623156743908577
0.2614870754714812 0.18998148085377883 0.09666202094916661
-0.27416648334485505 -0.19919360990371246 0.10134912522485319
0.26357820807022087 0.19150077761846157 0.043760489051379386
-0.2743536881142058 -0.1993296221300912 0.045549484734825896
0.26587136907741016 0.19316685661374816 -0.007744715028152463
-0.27207782345604536 -0.19767610966795324 -0.007925506290726395
0.2669609978463931 0.19395851825415242 -0.06026540322201235
-0.27001833501837813 -0.19617980373205265 -0.060955585154735654
0.26779279738974376 0.1945628559971721 -0.1162424738742227
-0.26705746811990355 -0.19402860801054755 -0.11592328495550855
0.26904411238904885 0.19547198956009826 -0.1794379193097314
-0.2635310776267539 -0.19146653534692049 -0.17576102232044583
0.26801510821737895 0.19472437426788514 -0.2528286372885937
-0.25925136761200873 -0.18835714401367765 -0.24456147425609343
0.2045330130231155 0.14860193234236796 -0.26502021109304175
-0.2110166764310171 -0.1533125895454818 -0.2734213088895342
0.15076557594484552 0.10953760268315245 -0.2696354107094372
-0.15429442078095346 -0.11210145853131782 -0.27594654321266887
0.05393554420348953 0.039186466634948236 -0.138835794750999
-0.05228682124911607 -0.03798859929169756 -0.13459180750520375
0.03497080396676494 0.025407776320393344 -0.14453887979492216
-0.03389404004897365 -0.024625461541496488 -0.14008847451887985
0.015830056162836472 0.01150120902301407 -0.14567817788842083
-0.01607977018903086 -0.011682636882883827 -0.14797620412123916
0.010100588476113928 0.00733850708577764 -0.14415312839542604
-0.01015375933247117 -0.007377137974171696 -0.14491196985317772
0.008644154172348983 0.008644154172348997 -0.14114728901856147
-0.008874711073373322 -0.008874711073373398 -0.14491196985317772
-0.014948761708702499 -0.01494876170870263 -0.15739462839230842
0.018616056572744743 0.018616056572744774 -0.19600735923776116
-0.030883572296800266 -0.03088357229680053 -0.14604249355710347
0.029624477269423247 0.0296244772694233 -0.14008847451887985
0.045700357506709796 0.04570035750670987 -0.13459180750520375
-0.07210415125812561 -0.07210415125812622 -0.21235343826434883
0.13138884970780032 0.13138884970780054 -0.268847429492867
-0.13447239019823626 -0.13447239019823742 -0.2751569598406449
-0.18443533805257248 -0.18443533805257403 -0.2734213088895342
0.17735360552273105 0.17735360552273136 -0.26292279706441385
-0.2413785402611746 -0.2413785402611767 -0.26051833064636354
0.2391851366095828 0.2391851366095832 -0.258151003968821
0.24722730907521118 0.24722730907521162 -0.18865130610430386
-0.24420527579438958 -0.2442052757943917 -0.18634528850596455
-0.2475861135077099 -0.24758611350771198 -0.12296028950963722
0.2462955328787469 0.2462955328787473 -0.12231934012227193
-0.25074468955793994 -0.25074468955794216 -0.0647626537209803
0.2453767070344824 0.24537670703448283 -0.06337620444478664
-0.25209265319454544 -0.25209265319454766 -0.008401690941006349
0.24391998099426573 0.24391998099426615 -0.008129313840290439
0.24181615239763507 0.2418161523976355 0.04593361382699199
-0.2533001616043055 -0.25330016160430774 0.048115031564618764
0.23897726085300558 0.238977260853006 0.10107293203617311
-0.25271794801018904 -0.2527179480101912 0.10688441189919934
-0.2526174166831833 -0.2526174166831855 0.17155139631209282
0.2303892493670915 0.23038924936709188 0.15645634391783578
-0.25205912205384 -0.2520591220538422 0.24636841919956728
0.22544853250452188 0.22544853250452226 0.22035861313575872
0.21721077886715262 0.21721077886715298 0.2930374636251305
-0.25025265175516637 -0.25025265175516853 0.3376140112303009
-0.24824986638805277 -0.24824986638805493 0.4600228338643929
0.20898423850988007 0.20898423850988046 0.38726112134952434
-0.2145436694032718 -0.21454366940327363 0.5623184398878971
0.1972901153159967 0.19729011531599702 0.5170969162518777
0.1450677345540965 0.14506773455409677 0.584200911316205
-0.13974389036424578 -0.139743890364247 0.5627613083819206
-0.07276382308867979 -0.07276382308868042 0.5634464057024754
0.07502046445613113 0.07502046445613125 0.5809207001179876
-0.007808795971298132 -0.010747885595542982 0.5637335413656914
0.007918052045841398 0.010898263681245912 0.5716209690875007
-0.06038104234072419 -0.08310737501697794 0.5624760385506525
0.06215254995222112 0.08554564606541884 0.5789784132190827
-0.1159703327837144 -0.15961946935453133 0.5618296066575813
0.11924080937783708 0.1641208942100049 0.5776737500203959
0.1841398847911515 0.2534468082641863 0.5806050449400162
-0.1780641847784777 -0.24508432461253724 0.5614479672493192
0.195107855433443 0.26854292476049496 0.43494209075374834
-0.23031902539452018 -0.3170069424935614 0.5134362131289556
-0.23227965494457384 -0.3197055175589969 0.3769808270206373
0.2017665774265387 0.2777078693252357 0.3274592914369943
0.2085811844732786 0.28708737125948397 0.2452584978080136
-0.23318518751346812 -0.32095187621522087 0.2741889156735522
-0.233738829018558 -0.321713898373249 0.19095373105158273
0.21307899106760425 0.29327807093768976 0.17407560619650075
-0.2330377029925111 -0.3207488811870262 0.11856890064955967
0.2155271366719985 0.29664765428625905 0.1096595757990602
-0.23256960859439466 -0.3201046045203849 0.05314526623414359
0.21900614621168363 0.30143610011782845 0.050045833665363006
-0.23173851868322268 -0.3189607073923618 -0.009291183900333866
0.22148053059041362 0.3048417980410087 -0.008879906334742725
-0.2291543865370714 -0.3154039546262908 -0.07120121162533123
0.22354138519581207 0.30767832106059884 -0.06945718000371666
-0.2273362273401848 -0.3129014731791577 -0.1358230754365574
0.22463810400219003 0.3091878249975382 -0.13421106922900583
-0.22364566331795477 -0.3078218475826188 -0.2053005782502694
0.22566576656688783 0.31060228117193334 -0.20715497756648324
-0.21068919344991968 -0.2899887967031256 -0.2735572363329028
0.19882357178184543 0.27365716956403524 -0.258151003968821
-0.15409865384040347 -0.212098601114879 -0.2748231945991585
0.1478178181380179 0.2034537724086642 -0.2636218032212043
0.10921749052431014 0.1503249793568925 -0.268847429492867
-0.11210145853131652 -0.15429442078095443 -0.27594654321266887
0.07732388605092579 0.10642719878106764 -0.27395486490587934
-0.07877705497931656 -0.1084273142214959 -0.2791033735724073
0.024368420676872185 0.03354025365008287 -0.13862622933198138
-0.024754699792105466 -0.03407192124054578 -0.14082368061224923
0.011321741007532759 0.015583039631025213 -0.1434049757031333
-0.011865934690550733 -0.016332057977565883 -0.15029791574116064
0.007185486656659207 0.009889973924012613 -0.14114728901856147
-0.00733850708577759 -0.010100588476113965 -0.14415312839542604
0.005697915254728577 0.011182788338408396 -0.14491196985317772
-0.005757925985165685 -0.011300566028407412 -0.14643819001813346
0.009023373989140085 0.017709368586188306 -0.14797620412123916
-0.009023373989140018 -0.01770936858618834 -0.14797620412123916
-0.03780390974573262 -0.0741943504161443 -0.27843682007640963
0.03364936239460417 0.06604059213920031 -0.24783736723976948
0.059536166834117304 0.11684630648614631 -0.2730977581366162
-0.06065819516914764 -0.11904841108395246 -0.27824460314120714
0.0838625377467742 0.16458949760014177 -0.2672720936469123
-0.08658433838152961 -0.16993133211980502 -0.27594654321266887
-0.11871831892150582 -0.23299781991126123 -0.27412219295243345
0.11296018415268025 0.2216968441218474 -0.2608265824309437
-0.16202515160932132 -0.31799226470452285 -0.27237064789375737
0.15215872123210802 0.2986283047943658 -0.25578479065154175
-0.20326987236884228 -0.39893958696378606 -0.24158759268703828
0.2028772242831364 0.3981689717058094 -0.24112092783063938
-0.20572942666697489 -0.40376673406816155 -0.15913776253048284
0.20069120836288168 0.39387867389551595 -0.15524055248599258
-0.20793311886174856 -0.4080917235205241 -0.0836478527786227
0.198756600117655 0.3900817914293972 -0.0799562999700646
0.196667918762435 0.38598252345898965 -0.010208884066482
-0.20953601580397585 -0.4112375858985815 -0.010876857326584648
-0.21125421904256603 -0.4146097496252316 0.06250128360616539
0.19365415850414291 0.3800676859149917 0.0572941621570259
0.18974852436913633 0.3724024473309683 0.12499565881117926
-0.2114642248272472 -0.4150219091844637 0.13930074125823674
-0.2118317280105488 -0.4157431747928181 0.22405787560640028
0.18493484262942106 0.36295506497844465 0.1956086010075331
-0.2113331006139788 -0.4147645634259772 0.32172764492803635
0.18047267804019024 0.35419757387832723 0.27474659440966476
0.1735852777408442 0.3406802896952113 0.36474798363366023
-0.20989186194303638 -0.41193597326944514 0.4410375950150285
-0.18634410611515861 -0.3657209003005815 0.5378290594598573
0.16700048509681567 0.3277569064754679 0.48199922016021934
-0.13795875319890805 -0.27075929835457274 0.5631889423367101
0.14051816984817514 0.2757824363583865 0.5736372475168885
-0.08957255924693097 -0.17579604578301147 0.5618296066575813
0.09358528607829615 0.18367146561796951 0.5869987963764411
-0.046556341188941475 -0.09137196431529987 0.5615057178981016
0.04800506154730094 0.09421523811015446 0.5789784132190827
-0.004098148670619611 -0.012612804696462851 0.5627478319239999
0.004177129614730088 0.012855883047902065 0.5735933035341683
-0.031634672128679785 -0.09736150961437631 0.5605354439863018
0.03273033597110655 0.10073361618449014 0.5799495354577107
-0.06096921202720758 -0.1876439401306875 0.5618296066575813
0.06329572429119586 0.19480420862459827 0.5832683529805102
-0.08824743568232414 -0.27159767999742584 0.5292627800209554
0.09448479347748523 0.29079429339906154 0.5666712474866337
-0.1272098719358701 -0.3915117286232066 0.539403573247831
0.1346405800793341 0.4143810967458951 0.5709117452422657
-0.17944067335334934 -0.5522616062792551 0.5539432849817331
0.1486194465067557 0.45740362381794264 0.45879645273066305
-0.18332411779264043 -0.5642136192975963 0.4100198283432856
0.15513990977192277 0.4774715462639034 0.34698347353197806
-0.1837779352045659 -0.5656103256751629 0.2855794635851509
0.15845351309526973 0.4876697686608976 0.246226889112448
-0.18448460945010617 -0.5677852453668079 0.17854227516136198
0.16140202361301612 0.49674435094055375 0.15620319005152036
-0.1841862362519354 -0.5668669470868635 0.08005807064728374
0.16515612720860243 0.5082982937735402 0.07178647638910635
0.1675056871129631 0.5155294956107981 -0.012774346953574062
-0.18487333222319258 -0.5689816110460612 -0.0140988412333117
0.16961815909057776 0.5220310158390469 -0.10024618999631066
-0.18341691535566934 -0.5644992208296205 -0.10840140609864249
0.171312047491352 0.5272442682839219 -0.19468349685084416
-0.18081619695282897 -0.5564950326163699 -0.20548426118031848
-0.15683949586438178 -0.4827023344006825 -0.27385548908345514
0.14558205549019487 0.4480554954903093 -0.2541990127443128
-0.11124641936316922 -0.34238127344372626 -0.2747440586690206
0.10476733386415073 0.3224406986674418 -0.25874273245416896
0.07730034857670709 0.23790601023244118 -0.26222392416635293
-0.08122113761636386 -0.24997295811253317 -0.27552431293222285
0.05725078431158423 0.17619979636613498 -0.2680596565248883
-0.05910390069664041 -0.18190310215689437 -0.27673631917068664
0.04065157260692625 0.12511267577262206 -0.27395486490587934
-0.0414155487237458 -0.12746395249015427 -0.2791033735724073
0.02564816172936162 0.07893692511326503 -0.2775304193301471
-0.02598341428869187 -0.07996872639591263 -0.2811580782771818
0.00592097834712697 0.018222897582923912 -0.14265296358328883
-0.006078225401687513 -0.018706854254014433 -0.14644148585658828
0.00381769713827064 0.011749663632376686 -0.14264420981268902
-0.003858081491499956 -0.01187395389147017 -0.14415312839542604
0.00321689819969814 0.02031069588089975 -0.23743236341915647
-0.0036937885965930106 -0.023321663346629298 -0.27263062180274283
0.005464705720469389 0.03450279401986732 -0.26007824629563175
-0.005835840936069051 -0.03684604954950982 -0.27774144738076817
0.012983934645774515 0.08197733703620139 -0.2775304193301471
-0.013111197576710277 -0.08278084355916102 -0.2802506528765601
0.02045040171025128 0.12911875477381338 -0.27224093783916703
-0.020965899374082882 -0.13237347892964474 -0.2791033735724073
0.02898221126974484 0.18298648030298534 -0.2680596565248883
-0.029920319126692338 -0.1889094602057207 -0.27673631917068664
0.03902768007653824 0.24641107419749872 -0.2615251855953422
-0.04090754480901113 -0.2582800729995398 -0.27412219295243345
-0.05583006236828092 -0.3524971408421475 -0.27237064789375737
0.05255155598942416 0.3317974662267604 -0.2563762379172303
0.0735628479277632 0.4644575425277293 -0.2537315482825486
-0.07885398634457874 -0.4978644757212658 -0.2719816402854393
-0.08920148504084939 -0.5631960112879448 -0.2002457188952022
0.09007639964733136 0.5687200047098184 -0.2022097882631757
-0.0899645774246361 -0.5680139869819153 -0.10503087832497364
0.08981269412402466 0.5670550335626126 -0.10485355924091863
-0.09050124168169267 -0.5714023517477782 -0.013633696167225498
0.08957548736989024 0.5655573690594051 -0.013494234511472384
0.088955835493958 0.5616450410891667 0.07637870875787392
-0.09079171386810161 -0.5732363209546888 0.0779550192817999
-0.09043003681879429 -0.5709527819368013 0.1728795223257485
0.08835800291427608 0.5578704747336779 0.16891831381298397
-0.09038316357465956 -0.570656835920648 0.27744127191041906
0.08717610464340948 0.5504082627358021 0.2675968443224948
-0.08987086368922242 -0.5674223017430012 0.3970581309385663
0.08630171630857228 0.5448875920623094 0.38128929407830625
-0.08971468888569266 -0.5664362528406611 0.5470888831496888
0.0838731896718653 0.5295544783313718 0.5114668537974439
-0.06524380524174679 -0.411933174168256 0.5464899870054732
0.070606513774474 0.44579198328951375 0.5914086809029918
-0.04511400460399059 -0.28483861490151197 0.5344788957943796
0.04886034813145206 0.30849209702250835 0.5788629306279068
-0.030966970317558115 -0.19551775574738614 0.5636930493955528
0.03122293235635803 0.19713383645755378 0.5683523370397952
-0.016042221879754338 -0.10128660269205544 0.5615057178981016
0.01659690804346609 0.10478875329835745 0.5809207001179876
6.799833423369583e-17 -0.013215432126702457 0.5607765618797781
-2.318415320187594e-17 0.013517475384094133 0.5735933035341683
5.276536937890936e-16 -0.1025491529352513 0.5615057178981016
-1.8196606222950262e-16 0.10609495828938946 0.5809207001179876
1.0151848393106115e-15 -0.1973005146546446 0.5618296066575813
-3.383949464368705e-16 0.1973005146546446 0.5618296066575813
1.4886978931560973e-15 -0.28932746935468634 0.5362178806015453
-5.292498755625247e-16 0.30857810948093783 0.571895576437841
2.1521552400590627e-15 -0.41826997413465494 0.5480649858706493
-7.576072225551133e-16 0.44172141602618575 0.5787937375471691
2.7882662236078807e-15 -0.5418977309448152 0.516944725475423
-8.949591522019039e-16 0.5218041911783138 0.49777644185793474
2.7966942705515914e-15 -0.5435357163984366 0.375660651385314
-9.112877129468608e-16 0.5313245267284508 0.3672209788353435
2.7986122082500043e-15 -0.5439084663453617 0.2611811253475958
-9.298164018542584e-16 0.5421276427199816 0.2603259860230554
2.808944960930226e-15 -0.5459166301227004 0.1632636914793818
-9.33073743581211e-16 0.5440268294717368 0.16269852124383297
2.825332104774272e-15 -0.5491014608933663 0.07375354665892923
-9.367521243156767e-16 0.5461715021970465 0.073360004006418
2.8144338822673104e-15 -0.5469833984221966 -0.012890378214187627
-9.381446274224367e-16 0.5469833984221966 -0.012890378214187627
2.7993310928392653e-15 -0.5440481810987212 -0.09936084059212247
-9.364358749488156e-16 0.5459871136194454 -0.09971495254728328
2.775831658023958e-15 -0.5394810811937404 -0.18945227112397733
-9.380494171029886e-16 0.5469278862308197 -0.1920674029164961
2.611499691608072e-15 -0.5075432701739446 -0.27385548908345514
-8.213953316614465e-16 0.4789129488432222 -0.25840740591223244
1.8443378566123697e-15 -0.35844586543842905 -0.2735572363329028
-5.841459956567218e-16 0.34058518541742466 -0.2599263962628238
1.3523951646758698e-15 -0.2628371225364229 -0.27552431293222285
-1.9184487734005987e-16 0.11185478220524288 -0.11725403062503943
-3.18690530317537e-16 0.18581189320137165 -0.268847429492867
9.869352232793532e-16 -0.1918102201132601 -0.2775262860705319
-2.2492087036776104e-16 0.13113967554006792 -0.2730977581366162
6.917236145614068e-16 -0.13443603555428907 -0.2799624123778868
-1.3864116617716865e-16 0.08083446200098181 -0.27029204530102585
4.3124773383671284e-16 -0.08381271718696288 -0.2802506528765601
-6.012745491394849e-17 0.035057195517572894 -0.2610038180610442
1.9324100612683061e-16 -0.037556264125354615 -0.2796095975193746
-3.8835105652657013e-17 0.02264273273763605 -0.26143509070928483
1.2483611215330434e-16 -0.024261817377077555 -0.28012919201247366
-0.003441501795460495 0.021728787173845302 -0.25400987357452387
0.003279025439311753 -0.020702951834111773 -0.24201784185783248
0.005039636247628592 -0.031819010991875035 -0.23984818658057547
-0.0041001525115752805 0.025887344130356784 -0.19513593765182857
-0.0065882704680088 0.0415967026464789 -0.14082368061224923
0.006657434188126725 -0.042033385189132896 -0.1423020488242272
-0.009953358684590673 0.06284303347093757 -0.13250163695240336
0.010215947404677446 -0.06450095340012028 -0.1359972846387029
0.014340747017454797 -0.09054391320302331 -0.13263914488892314
-0.013698326071027944 0.08648782697946424 -0.12669732296785932
0.040698375151316565 -0.2569594277564281 -0.272720543317022
-0.017235098927167437 0.10881813195697626 -0.11549270765881653
0.05583006236828485 -0.35249714084214684 -0.27237064789375737
-0.05315794157154809 0.335626034114365 -0.2593345300428369
0.07844659899932194 -0.49529233325305533 -0.270576487755651
-0.07451171688231627 0.4704484653267564 -0.257004368676778
-0.08264687215332574 0.5218118142412085 -0.1855314664459117
0.08206491920081577 -0.5181375079058154 -0.18422505784424326
0.08237953288582912 -0.5201239005361058 -0.09617557201607754
-0.08268254647526345 0.5220370530453778 -0.09652933106607223
-0.0824874919113387 0.5208055269969534 -0.012426452736096629
0.0829491962036822 -0.5237206131720554 -0.012496006876171587
-0.08192859570127727 0.5172767952041321 0.07034502363180375
0.0836074095544621 -0.5278764087125212 0.07178647638910635
0.082592890930756 -0.521470990215431 0.15789686738956604
-0.08096890873728103 0.511217570181587 0.15479222123714134
0.08244044779390586 -0.5205085021292418 0.25306021374114407
-0.079658063433796 0.5029412186612039 0.24451937244635732
-0.07802829987872788 0.4926512965468304 0.3447365435064322
0.08209905186873669 -0.518353013089601 0.362721517838667
0.08162815950273297 -0.5153799157004962 0.49777644185793474
-0.07568424487446958 0.4778515157132132 0.46152987336505763
0.06590197024763854 -0.41608866447108117 0.552002856528978
-0.07088895916303252 0.4475752732893282 0.5937744775659906
0.04562779664188329 -0.28808257015896427 0.5405659413468559
-0.04915445215399193 0.31034899674028454 0.5823472675781521
0.030864600462162734 -0.1948714179178124 0.5618296066575813
-0.031274131091641066 0.19745709254999216 0.5692843097487994
0.01604222187975547 -0.10128660269205526 0.5615057178981016
-0.016652404016055958 0.10513914107935275 0.5828631558552848
0.004069439017651362 -0.012524445470163976 0.5588054920379242
-0.004184311779928198 0.012877987479493404 0.5745795410327507
0.031634672128680874 -0.09736150961437597 0.5605354439863018
-0.032839956668881766 0.10107099400136534 0.5818919069875109
0.05753425838154825 -0.17707223984447476 0.5301766035850187
-0.061272546939369975 0.18857750899609554 0.5646248295039727
0.09042211706821023 -0.2782906610973584 0.5423054016796238
-0.09521068690835277 0.2930283636609826 0.5710247833400987
0.13018121527167795 -0.40065658309110275 0.552002856528978
-0.1359417251824551 0.4183856096092416 0.5764289453404654
0.16013799039869994 -0.4928540567263975 0.4943548349105114
-0.15149752966922853 0.46626145298570076 0.4676812546636697
-0.15488873839812528 0.4766985202617512 0.34642170760172336
0.16142228587997978 -0.49680671178600094 0.3610345367768346
0.16202617280580348 -0.49866528463592386 0.2517785797578442
-0.15708000690852797 0.4834425512817481 0.24409254605540753
0.16198530900819016 -0.498539518798743 0.1567676875553095
-0.15877804882322766 0.4886685869280527 0.1536637346989485
0.16334697480833005 -0.5027302952149679 0.07100011333820552
-0.15973061844979922 0.4916002947857653 0.06942823414284134
0.16233593426136475 -0.49961863236815623 -0.01238009038993836
-0.16051258794972156 0.4940069494422495 -0.012241038046087392
0.16153368721040665 -0.49714956982667513 -0.09546817855894411
-0.16063618404489638 0.4943873391096281 -0.09493774435700356
0.16067249522515392 -0.4944990934313156 -0.18259243104173312
-0.16095979126609472 0.49538329972682127 -0.18291892178596963
0.1557663258439852 -0.47939945669629963 -0.2719816402854393
-0.14986766624058911 0.46124524914353315 -0.26168206426524404
0.11028540331170648 -0.33942357016316527 -0.27237064789375737
-0.10596573155495749 0.3261289875114225 -0.2617024020539305
0.08080781010047101 -0.2487008668213987 -0.27412219295243345
-0.0719587461474815 0.22146624837387538 -0.24410374778786836
0.028471309413121156 -0.08762568026258401 -0.13330838195260536
-0.028185815459180398 0.08674702022057863 -0.1319716419908139
0.02092086061697245 -0.0643877883043929 -0.14098769559189872
-0.02070766635221163 0.06373164382551921 -0.1395509588986856
0.013496615985925706 -0.041538312827459054 -0.14604249355710347
-0.013082506785716763 0.040263815759383724 -0.14156155253703628
-0.005920978347127035 0.018222897582923885 -0.14265296358328883
0.006110020075184836 -0.018804708197206286 -0.14720750865461574
-0.0038176971382706828 0.01174966363237667 -0.14264420981268902
0.003898776972570255 -0.011999201703597202 -0.14567367194038375
-0.005757925985165767 0.011300566028407368 -0.14643819001813346
0.005757925985165811 -0.011300566028407346 -0.14643819001813346
-0.00897650005612983 0.017617373312827887 -0.14720750865461574
0.009117600718417605 -0.017894298954967438 -0.14952144803355058
-0.018821553344199885 0.0369393783232521 -0.13862622933198138
0.019020085223196755 -0.037329019074648674 -0.14008847451887985
0.03073575932512102 -0.06032232414615951 -0.14098769559189872
-0.029341435685190615 0.057585809922358504 -0.13459180750520375
0.0865843383815315 -0.16993133211980402 -0.27594654321266887
-0.040164264051131285 0.0788268065726327 -0.12800455639855854
-0.11447354007383705 0.22466697235127625 -0.26432094157950203
0.11811128493188223 -0.23180644862602084 -0.272720543317022
-0.1549745625910831 0.30415470462732364 -0.26051833064636354
0.1602611074770561 -0.3145301331583557 -0.26940522037557957
0.22529684701241887 -0.4421699588037534 -0.2677667982737025
-0.21702840546618385 0.4259422285609616 -0.2579397006071908
0.23985056477899147 -0.47073323818658536 -0.1855314664459117
-0.2398505647789897 0.4707332381865863 -0.1855314664459117
0.24127335569743852 -0.4735256225902668 -0.09706004626517366
-0.23951439305866148 0.4700734640366165 -0.09635244639528862
0.24162135667923804 -0.4742086129730726 -0.012542383291827242
-0.2380483532429269 0.4671961988927669 -0.01235691136493669
0.24441059892673925 -0.4796828091104172 0.07231086900467797
-0.2364378462989695 0.4640354010453671 0.06995206511726537
0.2422658035003431 -0.4754734110744127 0.1595910893991132
-0.23241144112532233 0.45613313595214705 0.15309958955043282
-0.22875579395467038 0.4489585244106053 0.2419587363399394
0.24086734981323027 -0.4727287911766228 0.2547693266204549
-0.22349578137968704 0.43863516847185396 0.34024377244139464
0.24010785935170043 -0.47123820721799337 0.36553353872868577
0.23819697207097212 -0.4674878797659999 0.5005140205509838
-0.2167175487972202 0.42533213799674724 0.4553801449673014
0.19207367749174642 -0.37696581727630407 0.5543658313965651
-0.20518130741278107 0.4026909894616038 0.5921972628227998
0.13326925219063204 -0.26155563441014584 0.5440449949488149
-0.1424383854908277 0.27955107175148947 0.5814761427791859
0.08482274139976163 -0.1664740033769164 0.5320371309796824
-0.09076106342398853 0.17812861656673823 0.5692843097487994
0.046475892492082255 -0.09121407485768725 0.5605354439863018
-0.04840769171755605 0.09500544431212968 0.5838344465117085
0.007740532990806074 -0.010653929663356005 0.5588054920379242
-0.007945372678997094 0.010935867306777152 0.5735933035341683
0.06017272213768463 -0.08282064685584362 0.5605354439863018
-0.06256957182252856 0.08611962742815044 0.5828631558552848
0.11001273961656104 -0.15141954582973552 0.5329674645442961
-0.1165473100733766 0.16041361046454256 0.5646248295039727
0.17199308730984736 -0.23672817581929093 0.5423054016796238
-0.18082532391579506 0.24888470660104264 0.5701540187097349
0.24797270733986368 -0.3413051511528735 0.552790493958654
-0.2571622339114735 0.35395344938372914 0.5732761473487455
-0.29954181324181856 0.4122839361711896 0.4861446884364716
0.32358341213878683 -0.445374358232193 0.5251632664399543
0.3261843444593587 -0.44895423445459715 0.38354122176749816
-0.3065652334675845 0.4219508447898053 0.3604722488765745
-0.3118529485974065 0.4292287602950942 0.2547693266204549
0.3270309095479568 -0.4501194313370458 0.26716901342231003
0.32866027413484983 -0.45236205929630124 0.1672213847413515
-0.3153288580005528 0.4340129391547805 0.16043839926369258
0.33021964218090843 -0.45450834528225675 0.07545960499961361
-0.3175880161807116 0.4371224036294355 0.0725731095077573
0.3278783887461209 -0.4512858863833742 -0.013145757658654934
-0.31977226374359263 0.4401287624848182 -0.012820755589316071
0.32662332102175784 -0.44955843385859395 -0.10148606166033884
-0.32092317332724607 0.4417128536278558 -0.09971495254728328
0.32476004761500354 -0.44699385802864267 -0.19402938529452293
-0.32257068032494185 0.443980452473334 -0.19272133772957767
0.29220375288270367 -0.4021839625615748 -0.26823502206000943
-0.2860847099158305 0.39376182245138724 -0.2626179086279863
0.20840481013738976 -0.28684461281232715 -0.2705912105227084
-0.20247095667988801 0.2786773641946985 -0.2628867406063424
-0.14860193234236835 0.20453301302311522 -0.26502021109304175
0.15331258954548216 -0.21101667643101682 -0.2734213088895342
0.1121014585313181 -0.1542944207809533 -0.27594654321266887
-0.10985779870206933 0.15120628795628896 -0.2704235983541663
-0.03878461166096147 0.05338243828264252 -0.1374120416168404
0.055078808845376616 -0.07580947669586316 -0.19514161027129465
-0.023113987253172198 0.0318136741652672 -0.1314900518266169
0.025276266656178357 -0.03478979644257181 -0.1437907521623355
-0.011203231020372911 0.015419924627303008 -0.14190388838644433
0.012743656518521895 -0.017540138432787934 -0.16141543532852298
-0.007261691481187363 0.009994860866745768 -0.14264420981268902
0.007300024137448943 -0.010047621241787772 -0.1433971929815024
0.008781942980507329 -0.008781942980507221 -0.1433971929815024
-0.0084183394739038 0.008418339473903757 -0.1374600419067455
-0.017630412364011718 0.017630412364011624 -0.1856295696265814
0.013763742163491082 -0.013763742163490916 -0.14491762764865385
-0.030724331199449346 0.03072433119944919 -0.14528947293143127
0.030092581315228482 -0.030092581315228118 -0.1423020488242272
-0.08924526780114005 0.08924526780113959 -0.26283562230071794
0.09447735396059828 -0.09447735396059714 -0.27824460314120714
-0.1321591416686427 0.132159141668642 -0.2704235983541663
0.13447239019823765 -0.13447239019823604 -0.2751569598406449
-0.178296718761908 0.17829671876190709 -0.26432094157950203
0.18301748379456234 -0.18301748379456012 -0.27131937131545747
0.24851389616389358 -0.24851389616389055 -0.26821947510739147
-0.24247562017572358 0.2424756201757223 -0.2617024020539305
0.34661368697272 -0.3466136869727158 -0.2644898939588381
-0.3398685503810568 0.339868550381055 -0.2593428944925217
0.42232683711355723 -0.4223268371135521 -0.2097429028771227
-0.4177090429908736 0.4177090429908714 -0.20744953797803184
0.4238260970036202 -0.423826097003615 -0.10946633727936758
-0.4148938906744544 0.4148938906744523 -0.10715931579675972
0.42443191932737423 -0.4244319193273691 -0.014145377766859321
-0.411171628209601 0.41117162820959885 -0.013703441572577163
-0.40831685791401834 0.4083168579140162 0.07756086053189817
0.4276942797482577 -0.42769427974825247 0.08124165274809798
0.42817445170734436 -0.4281744517073392 0.18109190431997338
-0.40005997115843583 0.4000599711584338 0.16920117893627315
0.4268392359291205 -0.4268392359291153 0.2898646810891137
-0.3927888318600177 0.3927888318600156 0.26674119879030145
0.4217976447405236 -0.4217976447405185 0.4122747794647381
-0.3837620220855325 0.3837620220855305 0.3750978816384441
-0.37201515326725115 0.3720151532672492 0.5018829061435433
0.41822708790655183 -0.4182270879065468 0.5642270871576576
0.29958684614477515 -0.29958684614477155 0.5551535312272236
-0.3165986831170744 0.3165986831170728 0.586677550019659
0.20723986332452193 -0.2072398633245194 0.5431751817769918
-0.22019132272670217 0.22019132272670103 0.5771209256228118
0.13234553588471554 -0.13234553588471393 0.5329674645442961
-0.141363670498883 0.14136367049888227 0.5692843097487994
0.07276382308868054 -0.07276382308867967 0.5634464057024754
-0.07226260394695996 0.07226260394695959 0.5595652170583958
0.010653929663356097 -0.007740532990805944 0.5588054920379242
-0.010954670459378545 0.007959033969022486 0.5745795410327507
0.08325074942097666 -0.060485209942656444 0.5634464057024754
-0.08454142245665894 0.061422938792829784 0.5721817634974545
-0.15961946935453122 0.1159703327837146 0.5618296066575813
0.15353452405195084 -0.11154936124080284 0.5404117781200831
-0.24698435592232312 0.17944463832957933 0.5658006271686182
0.2359688633171294 -0.1714414144849765 0.5405659413468559
0.3398462754421287 -0.24691277209292728 0.550427644695921
-0.35006079227338577 0.2543340529738636 0.5669714553756807
-0.4721072646933018 0.34300600557996536 0.5566853786115508
0.4146046263843055 -0.3012278933759677 0.4888811307802818
0.42260903097548325 -0.3070434337228196 0.3610345367768346
-0.4700527901399079 0.34151334244421994 0.4015656999972293
0.42562950415249223 -0.30923793594061605 0.25263298313975363
-0.4667044720831757 0.33908064697871576 0.2770130873840796
0.42713766662833347 -0.3103336801184566 0.15789686738956604
-0.4630750437826473 0.3364437129660356 0.17118157561877761
0.4308053635995907 -0.3129984179479114 0.07152432492466454
-0.46162633118694757 0.3353911616544027 0.076641366369533
0.4313685186588438 -0.31340757404832015 -0.01256557357312248
-0.4536777686078958 0.3296161929042097 -0.013215432126703454
0.4315197838466473 -0.313517474640266 -0.09741390683127851
-0.4464197219224243 0.3243429133169663 -0.10077750969223441
0.4304270806010544 -0.31272357926185335 -0.18683814187394582
-0.43795529798424654 0.31819314935081355 -0.1901059616996287
0.39727041590552986 -0.28863385227374116 -0.2649579513203321
-0.3951651496372802 0.28710428679708444 -0.26355385221029
-0.2799331209167423 0.203383317343279 -0.2640713427092302
0.2843304161184101 -0.20657813931548327 -0.26821947510739147
-0.20615262515123933 0.149778649432322 -0.2671187962639137
0.20993511754062852 -0.15252679101506889 -0.272019897150646
-0.1516471143849035 0.11017807784992524 -0.27121199062730944
0.15385292835410144 -0.11178069550741511 -0.2751569598406449
-0.10676028166194297 0.07756588492923192 -0.27481225546654164
0.10842731422149604 -0.07877705497931635 -0.2791033735724073
0.06758644518072483 -0.049104426740498947 -0.2793435657077497
-0.03371681405675944 0.024496699321084534 -0.13935597644964598
-0.01591300069290118 0.01156147175157141 -0.14644148585658828
0.01607977018903098 -0.01168263688288366 -0.14797620412123916
-0.010047621241787838 0.007300024137448852 -0.1433971929815024
0.010368416146119627 -0.007533095278213261 -0.14797549939821203
-0.011359777450593724 0.005788095711670399 -0.1472054802115245
0.011065893721952493 -0.005638354472735326 -0.1433971929815024
-0.017072298394265675 0.008698770513241168 -0.14265296358328883
0.019124503846819352 -0.009744421418908395 -0.1598008122752313
0.07467767782353875 -0.038050177360238066 -0.2802506528765601
-0.07250564764461002 0.03694347270700432 -0.27209945035589933
-0.11757986315043045 0.05990993262321606 -0.27481225546654164
0.11904841108395256 -0.06065819516914744 -0.27824460314120714
-0.16701573543048034 0.08509876766785746 -0.27121199062730944
0.16895898111154833 -0.08608890079698091 -0.2743675707173044
-0.22645039428223201 0.11538223893484403 -0.26641913945474005
0.2300201548780848 -0.1172011228070323 -0.2706189667459264
0.3103779394402643 -0.15814545910645258 -0.26584873231374456
-0.307611291457459 0.1567357815494224 -0.2634790089361314
-0.4105049637283319 0.20916272616337095 -0.2485912885406638
0.41050496372833273 -0.20916272616336937 -0.2485912885406638
0.4103641842470284 -0.2090909954348782 -0.16173803484438257
-0.4169657228142139 0.21245464734068017 -0.16433991852671528
0.410667443003014 -0.20924551348883483 -0.08417580615687709
-0.4235559592504091 0.21581254052310705 -0.08681760614315602
0.41036552600127163 -0.20909167909281207 -0.010853792141376557
-0.4286949316114194 0.21843097772529027 -0.011338588124377621
0.40855524770172724 -0.2081692962285267 0.061588584032271874
-0.43192815649937605 0.22007838808964295 0.06511198598503204
0.40581301610423437 -0.2067720594411964 0.1362098065295989
-0.4309466041278561 0.2195782621763419 0.14464581283357844
0.4023234280310552 -0.2049940255096594 0.21682552608649547
-0.42838707451438174 0.21827411669954208 0.2308720952563219
0.39887209131549306 -0.20323548161830599 0.30940005459110737
-0.4285038938262427 0.21833363911192769 0.3323850703745443
0.39345256230785586 -0.2004740936646416 0.4212484053177213
-0.4227797869086255 0.21541706096177463 0.4526474805277153
0.374287871262832 -0.19070919584550405 0.550427644695921
-0.39250462034373945 0.19999109310928248 0.5772171910864846
-0.2749451087692285 0.14009153013193473 0.571895576437841
0.2590468407836322 -0.1319909579903897 0.5388266152379619
0.17783700303288608 -0.09061247890707184 0.5683523370397952
-0.17667066883180593 0.09001820194900663 0.5646248295039727
0.09184567816702935 -0.04679771045217548 0.5644168191137405
-0.09421523811015456 0.04800506154730078 0.5789784132190827
-0.012877987479493426 0.004184311779928132 0.5745795410327507
0.012590713210172803 -0.004090970711604893 0.5617621720083118
0.09803568025932198 -0.03185372344984449 0.5644168191137405
-0.1002276048154614 0.03256592291079117 0.577036296863485
0.18951119479766074 -0.06157591984638963 0.567420402471954
-0.1860882566597778 0.06046373982640549 0.5571716942734345
0.27427439371344414 -0.08911715268983475 0.5344788957943796
-0.28722056192986195 0.09332361773409444 0.5597071119592059
0.36524464792786876 -0.11867518005541518 0.5032142176040557
-0.40808966116393014 0.1325963687411725 0.5622437473620884
0.3731251315656659 -0.12123570440517654 0.3742613260430272
-0.4118122052909338 0.1338058966481321 0.4130662048577772
0.3780689608303044 -0.1228420519080702 0.27474659440966476
-0.41343013182649124 0.13433159284659257 0.3004439203266183
0.3823866823144419 -0.12424496466111441 0.1930689357325837
-0.4117679888665923 0.13379152986096657 0.20790370338746741
0.38505369079682616 -0.1251115282470613 0.12108162826550944
-0.4099668631062715 0.13320630862604588 0.1289156720380663
0.3882254327208176 -0.12614208966953375 0.054828702360508054
-0.4084425808890902 0.1327110393110661 0.05768395064171396
0.38975188247551995 -0.1266380632601464 -0.0096576933326618
-0.40550158951298293 0.13175545328651772 -0.010047956593690798
0.38989398834242756 -0.1266842362552549 -0.07487177130840268
-0.3999269043162 0.12994412826578494 -0.0767984031950298
0.38970725350259544 -0.12662356242782058 -0.14389833218474674
-0.3949653468439307 0.12833202051905312 -0.14583986869834645
0.3880529421065572 -0.12608604407154522 -0.2201572701793725
-0.388872585537291 0.12635236236608016 -0.22062228523440938
0.33203454910540564 -0.1078845648341559 -0.26644132350466
-0.33055767480131276 0.10740469928389727 -0.2652562048316405
-0.24298183345469576 0.07894958351621358 -0.2678185801500914
0.24552252002340463 -0.07977510262434044 -0.2706189667459264
-0.17930871872176907 0.058260934418988254 -0.27278938196158564
0.1803460868247876 -0.058597995747901976 -0.2743675707173044
-0.1212043869918842 0.039381692603498226 -0.26539702119957026
0.1270717599055884 -0.041288117628303624 -0.27824460314120714
0.07971063082906403 -0.02589955395551222 -0.2802506528765601
-0.05825406939684093 0.018927894532752003 -0.20481259289229523
-0.03559878314137592 0.011566745804556853 -0.2786753254781379
0.0358375261276173 -0.011644318103123988 -0.28054425956872764
-0.011749663632376691 0.003817697138270622 -0.14264420981268902
0.02307435951363265 -0.007497313883938218 -0.28012919201247366
-0.0227623177555377 0.0036051969582000134 -0.2660918627942022
0.02404345160410184 -0.003808108625785575 -0.2810683382091541
0.03734192580184585 -0.005914380018765454 -0.28147930774108976
-0.036969940740303936 0.005855463372984182 -0.2786753254781379
-0.08251290683806835 0.013068760569097771 -0.2793435657077497
0.0825129068380684 -0.013068760569097488 -0.2793435657077497
-0.13074505989944357 0.020707983137370885 -0.2756699271706533
0.1315590100801375 -0.020836900181191685 -0.2773861035768976
0.18675374369694211 -0.029578887173950765 -0.2735783775241157
-0.18567669030059555 0.02940829867457143 -0.2720005857495236
0.2536597989015925 -0.04017576528186138 -0.2692185251895205
-0.2523407597421405 0.039966850002826314 -0.2678185801500914
0.34175633095259084 -0.05412888520529071 -0.2640713427092302
-0.34252300268006663 0.0542503140777608 -0.26466374148624033
0.369019900864685 -0.0584470104670664 -0.2015942948926897
-0.36986760418016756 0.058581273482251665 -0.202057392280561
-0.3747531299152799 0.05935506474149853 -0.13324439165771246
0.37112983435789404 -0.0587811911025103 -0.13195612006289179
-0.3794000702642705 0.06009106778789489 -0.07015447423776516
0.3709186413711474 -0.05874774141950396 -0.06858618200110954
-0.38365202865096015 0.06076451183725395 -0.009153961611407075
0.36929818662302794 -0.05849108660115184 -0.008811478034917412
-0.3841434413932265 0.060842343969406146 0.05224007671201458
0.36895612653474663 -0.05843690960551204 0.050174737550218576
-0.3832972635800294 0.060708322570047886 0.1160590681626923
0.36491481037922757 -0.05779682800804569 0.11049302167151004
0.3615122351700254 -0.057257913037874086 0.1757595949498049
-0.3805949493184211 0.06028031803814205 0.1850372065573001
0.356837299934041 -0.056517476036969265 0.24969965213871229
-0.37750013881288236 0.05979014820831182 0.26415863297171016
0.3516577261875642 -0.055697112148013914 0.33964639746501607
-0.37061655713991265 0.0586998959776103 0.35795766479567875
0.3438000411786694 -0.05445257710563367 0.4561013577398124
-0.36746568360532544 0.05820084663630131 0.4874973157088033
-0.2996750794307638 0.047463869734851435 0.5623184398878971
0.3038508765223344 -0.04812525102010758 0.5701540187097349
0.1974570925499924 -0.031274131091639325 0.5692843097487994
-0.2019840313484001 0.03199112775960923 0.5823358299339969
-0.07265220642746302 -2.4921515836464704e-16 0.5751014318372205
-0.16750738457663022 -5.745920382499588e-16 0.5765641994715739
-0.27078926944989856 -9.288746204395225e-16 0.5754564897112467
-0.3535857406709295 -1.212887132956738e-15 0.5202856177083796
-0.35903957330748554 -1.2315951368983749e-15 0.38233831196883566
-0.3616977183758035 -1.2407132363578655e-15 0.28056150933750335
-0.3626311207730099 -1.2439150389964406e-15 0.1993581456748399
-0.3628336845992069 -1.2446098833584632e-15 0.13062816434507263
-0.363579000058234 -1.247166500965645e-15 0.06935640357353247
-0.3612590605934225 -1.2392085309389996e-15 0.011353023348779401
-0.3595454338814427 -1.2333303646257671e-15 -0.04542115118537971
-0.3545096834552209 -1.2160564867675812e-15 -0.10299458401527282
-0.35068556596196665 -1.2029388115647243e-15 -0.16502010127840544
-0.34548314906460004 -1.185093226210746e-15 -0.23479010565270284
-0.28394240403908205 -9.739931471962788e-16 -0.26663966544478473
-0.21030483523299945 -7.213979505188323e-16 -0.2711233598892228
0.32787164334245417 -0.006438572108000069 0.40932961080421315
0.327028137909319 -0.006422007788806846 0.39223890020180807
0.32886978972810466 -0.006458173185460854 0.3790619387426002
0.3303262203662862 -0.0064867738097436865 0.3659706407678968
0.33005916316387046 -0.006481529479867563 0.3515450733365029
0.3321013536806458 -0.006521632950745641 0.34008551746162086
0.3324297036127731 -0.006528080915239022 0.3273115890332757
0.3331028173256357 -0.006541299170812967 0.31533589154246644
0.334887075748635 -0.006576337505932996 0.304782542612821
0.3341828316701093 -0.006562507928495328 0.29235384127224306
0.33537074959922136 -0.006585835640422479 0.28196291792037775
0.33704348089724423 -0.006618683864104876 0.2722551836211316
0.3369266594739793 -0.006616389786002292 0.2613974933351599
0.33808326603958977 -0.006639102621724689 0.2518186401765807
0.33820516693053304 -0.006641496447760898 0.2417315775533364
0.33806687358548854 -0.0066387807152716565 0.23174062133071946
0.3401111041418881 -0.00667892424738251 0.22345431034169713
0.33949365926093766 -0.0066667991872578 0.2136249262380567
0.341124068273511 -0.00669881630800045 0.20541298864628962
0.3417234138266847 -0.006710585942978267 0.19673605790230309
0.341266624523119 -0.006701615753183296 0.18764908561699187
0.3431661308394616 -0.006738917266247053 0.18000998205308563
0.34316398463177 -0.006738875120141215 0.1715023825308603
0.3438386823146596 -0.0067521244808913545 0.16348201539959414
0.3443331229158264 -0.006761834047206032 0.1555023410220966
0.34464921504850526 -0.006768041299435218 0.14756731407536816
0.3447889536273865 -0.006770785412671801 0.13968082875408305
0.34565758788320844 -0.006787843198561954 0.13219212201744007
0.3454570477622885 -0.006783905096395122 0.12439616868299055
0.346916814699085 -0.0068125712371678426 0.11727878133822531
0.3463888669472344 -0.006802203674926433 0.10956953445267521
0.34662056907249444 -0.0068067537202608054 0.10220004500807157
