-0.5894924585182552 0.8113667621586252 1.9683108541626066
-0.37149105064924726 0.5113135657304622 1.9451523942322664
-0.28721058784544534 0.5636825169977779 1.9470524128180329
0.44947156019040546 -0.8821376059554674 -0.5044537250721407
-0.45098497601527554 0.8851078517525633 1.9496175630554986
0.6353502440158358 -1.246945063580722 1.926217816302374
-0.6428160083930962 1.2615974511791712 1.9488520853394147
0.4538677184326876 -0.890765552305633 1.9620797193259871
-0.886871167486272 1.7405826703381664 1.953501599692202
0.28693031523884344 -0.5631324510356503 1.9451523942322664
-1.2180636252426342 2.3905844672748704 1.949324988216406
-1.755996312633841 3.446336810803465 1.970800734858135
-1.7133355259260812 3.3626103026377017 1.226229313054611
-2.21955462513809 4.35612122483854 0.7743398094759841
-1.4075914494915063 2.7625537662312385 -5.317720484490774e-15
-1.5799734012205462 4.8626581261112305 -8.769262332586888e-15
0.19492285901330172 -0.5999108742043594 1.9413523693666332
-1.6087366327570953 4.951182250287228 0.8245464031005555
0.3078121656734855 -0.9473484348355287 1.9549584685302321
-1.6557375605434108 5.095836231967133 1.7409454981637968
0.42012196036668364 -1.2930024410263101 1.8712507116679093
-1.3136194321990342 4.0429049005924425 2.1659732113104972
0.0620770690351931 -0.1910535734057016 -0.1459519427377111
-0.8685816383622271 2.673219409080117 2.0421579097653875
-0.631836462358114 1.944592678386605 2.044665742853827
-0.4513382313448093 1.3890762443077054 2.010290025948131
-0.31117595486834493 0.9577011134630878 1.9763223680319295
-0.1958767225633272 0.6028465643489922 1.950852462235539
-0.09944890383080529 0.6278956671945117 1.956552566798349
0.04191756083096164 -0.264657063187957 -0.13653042517588665
-0.15617930103580488 0.9860772984756903 1.959409244481318
0.2154097755374422 -1.3600437965752838 1.3769969135767868
-0.22232619496637326 1.4037123502208606 1.9561274756183968
0.2101070659991816 -1.3265638061962104 1.848617994315602
-0.3075848686884864 1.9420144305730307 1.9662218847322377
0.15589549329864374 -0.9842854069452867 1.9558486221698554
-0.4238908069017547 2.6763412241327464 1.9687138532127535
0.0985797237531239 -0.622407880162509 1.9394523631108778
-0.6046570427868617 3.8176543197544324 1.9694390966639657
-0.8804353853410347 5.558850247770394 1.8286941939817158
-0.8840675530742883 5.581782852297776 0.8950875663284316
-0.36745869786750174 2.320042910241429 -4.028763195398431e-15
-0.635203129783976 4.010514722799855 -0.6431210166976665
-3.4958660596289597e-15 2.038257899507883 -0.6622701375524279
3.2376761116639006e-15 -0.629240251016876 1.9366023614826606
-5.973593914540171e-15 3.4828923011014945 -0.5516359478206034
5.106642518770708e-15 -0.9924726592597171 1.947837267489752
-8.607099506749136e-15 5.0183526091225135 0.7948289693470381
1.1472908567482988e-15 -0.22297523340549888 0.3068990799721683
-9.674166816872049e-15 5.640504126676792 1.8327108874402684
7.657304725340844e-15 -1.4881922037006907 1.0812349258345664
-7.362739088259843e-15 4.292830689930353 2.187306486890235
-4.856916478047715e-15 2.8318156959598957 2.0574345345879586
-3.544431864346287e-15 2.066574097389205 2.0665740973892013
-2.5191475632039526e-15 1.4687840818682476 2.021607855359305
-1.7364423846033065e-15 1.0124293514362066 1.9870044812104626
-1.091931453967395e-15 0.6366485082115513 1.9594026326898728
0.04811988313192257 0.30381698501016513 1.9421358645745415
-0.15554073502014268 -0.9820455513271281 1.951397861756538
0.09935232743990063 0.6272859078601696 1.9546525279016516
-0.09838657492052634 -0.6211883864281835 1.9356523630141225
0.1558245415188372 0.9838374350381119 1.9549584685302321
0.22278558255679662 1.4066128093157502 1.9601693775981912
0.3095747750370358 1.954578204795289 1.9789422679805473
0.42401731306270113 2.677139952598097 1.9693013970507771
0.608698199212835 3.8431691772600454 1.9826016183876696
0.6617699896008882 4.178251274209136 1.3745187413903772
0.6796902374716195 4.291395266346319 0.6881626617785807
0.35089115316130304 2.215439549758271 -3.847119068486273e-15
0.17953461871420107 1.1335369708434042 -0.1817725403197787
0.15301672620179302 0.9661095868271965 -0.31782093660278127
0.3805089048926384 1.1710859923366634 -0.19502710542449606
-0.1940643906607901 -0.5972687802886711 1.9328023738525206
0.38432770445865494 1.1828390488927647 -2.1331184812828725e-15
-0.3061302973735548 -0.9421721764571709 1.9442766857985865
0.39511721581770937 1.216045750376692 0.2025144902352662
0.8556927960221252 2.6335516311967706 0.8997286505700852
0.8297336326060915 2.553657541312401 1.368113760116681
0.801109582079752 2.465561772240213 1.8835215912666634
0.6412272031924957 1.9734944068544853 2.0750548185529922
0.4547867514147092 1.3996896977544722 2.025649960071495
0.31313819689214983 0.9637402734357176 1.9887848438192552
0.19778448010619928 0.6087180383316191 1.9698529511714384
0.1399330809356456 0.2746341347120015 1.9460819162899714
-0.28482829008070726 -0.5590069943774717 1.9309023862968229
0.2891725128697852 0.5675330116615657 1.9603526566602567
-0.44892589600714855 -0.8810666796969537 1.940716116752258
0.45366180709586595 0.8903614285528004 1.9611895602740514
-0.646282303322003 -1.2684004380218454 1.9593609961512444
0.6484154224657195 1.2725869200627853 1.9658280623680482
0.8762839905131088 1.7198041655870084 1.930181338631164
0.9445834088667576 1.8538493215677714 1.5116616276853654
0.9618963707344332 1.887827922410682 1.079561534760522
0.9779757114094557 1.9193854053410775 0.6999344066816819
0.9583036999723451 1.8807769090301865 0.3343250470398107
0.4217075523193898 0.5804306507385608 -1.2305190573634603e-15
-0.36804381303813094 -0.5065688502069606 1.9271024237658856
0.4677709201860435 0.6438314374662361 0.126045413873185
-0.5798951229325551 -0.7981571629737846 1.9362654233324197
1.0378059789768017 1.42841738642056 0.5736850356872304
-0.8381279214115298 -1.1535841180729245 1.9625945250816077
1.014122499309353 1.3958198731924367 0.8790986508894205
-1.1170867611593864 -1.5375380216574932 1.9005015127591962
0.9849264755857184 1.3556349939895789 1.2174360766632342
0.9551132351141608 1.314600588813867 1.6249356910351853
0.8588415656190078 1.1820940034671619 2.0110984391948765
0.5977570683253483 0.8227420216768632 1.9959063237121504
0.3774785248398621 0.5195546169557161 1.976503216107861
0.21806136789539837 0.21806136789539876 1.9470684321983074
-1.6297677239705908 -1.629767723970605 1.1743744427598013
0.45083329042354864 0.45083329042354936 1.9622527076020946
-1.6130041979997167 -1.613004197999731 1.6573397100385094
0.7094812701689983 0.7094812701689995 1.969201019337225
-1.4058196897184168 -1.405819689718429 1.9881292714509264
0.9850130441666617 0.9850130441666634 1.917325899695471
-1.0103460004957279 -1.0103460004957365 1.9666364479904654
1.0490986607559842 1.049098660755986 1.4836495543085624
-0.6988977682731536 -0.6988977682731596 1.9398259764745913
1.049454400337292 1.0494544003372939 1.078300015406373
-0.441447838588794 -0.4414478385887978 1.9214025116072266
0.07766563145999492 0.056427384220077474 1.9
-0.5043213881048464 -0.3664109362408712 1.9185525698565287
0.24910976076396552 0.18098883533626245 1.9441088880450452
-0.7952217538046664 -0.5777624233341042 1.9291443555262866
0.5143102784312211 0.373668289870561 1.956552566798349
-1.1493077286261575 -0.8350209426121552 1.9553190968021787
0.8124675807374988 0.5902922500314228 1.970981351967439
-1.6084303676180802 -1.1685930654098424 1.9881292714509264
1.0580845691162688 0.7687434376891981 1.800120988047146
-2.1961205328699034 -1.5955749637557939 1.9722391183989085
0.8496707963970245 0.6173219683866233 -0.1663433951117688
-2.3891433929435766 -1.7358142804765468 1.5047018414449231
0.33901834346009974 0.2463112442976909 -0.30445744157450483
-1.2140869114877024 -0.8820857738905042 0.4876050234095635
0.8917908219830335 0.4543901194259119 -0.3252057028942304
-1.0734543904338258 -0.5469523307975684 -0.1908161929539773
0.9085473364392616 0.46292798998618134 2.0012474643422977
-1.1688533954069003 -0.5955605516877959 0.4262409756453365
0.5727587736133996 0.2918351715772456 1.9784033006137431
-2.6098442178934977 -1.329782048232633 1.4924492830666292
0.2751910104109539 0.1402168232764675 1.9500279870451225
-2.4849763632628115 -1.266158698474527 2.026293814900105
-1.768917476283461 -0.9013084722218896 1.985302495842886
-1.2668305128509996 -0.6454823864936696 1.956935854962065
-0.8770255437187887 -0.44686683438141594 1.9318147499164335
-0.5546065825129103 -0.28258616824746235 1.9157026377150939
0.2937376961583891 0.09544116300793766 1.9500279870451225
-0.5908104392455769 -0.19196594845090534 1.911902743215196
0.6060758597372855 0.19692598423993657 1.9613026816314814
-0.9313884830306717 -0.30262646298115725 1.9220233394996367
0.9538188339942708 0.3099145258026438 1.9683108541626066
-1.3443893827682512 -0.4368185898678103 1.9456185923880094
-1.187371302816598 -0.3858003230268443 1.2484760710562286
-2.6363015054484724 -0.8565862843286826 2.0139551409775986
-2.9263473342112567 -0.9508278869039093 1.5677811100534795
-1.0933681308469958 -0.35525684094555116 -0.18208434147266314
-1.8906088450126892 -0.6142960516167769 -0.6459090927737587
0.9923489675718582 0.15717263583550037 1.9718715194209755
-1.9662444598174433 -0.31142252830941375 -0.6468351668691034
0.6342982175127273 0.10046296817960443 1.976503216107861
-1.4146925675443498 -0.22406529054179875 -0.22685829257312498
0.304897259321742 0.048290981774159185 1.949041467577685
-2.594415131050778 -0.4109149885009963 -4.505211583554068e-15
-2.9434178622040945 -0.4661915907464502 0.9682957653398957
-2.994197125426686 -0.47423423593205305 1.5446366768779345
-2.7394413626480025 -0.4338848870248999 2.0151302502380934
-1.2107900923649852 -0.19177031112972664 1.2258827431691812
-1.3979114604773846 -0.22140742429097124 1.9480437112998314
-0.9690545848317214 -0.15348316806250192 1.9255838410046227
-0.612652081545555 -0.09703455704925734 1.9090528336628483
0.3047429338619086 0.04826653902257563 1.9480549492948134
-0.612652081545555 -0.09703455704925734 1.9090528336628483
0.629115189736217 0.09964205722603532 1.9603526566602567
-0.9659188853675761 -0.15298652205784732 1.9193529719566698
0.9914530102355105 0.1570307301342283 1.9700911852725127
-1.39211060905743 -0.22048865968541592 1.939960000386575
-1.2184607916515886 -0.19298523054313313 1.2336490586872737
-2.7298564560178713 -0.43236678695272357 2.0080796027741834
-2.996836185475426 -0.4746522219808555 1.5459981065944852
-3.0016305944355506 -0.4754115817606918 0.9874459997773452
-2.595402159802746 -0.411071318497461 -4.506925562675392e-15
-1.4156659574198291 -0.2242194603524441 -0.22701438412985275
-1.9662444598174433 -0.31142252830941375 -0.6468351668691034
0.9529561092708465 0.30963420954757614 1.96653052609951
-1.892415954829524 -0.6148832171895223 -0.6465264751928738
0.6101859260180329 0.19826142572737415 1.9746031355080096
-0.9801391660230977 -0.31846652009020326 -0.1632277268394752
0.2934404924428222 0.09534459566695637 1.9480549492948134
-2.922111986261722 -0.9494517389347057 1.565512036101746
-2.6447618230988437 -0.859335208169675 2.0204182485512407
-1.190728835424467 -0.3868912515018852 1.252006389760051
-1.3494165405833733 -0.4384520124580148 1.9528939635247782
-0.9348392383770794 -0.3037476813600861 1.9291443555262866
-0.5908104392455769 -0.19196594845090534 1.911902743215196
0.2749125722266337 0.14007495193544534 1.9480549492948134
-0.5546065825129103 -0.28258616824746235 1.9157026377150939
0.5667079008416558 0.28875209790838924 1.9575025877574581
-0.87500498941496 -0.4458373105415297 1.9273640966428784
0.8919779256569083 0.454485453509445 1.964750201091505
-1.2626440607649427 -0.6433492826127344 1.9504688350180566
0.9103574288287893 0.463850278124582 -0.3319763112934159
-1.7651394708958614 -0.8993834823285806 1.9810623412704589
-2.475609098773662 -1.26138583882516 2.01865558124223
-2.6090506639502946 -1.3293777123030246 1.4919954862440112
-1.143494483020553 -0.5826395404554523 0.4169934450317145
-1.0760863315308478 -0.5482933717680715 -0.19128404420568243
0.33708903263378104 0.24490951793262924 -0.30272481250143485
-2.4224938867069175 -1.760044832525592 0.97292885473069
0.8520582045154511 0.6190565219163656 -0.16681078739313293
-2.412921211763223 -1.7530898770722263 1.5196773041438716
1.0120032359809692 0.7352633894192201 1.7217227414841816
-2.204625673575076 -1.6017543101847718 1.9798772106416456
0.8242098184358725 0.5988234850932391 1.999467081223067
-1.612432468376239 -1.1715007618120075 1.9930761400408143
0.5195546169557155 0.377478524839863 1.976503216107861
-1.1540592739958315 -0.8384731423969704 1.9634029086214482
0.24948898403716954 0.18126435717185455 1.9470684321983074
-0.7985240906089641 -0.5801617114642238 1.937155560420491
0.07766563145999492 0.056427384220077474 1.8989999999999998
-0.5043213881048464 -0.3664109362408712 1.9185525698565287
0.21750894640600033 0.21750894640600066 1.9421358645745415
-0.4416660998912471 -0.44166609989125094 1.9223524943187984
0.4497419365162934 0.4497419365162942 1.9575025877574581
-0.6969735283359995 -0.6969735283360055 1.934485151557831
0.7065948303915295 0.7065948303915307 1.9611895602740514
-1.007023587391651 -1.0070235873916598 1.9601693775981912
0.9829366187241978 0.9829366187241995 1.913284141768305
-1.403321149986697 -1.403321149986709 1.9845958026762005
1.045102865750544 1.0451028657505457 1.477998646819406
-1.6112890098358288 -1.6112890098358428 1.6555773777037734
1.0465980230772856 1.0465980230772873 1.0753651269133797
-1.6222125153944247 -1.622212515394439 1.1689303271775189
0.3769342004644457 0.5188054187265212 1.9736530966763706
0.5884260730292044 0.8098990084512491 1.964750201091505
-1.1204096612838064 -1.542111601312276 1.906154768113018
0.8388183636051487 1.1545344302253444 1.9642112926828976
-0.8412349182764981 -1.1578605323848274 1.9698699956641448
0.987089476803171 1.3586121097592374 1.6793369227168187
-0.581494657705564 -0.8003587337165189 1.9416062578245818
1.0120032359809679 1.3929029574625298 1.2509047931222366
-0.36804381303813094 -0.5065688502069606 1.9271024237658856
1.0292919925699489 1.41669888945903 0.892248424283806
1.0422721573562244 1.4345645535955962 0.5761538783754472
0.4758416917273275 0.6549399014999125 0.12822016158685745
0.4246202321554853 0.5844396106050836 -1.239018094259056e-15
0.6028447519032805 1.1831494432740282 0.21031547727884542
-0.28496842401824674 -0.5592820227154645 1.9318523795517746
0.9667598798055985 1.8973730964073703 0.6919072682287509
-0.44913180318492507 -0.8814707952872167 1.9416062578245818
0.9521961620295788 1.868790190900942 1.0686747360205346
-0.6465489426113028 -1.2689237470922057 1.9601693775981912
0.9130195854355033 1.7919018301076817 1.4611485440802796
0.8801338550192082 1.7273599501114505 1.9386613938488568
0.6673473234985935 1.309742867919088 2.0232246958146654
0.4604569738297428 0.9036976941713665 1.9905652093817243
0.290854185944891 0.5708334809055934 1.97175302195674
0.13986214556402912 0.274494916206455 1.9450954015716135
0.19644904559730372 0.6046079935286155 1.956552566798349
-0.3068310736710995 -0.9443289441313668 1.9487274148801768
0.30739169693466994 0.9460543651202035 1.9522880122801118
-0.1940643906607901 -0.5972687802886711 1.9328023738525206
0.44044843092643765 1.3555608848369758 1.9617861420640201
0.6097797592732598 1.8767091264180102 1.9732887523117322
0.8071069089655936 2.484019646463826 1.8976221524533627
0.8393655632175433 2.5833015755864808 1.3839954555044252
0.855986528908972 2.634455648066946 0.900037499604621
0.8700438758862797 2.677719713435366 0.4459347377278415
0.37600968962472614 1.1572388315764022 -2.0869513406786557e-15
0.3805089048926384 1.1710859923366634 -0.19502710542449606
0.1510911637360454 0.9539520638924808 -0.31382147797141563
-0.09838657492052634 -0.6211883864281835 1.9356523630141225
0.179688599443197 1.1345091669043332 -0.18192844043793052
-0.1551859782992999 -0.9798057055435657 1.9469471208853009
0.35167261038546654 2.2203734764909875 -3.855686850720737e-15
0.6704219659182369 4.232877702787729 0.6787788600544478
0.6516554775381879 4.114390758353062 1.353510556358316
0.6247235999594342 3.9443495754971614 2.034798233223406
0.45463265475354375 2.8704376125709503 2.111490957018221
0.3216250753213737 2.0306608064678175 2.0559732488532023
0.22940092457805472 1.4483804350225622 2.018374180187258
0.15830789008654875 0.9995166808189669 1.9861143010161773
0.09983521143521071 0.6303347174169709 1.9641527625356823
0.04811988313192257 0.30381698501016513 1.9421358645745415
-1.0866372127932726e-15 0.6335617112030297 1.9499024483541445
3.239264352373488e-15 -0.6295489245679998 1.937552360989316
-1.704547873276338e-15 0.9938333187066125 1.9505077120146435
5.106642518770708e-15 -0.9924726592597171 1.947837267489752
-2.443595740598383e-15 1.4247337387997938 1.9609777595693325
1.153143729777285e-15 -0.22411273548010777 0.30846471726215835
-3.366255066444715e-15 1.9626884622884007 1.9626884622883973
7.827747695912108e-15 -1.52131768441198 1.1053019963319393
-4.648863545733099e-15 2.7105108388593195 1.9693013970507771
-6.6370100787315205e-15 3.8696958039415765 1.9717084939100307
-9.762239118686364e-15 5.691854510770146 1.8493956386413242
-8.617261745303067e-15 5.024277682525191 0.795767408781803
-6.9049998332949916e-15 4.0259467085555105 -0.6376473162109815
-3.4942365173561047e-15 2.037307798058464 -0.6619614308780922
-0.6202199910206974 3.9159149077386206 -0.6279511112250046
0.09853143646598211 -0.6221030062301782 1.9385023615325627
-0.3261988704873658 2.059538612624868 -3.57639650776182e-15
0.15539883214430145 -0.9811496118297778 1.9496175630554986
-0.8832951194259345 5.576905898180497 0.8943055041974882
-0.8753776022402461 5.526916662056892 1.8181890067245627
0.21596218415125185 -1.3635315672974437 1.380528159799718
-0.6668085596426552 4.210063553442045 2.1718738961473414
0.042314046450080696 -0.26716037486621674 -0.13782182546448513
-0.4375536459896443 2.76260499511867 2.0321693944714703
-0.3211828534061649 2.0278687271808007 2.0531463659466636
-0.2288496349235932 1.4448997291316492 2.013523681844995
-0.15795312149256863 0.9972767600713436 1.9816634111857532
-0.09940061560973255 0.6275907873655727 1.9556025468459244
-0.19578133574700998 0.6025529939147491 1.9499024483541445
0.062307704178537426 -0.19176339538946646 -0.1464941984813837
-0.30669091816375116 0.9438975898337328 1.947837267489752
0.4175812660463871 -1.2851829879437389 1.859934292857438
-0.43790753718485304 1.3477408179987724 1.9504688350180566
0.3085129493507272 -0.9495052252220963 1.959409244481318
-0.6010446871638143 1.8498253387907082 1.9450214651771822
0.19492285901330172 -0.5999108742043594 1.9413523693666332
-0.8283477530602771 2.5493922426497084 1.9475623720737358
-1.1908469315760848 3.6650499966073546 1.963538669831654
-1.6724870323786305 5.147385805690769 1.7585569350744732
-1.6096521184085117 4.953999825405112 0.8250156286938534
-1.5784285888909309 4.857903682636348 -8.760688223324955e-15
0.28665004323673066 -0.5625823862599049 1.9432523797444556
-1.4048688150600344 2.7572102952933815 -5.307434681111358e-15
0.4526322530885038 -0.8883408150419505 1.9567387765858337
-2.252730159193806 4.4212318765020315 0.7859138146520761
0.6385498401183033 -1.2532246245047975 1.9359181651660013
-1.7267165280770174 3.3888719980333155 1.235806057846998
0.42167173356586135 -0.827577374170916 -0.4732532502497287
-1.9537574908860078 3.8344649768222423 2.1927532939960255
-1.2999362492358042 2.551268539237138 2.0803496313412193
-0.9269754521981564 1.8192917608294799 2.04183887709094
-0.6617476614594161 1.298752912373709 2.006247967015494
-0.45613275482477733 0.8952109365241083 1.9718715194209755
-0.2873507243748788 0.5639575504226492 1.948002423643902
-0.3713096153124672 0.5110638414131835 1.9442023864753655
-0.5809614784937388 0.7996248754889802 1.9398259764745913
0.5866326043615416 -0.8074305106021346 -0.32428252812751196
-0.8284618253879603 1.1402798782645287 1.939960000386575
0.894903480939271 -1.2317289717315165 1.5225007389160752
-1.1382704611212908 1.566694883293722 1.9365413757521401
0.8067137812924251 -1.1103462635658161 1.8890338933058628
-1.5670551610025591 2.1568663919849542 1.9369867034910293
0.58762628631968 -0.8087981964840145 1.9620797193259871
-2.064594736756946 2.8416708687721868 1.7897073075022751
0.37167248618168874 -0.511563290317042 1.9461024030136547
-1.920414343312409 2.6432235819487064 1.0615789399899667
-2.0263008050276308 2.7889637934762 0.5460064159176321
-1.9399243843230847 2.6700768496634515 -5.660590880159733e-15
-0.2519209406218277 0.34673942805997376 -0.31139140756426775
-3.7775483154635543 3.7775483154635343 0.8461308697105239
0.4471227107766282 -0.4471227107766228 1.9461024030136547
-3.734942249115791 3.7349422491157713 1.7162277796201524
0.7053119754651939 -0.7053119754651854 1.957628931777108
-2.486230812140355 2.486230812140342 1.791522731513024
1.0049470879431468 -1.0049470879431346 1.9561274756183968
-2.0229826241933804 2.02298262419337 2.0785869249139832
1.1869709347747397 -1.1869709347747253 1.6786303941010943
-1.4393006114081985 1.439300611408191 2.0354784449853534
1.2042979532798175 -1.2042979532798028 1.2373996441942754
-1.0228052002722423 1.022805200272237 1.9908882551745903
-0.7075569745006641 0.7075569745006605 1.963860039735759
-0.44624964302200426 0.446249643022002 1.9423023740410421
-0.5095655011870424 0.37022100741675007 1.9385023615325627
0.5115632903170464 -0.3716724861816826 1.9461024030136547
-0.7941209808563588 0.576962664973472 1.926473968417544
0.8084312597950082 -0.5873596912100166 1.9611895602740514
-1.1374290018606303 0.8263905424384315 1.9351097997515911
1.1621369712873797 -0.8443419330076158 1.9771455080827909
-1.5632646288939331 1.1357782354179533 1.9323013481338756
1.4186315422183888 -1.030696146991479 1.7535250212072808
-2.160137547664864 1.5694317947197212 1.9399243843230745
1.439327283432545 -1.0457324831321566 1.2925964354310056
-3.054259825768232 2.2190496549988508 1.9235975528544682
1.4203318107905905 -1.0319314644182145 -3.0111183114356107e-15
-2.533372163383689 1.8406026159631839 -0.4959682367875296
1.3722935265135514 -0.6992184759351002 1.540161030541935
-0.5492397991955034 0.2798516555653166 -0.20028902580279923
1.2736335439455282 -0.6489487039700165 1.9674448341319224
-2.593348993236349 1.3213773114746652 -4.992013271683806e-15
0.8927861762969947 -0.45489727778013084 1.96653052609951
-2.6449800050791517 1.3476846259917212 0.47016903513209424
0.563132451035654 -0.28693031523883616 1.9451523942322664
-2.9576890550325166 1.5070178452301841 1.0785683417839744
-2.94235939806627 1.4992069948738618 1.6825993459919024
-2.535415943178263 1.291858948103236 2.0674231432590373
-1.8148839474076524 0.9247295590831004 2.036891872437021
-1.2877630964107853 0.656148070541038 1.9892714538362477
-0.8903614285528012 0.4536618070958644 1.9611895602740514
-0.5603821390906085 0.2855289613087897 1.9356523630141225
-0.596975215905181 0.19396900581048307 1.9318523795517746
0.6013787153251443 -0.1953997895043768 1.9461024030136547
-0.937858669897682 0.3047287541325493 1.9353752870444985
0.9516620249628321 -0.3092137360673088 1.963860039735759
-1.3360108532493318 0.4340962406016344 1.933493070557927
1.2952365855317747 -0.4208478779207212 1.8744839959705215
-1.8464648984192857 0.5999528138991124 1.9414880890698227
-2.5417012737295765 0.8258488057749966 1.94168699463159
-2.91872371132937 0.9483508216729101 1.5636967787765073
-2.92646899486407 0.9508674168462427 0.99980116907285
-2.5049845882568134 0.8139188314845075 0.4171682494518669
-2.2672557025412967 0.7366760341520351 -4.088743134927801e-15
-2.046008252221424 0.6647883798017978 -0.3407325078743357
-1.940305660105579 0.630443525680487 -0.662887551768631
-2.0863616998776173 0.33044723014965727 -0.6863501186495097
1.2656626111373566 -0.20046126430467257 1.763749822475495
-2.412348836301372 0.3820785203051307 -0.3868411771216414
0.9919009887127992 -0.15710168295462393 1.970981351967439
-2.5184154702732506 0.39887782476387385 -4.3732378882177964e-15
0.6242371307048816 -0.0988694485764827 1.9451523942322664
-2.4776612579848547 0.39242299165970906 0.39731459361285654
-3.173457783132206 0.5026263348749269 1.043971966179084
-3.13319002887267 0.49624854915340455 1.616339883946447
-2.8416819508063913 0.4500782053587968 2.0903383217848215
-2.0083242909478143 0.31808731881193375 2.033358305857576
-1.4269162830820463 0.22600133688591248 1.9884630539190555
-0.9869732465744746 0.15632120527398527 1.9611895602740514
-0.6202737696289784 0.09824171385067393 1.9328023738525206
-0.6283142323893216 -2.1552742666391485e-15 1.9337523691975187
-0.9892978012592673 -3.3935377923694908e-15 1.9416062578245818
-1.397129935883499 -4.792503563877706e-15 1.922984384299095
-1.2054086444023877 -4.134851795709538e-15 1.2054086444023857
-2.6781636067654424 -9.186768030959452e-15 1.9457997572713155
-2.9397841767858512 -1.008419172935988e-14 1.4978948540934154
-3.053305735778206 -1.0473598943445357e-14 0.9920791721752401
-3.0307237250995733 -1.039613702392215e-14 0.48001948097818503
-2.4937409420356738 -8.554152369898317e-15 -0.39496976341870704
-2.1142687979736228 -7.25246842762443e-15 -0.6869675755923065
-0.6286229049270394 -2.156333090302639e-15 1.9347023655852311
-0.9888442517292779 -3.3919820045483002e-15 1.940716116752258
-1.4012410853575425 -4.806605830245315e-15 1.928642896107523
-1.2110565635014747 -4.15422556454497e-15 1.2110565635014727
-2.691102460800843 -9.231151522061112e-15 1.955200384991688
-2.942456065670358 -1.0093356973531094e-14 1.4992562494782928
-3.053305735778206 -1.0473598943445357e-14 0.9920791721752401
-3.0267749082136346 -1.0382591598752375e-14 0.47939404982576156
-2.504597691526714 -8.591393723971111e-15 -0.3966893036105892
-2.1133186290403105 -7.249209111592164e-15 -0.6866588469911248
-2.0873001698656166 0.3305958691934679 -0.6866588469911248
1.2592828018400601 -0.19945080177974303 1.7548593113578266
-2.419172400929418 0.3831592667697621 -0.3879353952268994
0.9919009887127992 -0.15710168295462393 1.970981351967439
-2.611194687672966 0.4135726091854759 -4.534349346418776e-15
0.6242371307048816 -0.0988694485764827 1.9451523942322664
-2.5673479645023973 0.4066279704760407 0.41169663927694977
-3.1687629454146395 0.5018827456306157 1.0424275060671675
-3.125272585175387 0.4949945492646094 1.612255458836929
-2.8257066744424617 0.44754797015286607 2.0785869249139832
-2.0083242909478143 0.31808731881193375 2.033358305857576
-1.4251759677636886 0.22572569801822623 1.9860378571827417
-0.986077298475691 0.15617930103579958 1.959409244481318
-0.6199688980321605 0.09819342693344109 1.9318523795517746
-0.5966816518448592 0.19387362106517844 1.9309023862968229
0.6010851464668899 -0.19530440320012935 1.9451523942322664
-0.932251169499692 0.30290676680660855 1.9238035886205282
0.9516620249628321 -0.3092137360673088 1.963860039735759
-1.3326594651297858 0.4330073085918729 1.928642896107523
1.2924439059394452 -0.4199404813159057 1.8704423920966273
-1.8464648984192857 0.5999528138991124 1.9414880890698227
-2.557083231063461 0.8308467066793898 1.953437764407676
-2.91194717064923 0.9461489901336091 1.5600662690466376
-2.9156196897114484 0.9473422639117146 0.9960946039275311
-2.4984134295071088 0.8117837325796552 0.4160739198478703
-2.291013029323884 0.7443952575535393 -4.1315868277136045e-15
-2.061961760668092 0.6699719889201381 -0.3433893294861378
-1.9366912577158404 0.6292691351539497 -0.6616527244934737
1.3678875687712349 -0.6969735283359929 1.535216108565825
1.271016986762851 -0.647615501495385 1.9634029086214482
-2.5888963887226244 1.3191085961583888 -4.983442323121139e-15
0.8927861762969947 -0.45489727778013084 1.96653052609951
-2.6511371264180474 1.3508218360095139 0.4712635189442746
0.5634074838686367 -0.28707045146668736 1.9461024030136547
-2.9432887732130655 1.4996805351632818 1.0733170500510587
-2.9209315418175668 1.4882889567870397 1.6703457453835706
-2.567121207821435 1.3080135873218877 2.0932761785619065
-1.8142542607456156 0.9244087177035855 2.0361851585747286
-1.2877630964107853 0.656148070541038 1.9892714538362477
-0.8907655523056373 0.45386771843267953 1.9620797193259871
-0.5601071095442371 0.28538882675555055 1.9347023655852311
-0.5095655011870424 0.37022100741675007 1.9385023615325627
0.5115632903170464 -0.3716724861816826 1.9461024030136547
-0.8003587337165182 0.581494657705565 1.9416062578245818
0.8080643234234127 -0.5870930963309804 1.9602994019921456
-1.130777001902712 0.821557581572714 1.9237927414688691
1.1616618102034098 -0.8439967082724584 1.9763371157624376
-1.5666948832937284 1.138270461121282 1.9365413757521401
1.412915233636285 -1.0265430057033786 1.7464592752194352
-2.16798833837483 1.5751357280489808 1.9469748336571664
1.4327884663989254 -1.0409817544743862 1.2867242118673452
-3.0499359010773617 2.21590813982304 1.9208743100956456
1.487384289766893 -1.080647942002683 -3.1532702689843976e-15
-2.543926248900154 1.8482706079351012 -5.393150285595027e-15
-2.5046194654796174 1.8197125581409852 -0.49033920798217634
-0.48956999922976263 0.35569342487597205 -0.19662248944149666
-3.7943073137901426 3.794307313790123 0.8498847080854047
1.2071552917823365 -1.207155291782322 1.2403355203507787
-3.74570062235036 3.745700622350341 1.721171314962114
1.1889693015381093 -1.1889693015380949 1.6814565114804472
-2.4900099155955666 2.4900099155955537 1.7942458695707182
1.0066082869620205 -1.0066082869620085 1.9593609961512444
-2.0229826241933804 2.02298262419337 2.0785869249139832
0.7072362595208179 -0.7072362595208094 1.962969879146905
-1.4363022836436674 1.43630228364366 2.031238169196314
0.4471227107766282 -0.4471227107766228 1.9461024030136547
-1.0240511331139441 1.0240511331139388 1.993313460932852
-0.7081984052888942 0.7081984052888907 1.965640363213102
-0.44624964302200426 0.446249643022002 1.9423023740410421
-0.37149105064924726 0.5113135657304622 1.9451523942322664
0.37185392190950217 -0.5118130151725319 1.9470524128180329
-0.580694889245141 0.7992579468670181 1.9389358369926766
0.586026719127313 -0.8065965811198619 1.9567387765858337
-0.826735755683386 1.1379041471296794 1.9359181651660013
0.804297391796462 -1.1070203887507561 1.8833755771060459
-1.1436703064497376 1.574127132777137 1.9457281413393788
0.8986404189696987 -1.2368724256745185 1.5288583976287649
-1.573234415000525 2.165371405469754 1.9446246814827526
0.5788396258895939 -0.7967043959267248 -0.31997467557765774
-2.0509820688232985 2.822934638738937 1.7779070782167354
-1.9232083382982794 2.647069186133146 1.0631234224323973
-2.0129532714173974 2.770592489532194 0.5424097934567511
-1.943449606292569 2.6749289014478976 -5.670877280749498e-15
-0.2533240392431344 0.34867062763497836 -0.3131257328393391
-0.43439678955330374 0.8525517027350196 -0.1515487492175438
0.44906856558205943 -0.8813466845034654 -0.5040014336495686
-1.4080452223888689 2.7634443456867155 -5.3194347869131735e-15
0.6356168760276769 -1.247468358368265 1.9270261756859457
-2.2155197754497933 4.3482023864521535 0.7729321645802404
0.4540736299473834 -0.8911696764075796 1.962969879146905
-1.6796674719388496 3.296533026182446 1.2021331835528697
0.28679017916211486 -0.5628574184992625 1.9442023864753655
-1.9440512143515567 3.815415336526391 2.181859685171677
-1.3025063073784844 2.5563125623477205 2.0844626172763316
-0.9276171370531101 1.8205511382670356 2.0432523094321935
-0.6628142583245038 1.300846226586269 2.009481613187342
-0.45675049571610565 0.8964233212871094 1.974542026322985
-0.2873507243748788 0.5639575504226492 1.948002423643902
-0.1958767225633272 0.6028465643489922 1.950852462235539
0.19492285901330172 -0.5999108742043594 1.9413523693666332
-0.307952322164786 0.9477797921614448 1.9558486221698554
0.3078121656734855 -0.9473484348355287 1.9549584685302321
-0.4362741178319825 1.3427136701471394 1.9431934783005846
0.41994048131592243 -1.29244390593944 1.8704423920966273
-0.6045386978018145 1.8605787978099964 1.9563283211158582
0.0620770690351931 -0.1910535734057016 -0.1459519427377111
-0.8345951488596192 2.5686197498515613 1.9622508805380847
-1.1944254224386304 3.676063459022943 1.9694390966639657
-1.665728467739982 5.126585082567465 1.7514505596668617
-1.6102624422720202 4.955878209112177 0.8253284458052036
-1.579355476224691 4.860756348524278 -8.765832688526849e-15
-0.635203129783976 4.010514722799855 -0.6431210166976665
0.04191756083096164 -0.264657063187957 -0.13653042517588665
-0.35636141962203666 2.2499774529103544 -3.907094266553138e-15
0.21529929422796343 -1.3593462450402192 1.3762906669740937
-0.8834496061403784 5.577881288907814 0.8944619166082602
0.2101070659991816 -1.3265638061962104 1.848617994315602
-0.6903289904785048 4.358565709257698 1.4338367560457748
0.15589549329864374 -0.9842854069452867 1.9558486221698554
-0.6615130378216454 4.1766289445236495 2.1546257588173505
0.0985797237531239 -0.622407880162509 1.9394523631108778
-0.43768015534627014 2.7634037437606866 2.03275695315143
-0.32250952113977693 2.036244977593364 2.0616270273742514
-0.22848210958572987 1.442579265473033 2.010290025948131
-0.15816598247111577 0.9986207113970611 1.9843339428528082
-0.09949719210304646 0.6282005473465153 1.9575025877574581
-1.0924608811703488e-15 0.6369571897114223 1.9603526566602567
3.239264352373488e-15 -0.6295489245679998 1.937552360989316
-1.7076594833189776e-15 0.9956475368835731 1.9540683156680247
5.1043088225353506e-15 -0.9920191069109683 1.9469471208853009
-2.4466177452412955e-15 1.4264957127229076 1.9634029086214482
1.1472908567482988e-15 -0.22297523340549888 0.3068990799721683
-3.389284121084041e-15 1.9761155077575818 1.9761155077575785
7.644833687039184e-15 -1.485768465500595 1.0794739769554458
-4.6724425119829685e-15 2.724258509222333 1.9792896642305051
-6.655343855950389e-15 3.8803852770526093 1.9771550525017882
-9.754084267249432e-15 5.687099840517591 1.8478507526271761
-8.613874331976596e-15 5.022302657780591 0.7954545955930024
-6.005768209914836e-15 3.5016514613753498 -0.5546071069215364
-3.4942365173561047e-15 2.037307798058464 -0.6619614308780922
0.15420179411136056 0.9735918111362213 -0.32028236289457085
-0.15554073502014268 -0.9820455513271281 1.951397861756538
0.17953461871420107 1.1335369708434042 -0.1817725403197787
-0.09838657492052634 -0.6211883864281835 1.9356523630141225
0.3512037356689156 2.217413118039171 -3.850546177191288e-15
0.6796902374716195 4.291395266346319 0.6881626617785807
0.6592413547000048 4.162286101773623 1.3692666808315503
0.6311338139288846 3.9848220736561704 2.0556770539698426
0.45387357756322644 2.865644987810829 2.107965507171459
0.32483120388256936 2.0509035055273097 2.0764682757027595
0.22940092457805472 1.4483804350225622 2.018374180187258
0.15844979793836578 1.0004126517333212 1.9878946621451532
0.09993178884355355 0.6309444831751789 1.9660528214494477
0.048144325706467775 0.3039713093522225 1.9431223757120817
0.1967352084808267 0.6054887123241847 1.9594026326898728
-0.1940643906607901 -0.5972687802886711 1.9328023738525206
0.30739169693466994 0.9460543651202035 1.9522880122801118
-0.30599014248666667 -0.9417408240691407 1.943386542348836
0.4397224589204967 1.3533265727458412 1.9585526152291404
0.6089062452841165 1.8740207267941316 1.9704620016635672
0.8103554775529038 2.4940177125243754 1.9052599952800888
0.8445943717423317 2.5993941935022633 1.3926170234518513
0.8609800046659332 2.649823986197429 0.9052879507307153
0.8758396454465528 2.6955572579962803 0.4489053177760702
0.3683088503353687 1.1335380852731143 -2.044209684485393e-15
0.3805089048926384 1.1710859923366634 -0.19502710542449606
0.5778011690267977 1.133998644425154 0.20157847978685292
-0.28482829008070726 -0.5590069943774717 1.9309023862968229
0.9732305231672628 1.91007244904635 0.6965382890908827
-0.44871998901319193 -0.8806625644674576 1.9398259764745913
0.9457294473815441 1.8560985487966049 1.0614169724997509
-0.6465489426113028 -1.2689237470922057 1.9601693775981912
0.9221949547135017 1.8099095062445707 1.4758323226933654
0.881096324386405 1.729248902602738 1.9407814147914735
0.6686805866512563 1.312359544189107 2.0272668052852563
0.461074725584429 0.9049101002549076 1.9932357632462585
0.29099432631591937 0.571108521870019 1.9727030588254746
0.13986214556402912 0.274494916206455 1.9450954015716135
0.3754826770580303 0.5168075681527904 1.9660528214494477
-0.36804381303813094 -0.5065688502069606 1.9271024237658856
0.5873596912100206 0.8084312597950054 1.9611895602740514
-0.5796285346405313 -0.7977902356684338 1.9353752870444985
0.8384731423969642 1.154059273995836 1.9634029086214482
-0.8384731423969606 -1.1540592739958389 1.9634029086214482
0.9916576537038342 1.3648996658548243 1.6871087694633071
-1.116256038096755 -1.536394629453169 1.8990882022697082
1.0148535093339761 1.3968260221740112 1.2544279247410108
1.0334767754861858 1.4224587490060354 0.895876030434379
1.0461801051922168 1.4399433823432009 0.5783141388086792
1.0528497289435634 1.4491233318908996 0.2837005767228571
0.4531824295174961 0.6237521026630849 -1.3223609890704628e-15
1.0248902722333324 1.0248902722333342 1.0530607103880412
-1.6303973268750112 -1.6303973268750251 1.1748281206362026
0.9851700360851419 0.9851700360851435 1.3932408262751979
-1.6158628496398748 -1.6158628496398888 1.6602769354259423
0.9717240476137204 0.971724047613722 1.8914588947630906
-1.4053199813565542 -1.4053199813565664 1.9874225771083494
0.7200650705833183 0.7200650705833195 1.9985768907529369
-1.010761303337141 -1.0107613033371499 1.9674448341319224
0.45388911172614826 0.4538891117261491 1.9755531753189772
-0.698577060897901 -0.698577060897907 1.9389358369926766
0.21806136789539837 0.21806136789539876 1.9470684321983074
-0.4416660998912471 -0.44166609989125094 1.9223524943187984
0.07766563145999492 0.056427384220077474 1.8989999999999998
-0.5043213881048464 -0.3664109362408712 1.9185525698565287
0.24898335331180765 0.18089699494641295 1.9431223757120817
-0.7952217538046664 -0.5777624233341042 1.9291443555262866
0.5145600062189056 0.3738497277287384 1.9575025877574581
-1.1493077286261575 -0.8350209426121552 1.9553190968021787
0.810265946405621 0.5886926690581971 1.965640363213102
-1.6078586398851067 -1.1681776808973972 1.9874225771083494
1.0557091467856798 0.7670175923440515 1.7960796781957602
-2.1941578119126013 -1.5941489635097068 1.9704764851588132
0.8512623957129666 0.6184783329771996 -0.16665498877250662
-2.384820174334066 -1.7326732782988732 1.5019790433818545
0.3383751961154961 0.24584397040006267 -0.303879859272925
-2.4148032667629735 -1.7544572700695902 0.9698401261707174
0.8968541287494061 0.45697000308197605 -0.3270521182142107
-1.0839823932111161 -0.5523166161449459 -0.1926876403366272
0.9085473364392616 0.46292798998618134 2.0012474643422977
-1.953251377853389 -0.9952312862763701 0.7122841720342504
0.5724837309490677 0.2916950303400717 1.9774532578732522
-2.6122248809580126 -1.330995056650675 1.4938106742406687
0.2750517912352099 0.14014588756336832 1.949041467577685
-2.4835352438576055 -1.2654244114618143 2.0251187005688496
-1.769547144767929 -0.9016293043394707 1.9860091893040157
-1.2668305128509996 -0.6454823864936696 1.956935854962065
-0.8770255437187887 -0.44686683438141594 1.9318147499164335
-0.5546065825129103 -0.28258616824746235 1.9157026377150939
0.2935890942113886 0.09539287930845862 1.949041467577685
-0.5908104392455769 -0.19196594845090534 1.911902743215196
0.6066630083856988 0.1971167604004226 1.963202734570644
-0.9313884830306717 -0.30262646298115725 1.9220233394996367
0.9533874714477524 0.3097743676150628 1.9674206897496902
-1.3443893827682512 -0.4368185898678103 1.9456185923880094
-1.187371302816598 -0.3858003230268443 1.2484760710562286
-2.6355323867167035 -0.8563363825039892 2.013367586549296
-2.928041474719655 -0.951378346523274 1.568688740345958
-1.140182064848706 -0.3704676101608544 -0.18988051195171565
-1.8888017388471625 -0.6137088872304134 -0.6452917116020793
0.9919009887127982 0.15710168295463095 1.970981351967439
-1.7044846776285754 -0.26996385170795634 -0.560724087676297
0.6342982175127273 0.10046296817960443 1.976503216107861
-1.1131222004397936 -0.17630123672947745 -0.17849885382188874
0.304897259321742 0.048290981774159185 1.949041467577685
-1.2756712817616689 -0.20204648199991085 -2.215207954431041e-15
-2.9950768119039184 -0.47437356458241053 1.5450904866773452
-2.7386426194198554 -0.43375837852574667 2.0145426955405705
-1.2100927634353018 -0.1916598650774766 1.2251767219466736
-1.3973313736029556 -0.2213155475560252 1.9472353377942926
-0.9690545848317214 -0.15348316806250192 1.9255838410046227
-0.6123472184900822 -0.09698627148484067 1.9081028659773374
0.3045886085876636 0.048242096300386415 1.9470684321983074
-0.6123472184900822 -0.09698627148484067 1.9081028659773374
0.629115189736217 0.09964205722603532 1.9603526566602567
-0.9659188853675761 -0.15298652205784732 1.9193529719566698
0.990109077099463 0.15681787203664183 1.9674206897496902
-1.3915305260416801 -0.22039678356162465 1.9391516322582552
-1.21706610806371 -0.19276433436363716 1.232236990193038
-2.7298564560178713 -0.43236678695272357 2.0080796027741834
-2.9977158725693394 -0.4747915507288857 1.5464519167120274
-1.2746863276299503 -0.20189048059101322 -2.2134975778955438e-15
-1.1170105267886965 -0.17691708712204762 -0.1791223808670689
-1.7082368167018052 -0.27055813215508967 -0.5619584283461109
0.9520933860278817 0.30935389377353895 1.964750201091505
-1.3198238877799653 -0.4288367766984054 -0.45090567106247237
0.6098923478737402 0.19816603640591 1.9736530966763706
-1.1458005808629756 -0.37229317667749057 -0.1908161929539773
0.2934404924428222 0.09534459566695637 1.9480549492948134
-2.922111986261722 -0.9494517389347057 1.565512036101746
-2.6447618230988437 -0.859335208169675 2.0204182485512407
-1.1914003453031998 -0.3871094382877005 1.2527124570307413
-1.3494165405833733 -0.4384520124580148 1.9528939635247782
-0.9344078925808756 -0.3036075286150123 1.9282542256795003
-0.5908104392455769 -0.19196594845090534 1.911902743215196
0.2747733533854792 0.140004016392828 1.9470684321983074
-0.5543315593910209 -0.28244603696766024 1.9147526624774234
0.5669829374911732 0.28889223608086206 1.9584526097217871
-0.8746008796571082 -0.4456314063355151 1.926473968417544
0.891169676407582 0.45407362994737854 1.962969879146905
-1.2626440607649427 -0.6433492826127344 1.9504688350180566
0.9120454562106107 0.4647103710350634 -0.3325918773181808
-1.7651394708958614 -0.8993834823285806 1.9810623412704589
-2.475609098773662 -1.26138583882516 2.01865558124223
-2.6098442178934977 -1.329782048232633 1.4924492830666292
-1.2686229235452118 -0.6463956653583166 0.46262352043705923
-1.0874918672562968 -0.5541047824853056 -0.19331148097908013
0.3364460169982487 0.2444423397272426 -0.30214734848197067
-2.419417635990767 -1.7578098055535016 0.9716933622068277
0.8504665930011199 0.617900148463141 -0.16649919134426847
-2.3884228560515406 -1.735290779781486 1.504248041479849
1.0115281920097765 0.7349182497714761 1.7209145484079862
-2.20397143103142 -1.601278975153175 1.9792896642305051
0.8242098184358725 0.5988234850932391 1.999467081223067
-1.613004197999719 -1.171916147697986 1.9937828367201857
0.5190551512122775 0.37711564173597356 1.9746031355080096
-1.1540592739958315 -0.8384731423969704 1.9634029086214482
0.24948898403716954 0.18126435717185455 1.9470684321983074
-0.7977902356684289 -0.5796285346405382 1.9353752870444985
0.07766563145999492 0.056427384220077474 1.898
-0.5045711049990863 -0.36659236618449786 1.9195025493745121
0.21750894640600033 0.21750894640600066 1.9421358645745415
-0.4416660998912471 -0.44166609989125094 1.9223524943187984
0.4495236664263568 0.44952366642635766 1.956552566798349
-0.6969735283359995 -0.6969735283360055 1.934485151557831
0.7059534023719789 0.7059534023719801 1.959409244481318
-1.0074388880905933 -1.0074388880906018 1.9609777595693325
0.982521334503004 0.9825213345030057 1.9124757918710675
-1.4043205652556636 -1.4043205652556756 1.9860091893040157
1.0471007592395298 1.0471007592395316 1.4808240948877067
-0.5240335374784715 -0.5240335374784759 0.5384372787944701
1.0454554781900345 1.0454554781900363 1.074191177698312
-1.6392118025427773 -1.6392118025427913 1.1811796361302838
0.37675275938022396 0.5185556864985678 1.9727030588254746
0.5868265016828796 0.807697387369664 1.959409244481318
-1.1199942980815873 -1.5415399029103127 1.9054481100255636
0.8388183636051487 1.1545344302253444 1.9642112926828976
-0.8419253644575002 -1.158810850025417 1.9714867726024623
0.9891659165884222 1.3614700839386042 1.6828695730804553
-0.5817612476681421 -0.8007256633211904 1.9424963996904714
1.0110531484938992 1.3915952742224629 1.2497304204036477
-0.3682252448034145 -0.5068185696084961 1.9280524128221883
1.028245803179652 1.4152589332968368 0.8913415282409601
1.0422721573562244 1.4345645535955962 0.5761538783754472
1.0487916082030526 1.4435378078725714 0.28260707670776075
0.806654046101887 1.1102640451295602 -2.3537714014567726e-15
0.9807016426725224 1.9247353466752568 0.34213905552902746
-0.28496842401824674 -0.5592820227154645 1.9318523795517746
0.9689167521425235 1.9016061967148528 0.6934509355630428
-0.44892589600714855 -0.8810666796969537 1.940716116752258
0.953812852182554 1.871963123979318 1.0704891897973439
-0.6465489426113028 -1.2689237470922057 1.9601693775981912
0.9144876353719287 1.7947830403355165 1.463497934018308
0.8766048117590607 1.7204338127347032 1.9308880081454731
0.6670806713390128 1.3092195335893793 2.022416275348352
0.46066289091125634 0.9041018291988078 1.9914553932681123
0.2907140457189511 0.57055844022592 1.970802986071587
0.13979121027810829 0.2743556978690958 1.9441088880450452
0.19644904559730372 0.6046079935286155 1.956552566798349
-0.3068310736710995 -0.9443289441313668 1.9487274148801768
0.3072515409339941 0.9456230093042869 1.951397861756538
-0.1940643906607901 -0.5972687802886711 1.9328023738525206
0.440629924221782 1.3561194637641647 1.9625945250816077
0.6097797592732598 1.8767091264180102 1.9732887523117322
0.8078565776175836 2.486326889332392 1.8993847291643455
0.8390903636592749 2.58245459843656 1.3835416902385018
0.8562802619054406 2.6353596652745024 0.9003463487544201
0.8697388365898012 2.676780899014403 0.4457783920279958
0.5230806160361651 1.6098766005900034 -2.9032331427660795e-15
0.3811175203107332 1.172959117989405 -0.19533904688442388
0.14901772879085431 0.9408609108667004 -0.3095148831786574
-0.09838657492052634 -0.6211883864281835 1.9356523630141225
0.17953461871420107 1.1335369708434042 -0.1817725403197787
-0.15511502714298947 -0.9793577375729428 1.9460569750679024
0.3515163186861584 2.219386689537749 -3.853973291483813e-15
0.670267495250179 4.231902413373306 0.678622463890082
0.6509117663516406 4.109695150722519 1.3519658429682342
0.6162231455491747 3.890679818588959 2.007111253546769
0.45298798865874135 2.8600535995237566 2.103852487695395
0.32250952113976994 2.036244977593365 2.0616270273742514
0.229033397922583 1.446059963044894 2.015140512697473
0.15830789008654875 0.9995166808189669 1.9861143010161773
0.09983521143521071 0.6303347174169709 1.9641527625356823
0.048095440587041294 0.30366266085539845 1.9411493546342478
-1.0861077917794507e-15 0.6332530333117198 1.9489524354897698
3.239264352373488e-15 -0.6295489245679998 1.937552360989316
-1.7123269187738296e-15 0.9983688760378842 1.959409244481318
5.106642518770708e-15 -0.9924726592597171 1.947837267489752
-2.4496397557340557e-15 1.428257690056764 1.9658280623680482
1.150217039914369e-15 -0.22354393520470178 0.30768183084673056
-3.373527379286894e-15 1.9669285701316166 1.966928570131613
7.74044638530432e-15 -1.5043507313548024 1.0929747833652292
-4.66550751179631e-15 2.72021507086616 1.9763519343053777
-6.6446491495758206e-15 3.8741497493238395 1.9739778924329516
-9.758977177900955e-15 5.689952642546314 1.8487776841957615
-8.618955452144241e-15 5.025265195001239 0.7959238153926352
-6.906693371995436e-15 4.0269341229974325 -0.6378037072947338
-3.5023842439707175e-15 2.0420583141972393 -0.6635049671388527
-0.620683384036318 3.918840656092885 -0.6284202804928541
0.09853143646598211 -0.6221030062301782 1.9385023615325627
-0.32698021543140116 2.0644718304487553 -3.584963058973449e-15
0.15539883214430145 -0.9811496118297778 1.9496175630554986
-0.8834496061403784 5.577881288907814 0.8944619166082602
