1.0612151178354257 -0.16807996250229326 -0.4450489859361226
-1.3719408916097304 0.21729409027594765 -0.7077524060434169
0.9305218352437021 -0.1473801800848276 -0.480034578601225
-1.1372435499038256 0.18012168316420227 -0.7055907365153247
0.8275739837206862 -0.131074842238742 -0.5134595282987374
-0.9619314670147262 0.15235497703368417 -0.7075957982774922
0.7343552353508344 -0.11631044295042989 -0.5401909562122413
-0.8046010208693198 0.12743628237493496 -0.6957601534656205
0.6543883113774491 -0.10364492645243106 -0.5658671815481446
-0.12203448032781902 0.01932836286701682 -0.12355565547557942
0.5766002381223566 -0.09132450600599974 -0.5837876326199466
-0.1005914962631012 0.015932127837038616 -0.11924562122834846
0.19594870621408997 -0.03103522616603425 -0.2322862873047985
0.1740406976952499 -0.02756533849815275 -0.2425324466112378
-0.07922947042261169 0.012548715330094476 -0.11040933275822636
0.1512917814930728 -0.023962264137481308 -0.24996321079322437
-0.44811180168137826 0.07097393691212313 -0.7403671477537771
-0.08099196803789328 0.012827867528464173 -0.1609370899700285
0.1289159078281448 -0.020418273910289313 -0.2561655378839427
0.1075992647786705 -0.017042049331300563 -0.2630056401936641
-0.11869583530273407 0.018799573443276457 -0.2901290656244857
0.0860249922866573 -0.013625020257244163 -0.2680579406118578
-0.08832461124740619 0.013989244119302363 -0.2752236619496317
0.06498715601606461 -0.010292954333887258 -0.27406518320287276
-0.04805682642573147 0.007611453557212695 -0.20266624585419624
0.04340341423765463 -0.006874425472204633 -0.27745429516758546
-0.029228254430200364 0.004629300719590331 -0.1868402491911501
0.028721574401383464 -0.004549050486802446 -0.2633996531956227
-0.02551983699953268 0.0040419451003442875 -0.23403717781438718
0.030936456490070683 -0.0024347519288739077 -0.2810854098719513
-0.022510078816114016 0.0017715816235847816 -0.20452422313809995
0.04395557239298983 -0.003459378571781094 -0.27838272280352044
-0.036435794667848895 0.002867559229870913 -0.23075790337707947
0.06537563586553298 -0.005145174127361765 -0.2731511548911635
-0.04243082156606452 0.0033393780792199605 -0.17728359747949846
-0.08914991939129575 0.007016250819371817 -0.2752236619496317
0.08682881271348425 -0.006833575762105779 -0.2680579406118578
0.1082455957605292 -0.008519113142600631 -0.2621360633520533
-0.11220361816857383 0.00883061626176414 -0.27172112226751605
0.12969397618894768 -0.010207137290940768 -0.2553258445371807
-0.1361095474397939 0.010712053698637683 -0.2679560467712793
0.15221338418699232 -0.011979453137066698 -0.2491577379430146
-0.4300452323332942 0.03384529379641835 -0.7039400501713463
0.17511192409025453 -0.01378160731124492 -0.24176617079593168
-0.08868353183657157 0.006979545322773264 -0.12243985106197716
0.20023988671815662 -0.015759220859085876 -0.23517575284245265
-0.5963086775317148 0.04693051071607489 -0.7003466914780894
-0.12673011399035608 0.00997387627711904 -0.127121988656566
0.5833883236047848 -0.04591365680924563 -0.5851922760939363
-0.7796591888568316 0.06136050890452749 -0.6679509242287824
0.6582426457733642 -0.051804819727112233 -0.5639307403736054
-0.9677040032005604 0.07615995675289679 -0.7052521699200976
0.7396128730097655 -0.05820879549532353 -0.5390218309171014
-1.1402393708584522 0.08973878467518533 -0.7009002266152733
0.8327690619864895 -0.06554034656906782 -0.5118995530079598
-1.3723485299445017 0.10800617166488352 -0.7014087105543102
0.9356783531887243 -0.07363948343479473 -0.47822614509611794
-1.6657312752007876 0.13109589446944445 -0.6921020049611287
1.0665417745399233 -0.08393865805604246 -0.4431421271386667
-2.175954509722196 0.1712513338878551 -0.7091966950439527
1.219844538965874 -0.0960038472772962 -0.39757711461185846
-2.9018548590830657 0.22838093036713986 -0.6988279669994892
1.4299475519558378 -0.11253931300859996 -0.3443615856669521
1.6804933292915802 -0.13225769332262208 -0.266987027331815
-4.270461049691581 0.3360925735387643 -0.6784660677433908
2.0803171716708246 -0.16372451214704326 -0.16423078083512313
-4.416680280985372 0.34760027661216886 -0.34867512566016257
2.0608576915839234 -0.1621930178502846 -3.545557286545386e-15
-4.224026151797037 0.33243806781823704 -7.267132884634879e-15
2.0167801838835606 -0.15872404276169103 0.15921484900591615
-3.6297791995936755 0.2856698184045071 0.2865531661835728
1.9764721382907915 -0.15555173077477585 0.3140104227779672
-3.996801779289874 0.3145551218697712 0.6349886710570447
1.93419922988632 -0.15222478073090343 0.46579604467899477
-3.975516287377152 0.31287991732563847 0.9573883256721366
1.8927504888941533 -0.14896269406908866 0.6168935909592694
-3.9860075755291877 0.31370559960999245 1.2991371769744986
1.851543688484016 -0.14571964854402972 0.769306020815651
-3.87578829614891 0.3050311541977855 1.6103683052034723
-3.733441840139523 0.2938282451494118 1.9081658703184181
1.8078444815110357 -0.1422804463683742 0.923991128340153
-3.2404224275916227 0.25502677588422307 1.9918736993954487
1.7648119289846205 -0.13889371103552553 1.0848222860673367
-2.673132459236522 0.2103800871101948 1.9481499106392224
1.7099696530587565 -0.13457753031401373 1.2462073157997005
-2.2655000076452456 0.17829871741285913 1.9409029555153752
1.6700805345935508 -0.1314381886070729 1.4307941887453308
-1.9967954320883416 0.15715120868494706 2.002969919893954
1.6135877737248447 -0.1269921119034711 1.6185773073906589
-1.7200925103140208 0.1353742164579501 2.020197163021473
1.55705382766303 -0.12254279385487571 1.8287131107514236
-1.4461047167670724 0.11381090945669503 1.9965470755864145
1.4859215508503643 -0.11694456225939813 2.051519708429925
-1.2193824971753346 0.0959674837997601 1.996004400705466
1.4109298849291465 -0.11104259015377721 2.3095478784787646
-1.0052388418841203 0.07911401262267953 1.978992886236383
1.186131869185436 -0.0933506026239612 2.3351132421988456
-0.8180013284222004 0.06437810073162963 1.9809364671401513
0.9346390216129641 -0.07355768626582569 2.263395494841673
-0.6362245862577562 0.0500719608622699 1.9641527625356823
0.7147054200138989 -0.05624853643189504 2.206438819625875
-0.46877686722735 0.03689353957068836 1.9586339922227578
0.512483828152158 -0.040333351995585964 2.1412495292700733
-0.3072789277032405 0.024183376081482497 1.9460819162899714
0.3298669846057461 -0.025961094713560225 2.0891382898287003
-3.556963484887576 0.13975347594359494 1.8137617630598877
-4.40532251025182 0.1730855928310757 1.826152227560157
-5.009034596101055 0.19680550528591365 1.6287897372441624
-3.806008076458417 0.14953846459609388 0.9144467013115317
-4.547503968759004 0.17867191755032907 -7.805553266822136e-15
-4.517550710650692 0.17749505083402523 -0.3558132707317903
-4.081055613693408 0.16034511176625177 -0.6468744260474312
-3.622846070853922 0.28512416933905366 -0.7228572161616794
-4.458025428568209 0.35085421029585373 -0.5292736545086305
-4.470742320623399 0.3518550514061016 -0.17619910722511412
-3.645166752376889 0.28688084507239986 0.14366185331071857
-4.298288342272666 0.3382826289612036 0.8576264860800495
-4.190138502191278 0.3297710519539893 1.1853954554271773
-4.088243645197586 0.32175175279193563 1.5128964627749257
-3.96454738556519 0.3120166460310454 1.8333329321778318
-3.4915316834724446 0.2747895029215027 1.9613980300775853
-3.374927743580999 0.39944902167681756 1.7316143348588615
-2.6722234685838244 0.31627848988999324 1.114597080017142
-3.5098558997871048 0.4154188213549576 1.148381367662205
-3.5721024054733723 0.4227861808033106 0.8635717979028137
-2.843760376986804 0.3365812209257493 -4.911446999404968e-15
-2.924046100023318 0.3460836624469189 -0.23173369095958993
-2.1305092383105304 0.25216238556075576 -0.33979481570764203
-0.10996212327032001 0.9290652885071228 0.30397865243641686
-0.10771026474935164 0.9100394319281475 0.4669247596813848
-0.10646528761897132 0.8995206732645109 0.5550745003168222
-0.24986849529298322 3.174880258312472 2.1279469167340044
-0.287176511809599 3.648923554473168 2.0498142707757157
-0.23330839082282728 2.9644641804622336 1.3708626180358252
-0.2733303601345223 3.472991516481519 1.2852161066046928
-0.4270896213314196 5.426688169332211 1.5352169124201376
-0.14109812467982435 3.591187080561401 2.2023802286664127
-0.18966038875854369 4.827179236786315 2.461468373324153
-0.13510020416937601 3.438529809628612 1.1181080820425258
-0.2109872341232413 5.3699836979839795 1.2902137305203907
-0.2116746662094893 5.387480012924374 0.8539513721667696
-0.2092495034898831 5.325755499953903 -9.141381409790296e-15
-2.889017628428142e-15 1.6844361032488138 -0.06618167474423085
-9.351952128638954e-15 5.452637480064399 0.214234710065751
-1.4011174140262982e-15 0.8169187802293172 0.09668870931316055
-9.350889081675148e-15 5.4520176726019365 1.084473742252976
-9.252051280241024e-15 5.394390484916011 1.521375461957902
-5.79923560346903e-15 3.381233027312462 1.5587697761412365
-6.737005026742929e-15 3.927997663686388 2.199784388087678
0.14149971472902814 3.6014082298481096 2.2086485896841785
0.1601071425570245 4.074998892870862 2.077917641775891
0.19749187520980674 5.026503877204099 2.0836524978216238
0.21229851855875315 5.403358115500184 1.7570120701566232
0.21255217735015836 5.409814162854693 1.299783557089603
0.21225622343952422 5.4022816328318966 0.8562975272522637
0.21279164172401177 5.41590893815797 0.4265701475642913
0.0563854197554993 1.4351047642729766 -2.4632824419634022e-15
0.27417602447370404 3.483736700713407 -0.27502383116062157
0.43188510859582063 5.487620612323663 0.21627590752013032
0.4309362695910859 5.475564469667834 0.6500797413103574
0.4316073841030781 5.484091788058625 1.0942268165858702
0.4301852265830484 5.466021563442038 1.5463443791136444
0.4236088356520958 5.382460593848229 1.9918347095149351
0.3899514457172701 4.954802906451059 2.29125861224942
0.3084609034995793 3.919367392971168 2.201738429043427
0.25554231469834054 3.2469729693131724 2.1762666798782297
0.3982787794149049 3.3650404166327994 2.076492718093547
-0.015391625868702768 -0.13004319035516929 -0.2570055767787289
0.4762979152210452 4.024220766748637 2.0647548320382034
0.5934294941025072 5.013860479864072 2.0913049811030575
0.653805047118914 5.523970951667839 1.8073748602577637
0.6538298912770556 5.52418085890012 1.335495530293595
0.655772817788602 5.540596562110585 0.8836694785823375
0.650418912026384 5.495361640724179 0.4355131186722903
0.6517250176053961 5.506396871042556 -9.510075676091454e-15
-0.002321073403764271 -0.015438491799823942 -0.14141168830475473
0.8020304963992851 5.063821261456612 -0.2014381167144974
0.8412587274067552 5.311498564398051 0.2112906859268247
0.8814274804516609 5.565114089777935 0.6668851208864655
0.8798830016774111 5.555362634577632 1.1188046754004193
0.8777400752301068 5.541832729475126 1.582440949562836
0.867498291876863 5.4771686543156095 2.045821655417026
0.7807657029798913 4.929560639795661 2.3008863108871145
0.6157023304614333 3.887391521539866 2.2041809813453006
0.3882621337399528 1.9519255582479274 0.8243537654200505
-0.004319468614028237 -0.02171543514830282 -0.13979192418452605
0.39301055277622166 1.9757974727941248 0.654552558551931
-0.020972341045044907 -0.10543507837808887 -0.25952958436081347
0.3963224458356584 1.9924474835655286 0.487715638625864
-0.025463746950823766 -0.12801490066337878 -0.2561655378839427
1.0657276033802578 5.357774468322245 0.8652129344777892
1.0793805327859058 5.426412379506465 0.4354346713133868
0.8919545097359769 4.4841581319754615 -7.841562903926521e-15
-0.03531304958826373 -0.1252106291021344 -0.2553258445371807
-0.012183365744740557 -0.04319895639903482 -0.13813911743298554
-0.009299346365604146 -0.03297299503305776 -0.1427000481980384
-0.015615583691278042 -0.042327891749205565 -0.13885425137909257
-0.019538540007248337 -0.0529615301428827 -0.13628397477073262
-0.02400059233828009 -0.05206130932955861 -0.13840011430018295
-0.06412931582577285 -0.13910723957314508 -0.24996321079322437
-0.08664437178247919 -0.15471465829840722 -0.24406582584627992
-0.09789710680919969 -0.14651337419892854 -0.2425324466112378
-0.09881053527996088 -0.12534056647015998 -0.21967753757411576
-0.13676242413536602 -0.14794875690471196 -0.23589871698457526
-0.16702003647727418 -0.15439173363600053 -0.22744779620827343
-0.062136883782129025 -0.030138551803665356 -0.1355384645369128
-3.8877366412278254 -0.7733188990552833 0.31196584559613144
-0.7807334858481328 -0.15529754596262813 0.1911096446896621
-0.7647427423140034 -0.15211678931009345 0.5665033278702308
-3.067544591155449 -0.6101725566694085 2.6712580617305544
-2.787402351193507 -0.4414811613530912 2.6087664741657566
-3.4733760333235835 -0.5501287190746276 2.772320746880245
-0.7980359453142558 -0.12639647655746383 0.5398773570916279
-0.877414832085047 -0.13896885711224063 0.25054115268771054
-5.758764275659023 -0.9120986567612108 1.1597681051519833
-5.8603074389117875 -0.9281815138417834 0.7022590681490398
-3.879779611923834 -0.6144967224171186 0.1543371019514152
-4.866813264123293 -0.5760253092041517 0.3857000068833849
-6.574278347060213 -0.7781171193840123 1.0485313366308047
-0.8874406682881478 -0.10503552481032058 0.2145427668230895
-0.8450104881892155 -0.10001358205544933 0.35245788153290275
-5.0759508316849615 -0.600778371522974 3.132258051729926
-3.1263450938586557 -0.37002732622683043 2.688788413384613
-3.50348322798164 -0.2757301098735909 2.7704638921596594
-4.406356469541759 -0.34678777503065145 2.9533374176373384
-5.9117939865103635 -0.46526827713390134 3.321001248321469
-6.265277497555623 -0.4930880327875233 2.318530153037671
-0.8894306533629256 -0.06999971052180087 0.25162105115682115
-6.511592709137968 -0.5124734603559218 1.2992414489740185
-6.624819665609742 -0.5213846150888076 0.7865236686197957
-3.902090494734662 -0.3071011821197512 0.15378762902799561
-4.884057470263023 -0.19189514063825813 0.3846802336582804
-6.567694811058826 -0.258045431920239 1.0410232580764447
-6.45320428052056 -0.2535470867240253 1.5504726339683994
-6.242162968657189 -0.24525525099787382 2.5875834932583053
-5.122773626985498 -0.20127432398034462 3.1416618234889784
-3.9732025180500288 -0.15610755209734087 2.8889278604248814
-4.4165741525484865 -0.1735276710609521 2.9533374176373384
-5.935963392764368 -0.23322463689534084 3.326864119333157
-6.301365298805275 -0.2475813168844957 2.3264900306131633
-6.50807350756026 -0.25570290452584343 1.2955351190953293
-6.621329825547844 -0.2601527573788706 0.7842906885452273
-3.947903147344409 -0.4672651297145591 2.888340187329211
-4.390995647517434 -0.5197085830723663 2.9544483769671586
-6.511773932595218 -0.7707192344201008 1.304313272365312
-6.62192263362571 -0.7837561923073589 0.7892267515077256
-3.0702825791834196 -0.6107171763499093 0.49581187407523997
-0.7840333901754988 -0.15595393774451088 0.36852545691158883
-0.7638018215111616 -0.1519296285256834 0.613929283738998
-0.0955063937850962 -0.02897154781800622 -0.11685537284693039
-0.08411467822710914 -0.03292185045179636 -0.12432567180425548
-0.08428029325158978 -0.03375237698332371 -0.12495842995733274
-0.07984845165701598 -0.034926429209275155 -0.11995569728306646
-0.06673781616023153 -0.04089698634172812 -0.12772822868233805
-0.04877855519268809 -0.031225184415386534 -0.13982360462932925
0.1270167086705944 0.08632046607532522 1.951321739963717
-0.04727276367328892 -0.03294728127112501 -0.1391106123612816
-0.05534778519574246 -0.043632675643393584 -0.13832140937007675
-0.035797835682864106 -0.02822073814809235 -0.1402929253341004
-0.05417205808074378 -0.043400002325759086 -0.13623078918299136
-0.07209232013495569 -0.05916463811638862 -0.22515382069624285
-0.0771330536004428 -0.06693265439521945 -0.2465512356851641
-0.07103083013748267 -0.06311956722103278 -0.22940693407961676
-0.03366168729002921 -0.030388999734470144 -0.13957220175925672
-0.03347330930650589 -0.030942408847268493 -0.1402929253341004
-0.024951436746741985 -0.023990343622646706 -0.14417659039227093
-0.014860502338788788 -0.016723083884397364 -0.14124979269235852
-0.009809057050222484 -0.01214564986257934 -0.14141168830475473
-0.009568702306977728 -0.012335896682419648 -0.14141168830475473
0.7855054499692202 1.081155499769211 1.0535183782865103
0.7356934865154657 1.1010431114745138 0.9620972718874318
1.2403913419154304 2.4344050785808626 1.530103667167992
0.39631193083316013 1.9923946210782093 0.40407614056995655
1.0624285090604983 5.341188801160269 0.6445563229816478
1.078959795112895 5.424297188387114 0.21729650845239165
0.6505179862914587 5.49619871496327 0.21745352410897809
-0.020907732280316237 -0.1766485381088097 -0.2448329240827611
0.656193875405689 5.544154059954959 0.6607740592403816
0.6553389975542017 5.5369312334569845 1.1090515381411201
0.6532710425846265 5.519459170138372 1.567513768391157
0.6489301429617058 5.482783094407867 2.036823804169371
0.5743568410187138 4.852716447601882 2.2527479438119977
0.4625068436790753 3.907700591620103 2.203692470786683
0.31744679126997805 4.033543922718147 -0.1589684189262604
0.06346755283638965 1.6153570878288321 0.0635165217727918
0.21200908198530138 5.395991462785411 0.6391504382402493
0.21246672310730255 5.407639207137746 1.0764762407961939
0.21246282178926967 5.40753991196321 1.5262606755997705
0.21174686881686888 5.389317691996716 1.9897582964464404
0.19120488513923667 4.866489294669542 2.2452132720001567
0.1544521883703947 3.9310706977777268 2.2032039602771554
-5.5719267824781714e-15 3.2487010618110106 2.170712650487856
-5.346102968965076e-15 3.1170349270281137 1.1499348954122743
-0.11849608118069985 3.015926659542149 1.6903032458726905
-0.12163138450245388 3.095725457777589 1.2832808330103567
-0.2108760506095138 5.367153888594411 1.514861850937324
-0.2113502349835181 5.379222686826792 1.0708194823126647
-0.06449285395747673 1.6414527439409763 0.1292848065205579
0.011661335221127661 -0.06530131476824658 -0.2041561940044898
-0.1357414176118163 0.7270822865464707 0.1471244919620461
-0.12865987591301542 0.6891508753292793 0.027544643089639224
-0.12920486634520903 0.6920700498638968 -0.02766131945696684
0.011687774992546888 -0.05875841279510994 -0.24954126881444494
0.011665034019522675 -0.05864408620333595 -0.1840239064216905
0.013065075866551578 -0.06568257187153294 -0.13143478818388288
-0.14168813918424797 0.6841861450927923 0.08269697743914146
0.011189168579330552 -0.05099734636774902 -0.21747200548565135
-0.2028030996474701 0.7771827380006314 0.226527911143904
-0.16737190564895071 0.6414031941461875 0.24454976536179093
-0.2344615026479204 0.8985041791787336 0.4280864909973553
-0.23227756844190875 0.8901348989813808 0.5151921901719014
-0.24695927479819246 0.8756515373388961 0.6079157028299063
0.009229252946276337 -0.032724462515126576 -0.21467400970576228
0.008905211830318739 -0.029356549161571256 -0.1936901913458227
0.007330897388090837 -0.02197344960378229 -0.2098176004438029
0.005840444067612701 -0.01545628673891085 -0.14966292932231967
-3.407315458497312 0.40328236034970477 0.6824878783656321
-3.5456129456199657 0.419650946621389 0.42258007862638364
-4.534832325495233 0.17817404733053255 -0.5371468965761192
-4.5459944812036746 0.17861260962275344 -0.17875041971833422
-4.546508824387099 0.17863281822146884 0.8125298923882702
-4.551247790409734 0.17881901270360384 0.9059979641181445
-4.036404668647692 0.15859077135741217 1.1392621814838688
-4.936589565133736 0.19395913226703396 1.8226092067206643
-4.2803878917541995 0.16817689830134222 1.9748083519678001
-3.509215345725392 0.1378774464464958 1.9667713306550945
-4.523520874132884 -1.551680294993319e-14 1.2757648299291184
-6.690526106480754 -2.2950170478774688e-14 0.2628714866612247
-3.620954823109805 -1.2420776656982993e-14 2.0278321353104762
-4.961035226725991 -1.701758611991385e-14 1.8302225217671766
-4.550705679704383 0.1787977131159806 0.5390270814075817
-4.552846117507545 0.1788818111463101 0.41265667077788
-3.6875553677675676 0.14488444499628247 0.14499623183626545
-4.421403557851463 0.34797200656333543 0.5249257673868891
-2.128658130824267 0.251943292551783 0.16869836814238065
-2.1295563119811347 0.2520495992971887 0.12646309183091387
-0.3795065814143553 0.8769879653995941 0.3525320740123788
-0.37453368580078444 0.865496281671642 0.4347559138333146
-0.37156467168427637 0.8586352948619398 0.5239514530693711
-0.24141923902988624 0.6623944815513964 0.02770021365418773
-0.23543099183559127 0.6620810532998148 0.13977455757296417
0.008084419870790619 -0.027826755714534007 -0.26247345355627194
0.00944474025406393 -0.03619416617949923 -0.23617319749731142
0.006251075002035876 -0.030185299439688354 -0.2792163529578009
0.008458512807705217 -0.04252381548282735 -0.27374473269428273
-0.1574660939803138 0.88178092588446 0.5985080016114465
0.011028454497433036 -0.06175730007652743 -0.26130711639497267
-0.15118500928276526 0.9083146398117133 0.515678783810122
-0.15201715701710614 0.9133141564514503 0.4268360757923487
-0.15413353554086717 0.9260292900856312 0.34633019955697475
0.010826326416771372 -0.07827197817683182 -0.2431898190480085
-0.11404082992848226 0.9321503138370206 0.26485369833696354
0.007604788985868965 -0.06425253771994889 -0.26949912538082005
0.009828519971656109 -0.08304074595410295 -0.2573570179858185
0.01154320992986241 -0.09752808826200778 -0.2370970820243749
0.013793137684676516 -0.1165376318801118 -0.23031441489534932
-0.10372899280631498 0.9395654629172768 0.18802669210628345
0.00833799618891135 -0.08465709599724532 -0.26180842980482294
-0.09335535968659495 1.979595621397149 0.07786496364232952
-0.06593482260232304 1.6781532966924555 0.06598569518193326
-0.0753003199844421 1.916521122473395 0.22701023968878703
-0.11514049124430191 2.9305211925694383 1.3520311413489756
-0.002699320521803533 -0.08589377172841334 -0.26448435425746414
-0.0063710146493811196 -0.10803258036264761 -0.26126685926945553
0.6290285642857827 5.314635505179886 -0.21027009391233223
-0.012677630274169542 -0.10711275735649341 -0.26039803167866005
0.928749184406893 2.5797001001765394 2.1614551454084543
0.3234618183956099 0.7809059088805476 0.4733607646559352
-0.009615262757116052 -0.012196902661459152 -0.14067971526690873
-0.00999363217637625 -0.01188886152433401 -0.14067971526690873
-0.025609075014884235 -0.022756790660362437 -0.1427000481980384
-0.04778524592037025 -0.03828320092601814 -0.14782072520180609
-0.045483069834240594 -0.03585596110711033 -0.13982360462932925
-0.05614117520871055 -0.04319551438117937 -0.13902271750879489
-0.05619378691816609 -0.04253758363696021 -0.13832140937007675
0.12592668840442228 0.08776601366224147 1.9503260230005992
-0.08406803217379488 -0.031766662205434046 -0.12369496812219827
-0.08388644319113094 -0.03094734275867563 -0.12306635049808785
-0.08361924956974313 -0.02899662830672812 -0.12181550249551358
-0.8404683253873789 -0.09947598166061379 0.4312290842385199
-3.503211865640935 -0.41463244809270156 2.780986076452239
-6.36705846030246 -0.2501624082293924 1.9329162766658399
-6.396059269469586 -0.2513018531248779 1.8052670716678465
-3.916129656004438 -0.15386515324033545 0.15398386922300036
-6.58626028207679 -0.2587748712631827 2.2278411215211213
-5.93315434689888 -0.7022350934280276 3.3459184642535824
-0.09555045491845597 -0.03525042386612332 -0.11924562122834846
-0.06098562796600308 -0.042504615384427694 -0.12130585662948899
0.1251695624838447 0.0887070110398311 1.9493303072645183
0.12376077145536363 0.09066214551173532 1.9493303072645183
0.12340378868546256 0.0911474526143848 1.9493303072645183
-0.04587672424486371 -0.03388507430570117 -0.13769214905671945
-0.03395927665880732 -0.029702935928327998 -0.13885425137909257
-0.03372494535984907 -0.02996873261295792 -0.13885425137909257
-0.03305855040444161 -0.031044045181489063 -0.13957220175925672
-0.03269053573007922 -0.03143134374718578 -0.13957220175925672
-0.02478549129774533 -0.02517791101068696 -0.14716233287858452
-0.025372902970979133 -0.02638938372537465 -0.15248546232811905
-0.02386011214133787 -0.025811723894451688 -0.14641191877097773
-0.01510743500225666 -0.016343131110269755 -0.140519277941374
-0.014866615901890645 -0.0181150238900162 -0.14795887820975728
-0.015027808987102471 -0.018607548638421855 -0.15101299311885694
-0.014508085412202571 -0.018403418611291775 -0.14795887820975728
-0.013854546288580478 -0.017861173450144742 -0.14272011081176128
-0.013572744569939748 -0.017930118522181467 -0.14198341964687178
0.7154835106418166 1.1472395282367218 1.0658807676522002
1.1703304835273807 3.3749495198532737 2.0004767676153437
-0.02801180936562638 -0.09932238404368265 -0.2491393236001556
-0.014827513501834748 -0.10719968792318124 -0.26126685926945553
-0.009760636873170843 -0.08246720455091335 -0.25557951823529973
-0.011914985804229868 -0.1079245912828644 -0.2621360633520533
-0.008309615425234996 -0.08436894126791776 -0.26091728965481636
-0.003373838438513762 -0.08586992236635024 -0.26448435425746414
-0.0010123883036819111 -0.08593021251535911 -0.26448435425746414
0.0016929399272713349 -0.08620964193978425 -0.2653771497153002
0.004075484337817437 -0.08642043667658675 -0.2662703486159138
-0.40794821845798723 5.457384954365356 1.0885700303258412
0.011353955852146998 -0.09592908863300306 -0.15763469681687772
-0.11181980315926505 0.9139960194385618 0.515678783810122
-0.11371802379193197 0.9001708485444806 0.6062554366729975
0.009367927366987024 -0.06401924207470676 -0.26949912538082005
0.005078122280654682 -0.030509194212804888 -0.280150676855488
0.011885955462066918 -0.057395107982617384 -0.2441403810155491
0.009920742719224681 -0.045216188235131155 -0.14247131355253287
0.007431324944387271 -0.02991661161488138 -0.2792163529578009
0.009203863544862708 -0.03263443848829816 -0.14123484810910175
0.009842823941467202 -0.03244744206337764 -0.14123484810910175
0.007802954721695807 -0.023388382521396897 -0.15566983478067925
-0.5063201789060812 0.8409950114301115 0.5497492766545309
-0.5092743630217222 0.8459018948758157 0.4551863436158019
-6.704882952953052 -2.2999418037013442e-14 0.7935751931604054
-0.6256387272563605 0.8065685870827921 0.5716601239270663
0.0059623515786770675 -0.014080571024283941 -0.1385033858188396
0.008978032860429353 -0.04091955968293596 -0.26450138858106526
0.007699430503754866 -0.043115383043873794 -0.2765262781633924
0.005197892142763448 -0.03048901727973742 -0.280150676855488
0.0038764218886587504 -0.030685038874882598 -0.280150676855488
0.0055076991704271815 -0.0435979281951151 -0.27745429516758546
0.004307308661304073 -0.04373283875024113 -0.27745429516758546
0.005601716064067931 -0.0646779328408039 -0.27041151192317614
0.002921696444226905 -0.04369989902722776 -0.2765262781633924
0.0038477043932830454 -0.06524509155215573 -0.2722375308425581
0.001707946879519505 -0.04347015087502586 -0.2746714926969292
-0.0007622232503225975 -0.0646965256771159 -0.26949912538082005
-0.001687244451683805 -0.0859196110278234 -0.26448435425746414
-0.0025315542672701475 -0.06443235867940732 -0.26858715976010483
-0.005333042647979794 -0.04505864982423224 -0.18899279545033473
-0.018482494105111956 -0.1058999162093999 -0.25952958436081347
-0.009694092454868119 -0.048735493838678964 -0.15293095243205854
-0.034594235690905945 -0.17391696728880549 -0.24406582584627992
-0.024192598399489975 -0.10437401813203831 -0.2586615211461766
-0.010082633603201642 -0.04349946066733588 -0.13742684388893783
-0.02678011266406238 -0.10262684012424356 -0.25605967517712175
-0.013674673329823328 -0.04323891540494464 -0.13957220175925672
-0.014857949159443143 -0.04284672499560198 -0.13957220175925672
-0.01619646581456763 -0.042358883261848196 -0.13957220175925672
-0.020098800267354222 -0.04143785091296116 -0.14174252269353826
-0.02250342069769529 -0.04018274900220658 -0.14174252269353826
-0.009421816999879524 -0.012651854476267876 -0.1428851284869497
-0.009904145246050345 -0.01206823590024786 -0.14141168830475473
-0.01477200402194603 -0.016492599248248616 -0.13979192418452605
-0.025232328285046665 -0.0236947334269657 -0.14417659039227093
-0.04497102028557733 -0.03460109885944408 -0.13698675590068252
0.12225896272886227 0.0925476131377384 1.9483345927573552
0.12551694807151678 0.08821478859482679 1.9493303072645183
0.12849001618003478 0.0836817208659348 1.9483345927573552
0.1271597493427668 0.08568963071524195 1.9483345927573552
0.12268411956288575 0.09211384253790184 1.9493303072645183
-0.05071044001105639 -0.04161698259066342 -0.1287496719760228
-0.03159364906401847 -0.03285934326824226 -0.1402929253341004
-0.031204350564213945 -0.03322925829846605 -0.1402929253341004
-0.01457668455797297 -0.016665479293589875 -0.13979192418452605
-0.02834680109624682 -0.03509922707926192 -0.13885425137909257
-0.009617071354847144 -0.01229822545551477 -0.14141168830475473
-0.027230320295466 -0.03597230226935865 -0.13885425137909257
-0.025194975285086425 -0.03770694520187528 -0.13957220175925672
-0.02363279367014555 -0.03925393932687114 -0.14101637958289331
-0.025018121732144957 -0.0515800537678265 -0.13840011430018295
-0.01801056049148409 -0.04161994962582166 -0.13957220175925672
-0.021411435010145786 -0.05286229789697436 -0.13769214905671945
-0.011980404753666817 -0.03247430807265413 -0.14417659039227093
-0.018379648341910398 -0.05368255987408333 -0.13698675590068252
-0.014520976973776164 -0.04296209636179784 -0.13957220175925672
-0.013164339689897208 -0.04339701206998401 -0.13957220175925672
-0.026562836864874966 -0.08756593791959466 -0.2209154186876773
-0.006041196890702095 -0.021420468411373458 -0.140519277941374
-0.02741970036710014 -0.1002295437311526 -0.25086689417941027
-0.01133286226047403 -0.04342983384519165 -0.13813911743298554
-0.008476362886815676 -0.033559827995243735 -0.14417659039227093
-0.010253377403396753 -0.04345953095178347 -0.13742684388893783
-0.004622703778407422 -0.021888962381593963 -0.14124979269235852
-0.021799770864427772 -0.10526711182397787 -0.25952958436081347
-0.018961456428211603 -0.10618063979841431 -0.26039803167866005
-0.005930074933311142 -0.0332073199574841 -0.1405066123444964
-0.003932873829307197 -0.022023364134674983 -0.14124979269235852
-0.011879870461668074 -0.07696139658246437 -0.2396681291158477
-0.005041108630456534 -0.03353065617274594 -0.14123484810910175
-0.0033260654015599884 -0.022123140674648423 -0.14124979269235852
-0.002615920215341687 -0.022101798303799703 -0.140519277941374
-0.002028370206011773 -0.022396300133898626 -0.14198341964687178
-0.009793730843123263 -0.10813772295762834 -0.2621360633520533
-0.001085581955208749 -0.01533225610272016 -0.1392255128725304
-0.00135152788267607 -0.022917706618638022 -0.1449481013870978
-0.003731755873799801 -0.06327896552069949 -0.264033798065188
-0.0022862466106856614 -0.06466061007605926 -0.26949912538082005
-0.0009980669984285685 -0.03175900684643694 -0.20061747019239026
-0.0005137060797537255 -0.01634639250635687 -0.14813686765316642
0.0003233857696893919 -0.027448566733500337 -0.24864326173439844
0.0017964079316593337 -0.06533375635374368 -0.2722375308425581
0.00256596064953847 -0.06530805958449763 -0.2722375308425581
0.002049304459005004 -0.0434553961076766 -0.2746714926969292
0.001437528571257534 -0.030482719737226712 -0.276415877454658
0.00441482430228418 -0.08640376597313161 -0.2662703486159138
0.006413414970537195 -0.10875155784969986 -0.2630056401936641
0.004616070228322762 -0.06519523522769485 -0.2722375308425581
0.0074151203213811525 -0.08561566646141143 -0.26448435425746414
0.006406248226160683 -0.06504372978552264 -0.2722375308425581
0.008924874996907771 -0.06452489922220948 -0.27132431514085376
0.006041078532542854 -0.04367567989925192 -0.27838272280352044
0.004613620534916346 -0.03068724266982926 -0.2810854098719513
0.009169603209542238 -0.04027880186689588 -0.2608170556101478
0.007523500873555053 -0.02978723287452537 -0.2782824422996974
0.0057955021882768794 -0.030381086415689724 -0.280150676855488
0.00801085427377394 -0.04290916026251209 -0.2755986759390734
0.005165115493015409 -0.04363984045573665 -0.27745429516758546
0.003382644892624662 -0.03063961413717751 -0.2792163529578009
0.007123958084614539 -0.06452800508795101 -0.27041151192317614
0.003963702432633934 -0.043765319101817 -0.27745429516758546
0.002668744335079198 -0.03081356943111122 -0.280150676855488
0.008884823894897627 -0.10749383704304274 -0.26039803167866005
0.0021771313900473947 -0.030748794120342315 -0.2792163529578009
0.004360014203543016 -0.06521285975091243 -0.2722375308425581
0.0025697424898694044 -0.04357483498724176 -0.2755986759390734
0.001187652538759935 -0.04319386495280817 -0.2728184002443489
0.00021559328372654444 -0.027449625017757003 -0.24864326173439844
-0.0012746204969532058 -0.06490754626398015 -0.27041151192317614
-0.004415338004359426 -0.062360186384909505 -0.2603991396766637
-0.006384379023608908 -0.08540793279625603 -0.2635919663418313
-0.0013262766413685177 -0.01531331302009577 -0.1392255128725304
-0.005766220440978255 -0.05854541862976808 -0.2450391492380172
-0.0017131715966283642 -0.015517714196343442 -0.14141168830475473
-0.005567163377573991 -0.033447337286043675 -0.14123484810910175
-0.011274299401790906 -0.06313398595162381 -0.19738031814458842
-0.002940604482915226 -0.015415188538886371 -0.14214684241159084
-0.006615022571809857 -0.033255964216564446 -0.14123484810910175
-0.004794474944437215 -0.021851981017127525 -0.14124979269235852
-0.023038378330132742 -0.10500299026894942 -0.25952958436081347
-0.0076439306801578556 -0.03357706569352756 -0.14343692336065172
-0.0034654566054050932 -0.015222516917873574 -0.14141168830475473
-0.026376892549916407 -0.10273121379404163 -0.25605967517712175
-0.006241524678229219 -0.021483468855303455 -0.14124979269235852
-0.009737168528216936 -0.033030842645679286 -0.14343692336065172
-0.013504769502320263 -0.04329228218473289 -0.13957220175925672
-0.004756660316342531 -0.015040420203664872 -0.1428851284869497
-0.0076175263104204536 -0.021158493289701798 -0.14198341964687178
-0.020995599382629293 -0.053028830787660144 -0.13769214905671945
-0.013323841224546397 -0.032527300792160804 -0.14641191877097773
-0.008895850562125348 -0.020780611460082414 -0.14272011081176128
-0.022973810259196606 -0.05252249426551188 -0.13840011430018295
-0.01908415813038374 -0.0413967391186195 -0.1402929253341004
-0.009414805296955587 -0.02042229141405834 -0.14198341964687178
-0.015339955783057788 -0.03162650468158723 -0.14641191877097773
-0.009999702611191486 -0.020012546366054172 -0.14124979269235852
-0.020853873093949683 -0.04132845014753522 -0.14247131355253287
-0.026426372181610112 -0.05087293204657383 -0.13840011430018295
-0.01054597907405156 -0.01973013912103522 -0.14124979269235852
-0.022415700537860923 -0.040774007911444005 -0.1432027117349195
-0.028155089995665163 -0.05027453068707101 -0.1391106123612816
-0.017149675998788173 -0.030066582712305712 -0.14417659039227093
-0.011102794043863457 -0.019288869620960863 -0.140519277941374
-0.01880911024765303 -0.028634133756221102 -0.1427000481980384
-0.03228741123694801 -0.04915288601257713 -0.14197717025018777
-0.01236480843571038 -0.018505243559139184 -0.140519277941374
-0.019690180864924713 -0.028251474197589693 -0.14343692336065172
-0.0336262035146733 -0.04824688140117422 -0.14197717025018777
-0.013142638556597301 -0.01839133006743168 -0.14272011081176128
-0.034952371766255194 -0.046552188451082326 -0.14053905314299084
-0.021859887487260685 -0.02706708076997325 -0.14491900654377965
-0.014552062154151432 -0.017450439103995744 -0.1434598189812724
-0.022617725734074657 -0.02690703484999423 -0.14641191877097773
-0.023451735640940437 -0.02618331791863038 -0.14641191877097773
-0.015056480729667867 -0.016546856269481464 -0.14124979269235852
-0.03110197082870906 -0.03364592248554768 -0.14101637958289331
-0.02478594734472984 -0.02618750638077815 -0.1501894514397765
-0.040695328277634404 -0.040376956523144054 -0.13840011430018295
-0.03261019642024341 -0.03185074866676885 -0.1402929253341004
-0.04518721435226706 -0.04177063129175731 -0.14856086301772192
-0.07733656760615802 -0.0644915885432289 -0.2431067467555539
-0.03557508871287884 -0.028501020407545662 -0.1402929253341004
-0.036127811545423875 -0.027797056213543024 -0.1402929253341004
0.12749527039049616 0.08518961611067455 1.9483345927573552
-0.03849017171937121 -0.025718310512729627 -0.14247131355253287
0.12881764194731063 0.0831764978113668 1.9483345927573552
0.13004173674032182 0.08110138819565345 1.9473388794809954
-0.039078084848547794 -0.024371305772188205 -0.14174252269353826
-0.04223037137686917 -0.01652864874831122 -0.13957220175925672
-0.08942185737509412 -0.025219572063531943 -0.2243049366565985
-0.05225040442831788 -0.022125188019179627 -0.13698675590068252
-0.05225382324144488 -0.022856291142571473 -0.13769214905671945
-0.04183330794013815 -0.018691041600695426 -0.14101637958289331
-0.05250115207346512 -0.02445380582690361 -0.13982360462932925
-0.04143785091296098 -0.0200988002673546 -0.14174252269353826
-0.029934809996290664 -0.015549888679967561 -0.1405066123444964
-0.05153460515799049 -0.028331388934523073 -0.14197717025018777
-0.05142295097608454 -0.028533545883054963 -0.14197717025018777
-0.019418329757772947 -0.010874787181975858 -0.140519277941374
-0.0295188570725995 -0.01668396705602152 -0.14123484810910175
0.13305743518630703 0.07589462109842675 1.946343167437327
0.1316089896717998 0.07853255566495551 1.9473388794809954
-0.0191120948918893 -0.011404400715438566 -0.140519277941374
-0.05024512352308512 -0.029981826999882923 -0.1412569205805472
0.13035921762621513 0.08059009146031738 1.9473388794809954
-0.04791052818604286 -0.032012791465344616 -0.1391106123612816
-0.047401782509494936 -0.032761387995501504 -0.1391106123612816
-0.018258909651150023 -0.01272575126214627 -0.140519277941374
-0.046510648850161825 -0.033513697277877834 -0.13840011430018295
-0.018088770695333052 -0.013360573345181112 -0.14198341964687178
-0.027858646660311293 -0.021434687962658877 -0.14641191877097773
-0.017696717724047305 -0.01406400197930747 -0.14272011081176128
-0.016719098239741506 -0.015213208863630548 -0.14272011081176128
-0.02528724637402014 -0.023375290108362902 -0.14343692336065172
-0.016004493649321397 -0.015631770449778516 -0.14124979269235852
-0.024794101718452647 -0.024407664008236744 -0.14491900654377965
-0.01050706848985304 -0.011547117499550712 -0.14141168830475473
-0.014718201309213702 -0.016694522366822506 -0.140519277941374
-0.022413463811273376 -0.0273108846746754 -0.14716233287858452
-0.03675305509609358 -0.04514407472498585 -0.14053905314299084
-0.021324247046241876 -0.027491053640680933 -0.14491900654377965
-0.00952018569788169 -0.012373377674537453 -0.14141168830475473
-0.035314379426585364 -0.046651655852886456 -0.1412569205805472
-0.009420688373222238 -0.01275459273885678 -0.14362649823288368
-0.009171598235132885 -0.012834400768293999 -0.1428851284869497
-0.019033419778949057 -0.028485525724406737 -0.1427000481980384
-0.01824329083658276 -0.028997906540462238 -0.1427000481980384
-0.017502691288594822 -0.029862461059254285 -0.14417659039227093
-0.01700009814477006 -0.03035585949091439 -0.14491900654377965
-0.0075211363049218225 -0.01368089615053341 -0.14141168830475473
-0.0072341434644375814 -0.013926318994992535 -0.14214684241159084
-0.019019019779359537 -0.04168522011415656 -0.14101637958289331
-0.023918123722845897 -0.05242290421226094 -0.1391106123612816
-0.01661399946043737 -0.04244844076204826 -0.1402929253341004
-0.012745848108391437 -0.03256539039136792 -0.14566412978031215
-0.020369425652583657 -0.05327249371604471 -0.13769214905671945
-0.0053434772297583 -0.014842078977115463 -0.1428851284869497
-0.018590317001283378 -0.05360996942359345 -0.13698675590068252
-0.006527911504258293 -0.021519640256585985 -0.14198341964687178
-0.004400991248178451 -0.015148311235954157 -0.1428851284869497
-0.009607381966264199 -0.0330688256305667 -0.14343692336065172
-0.0057336467455437945 -0.02162455454715895 -0.14124979269235852
-0.008694839982848571 -0.03332039577350758 -0.14343692336065172
-0.003922999669993474 -0.015279074934599585 -0.1428851284869497
-0.025335245892814034 -0.10373262902268596 -0.2577938459148947
-0.0024064981223470465 -0.015590023221760075 -0.1428851284869497
-0.011093271688404046 -0.07794538956098587 -0.24230859573988173
-0.0019668741746863916 -0.015569412268782229 -0.14214684241159084
-0.004934508630302905 -0.044696220025553776 -0.18730429397108003
-0.004007658784453202 -0.06369991226840772 -0.2658538317347797
-0.0009383936908109022 -0.03412854267611816 -0.21556057615455898
-0.0010197199858325747 -0.06491205119677294 -0.27041151192317614
-0.00016452162902028748 -0.02094711368491164 -0.189742434265256
0.0005133187773853813 -0.06535643277122807 -0.2722375308425581
0.0008196458851174507 -0.04173885743676938 -0.26357958183534635
0.0018786401547398611 -0.04346310861880189 -0.2746714926969292
0.0033463499636445936 -0.06549235469537226 -0.2731511548911635
0.004666211366072324 -0.043843883450093754 -0.27838272280352044
0.008807447829793093 -0.04170414187573155 -0.26911743424225476
0.00641220135626092 -0.030362411480051407 -0.2810854098719513
0.013375070249776862 -0.008052447243691006 -0.14141168830475473
0.02801128977429925 -0.050017756915684795 -0.13840011430018295
0.008678256819260545 -0.020494398879055582 -0.140519277941374
0.00811167993464901 -0.020725182157768588 -0.140519277941374
0.020148575186735056 -0.05461510285274651 -0.14053905314299084
0.007534378579287712 -0.021188244023615417 -0.14198341964687178
0.014857949159443624 -0.04284672499560182 -0.13957220175925672
0.006362625823093607 -0.043481387807815415 -0.27745429516758546
0.003996891555219216 -0.03066957964021917 -0.280150676855488
0.005383795400329577 -0.06513633047566206 -0.2722375308425581
0.003078804536479443 -0.06528589252950001 -0.2722375308425581
-0.0010647818416345517 -0.03011461806272578 -0.1902550288916587
-0.002355364030062409 -0.022131081923863663 -0.140519277941374
-0.002272180093246645 -0.01552779411372422 -0.14214684241159084
-0.006222784987746155 -0.033331586019798846 -0.14123484810910175
-0.003543534845356506 -0.015287856396960928 -0.14214684241159084
-0.0246022866168632 -0.10427820947622654 -0.2586615211461766
-0.004081526887512418 -0.015153096405714184 -0.14214684241159084
-0.005024943722328618 -0.014866914037613357 -0.14214684241159084
-0.007534378579287494 -0.02118824402361549 -0.14198341964687178
-0.014464890925214908 -0.03203618223699981 -0.14641191877097773
-0.009334534758264453 -0.020459105704479282 -0.14198341964687178
-0.009712753383439979 -0.020024858265349894 -0.140519277941374
-0.016485150947382 -0.03084154817103729 -0.14566412978031215
-0.02756086701683937 -0.0506027285603192 -0.1391106123612816
-0.02246034285195374 -0.04047786819471293 -0.14247131355253287
-0.011007889266765013 -0.01947620184369574 -0.14124979269235852
-0.011253944477804024 -0.019201074462784136 -0.140519277941374
-0.02328801868530166 -0.03973317815358891 -0.14174252269353826
-0.007999861511291688 -0.013406588924817784 -0.14141168830475473
-0.011554153475917112 -0.019021936396955732 -0.140519277941374
-0.012155840465178258 -0.01850549851727468 -0.13979192418452605
-0.03267245731227875 -0.048897787893999047 -0.14197717025018777
-0.008820862978458662 -0.012979505719772702 -0.14214684241159084
-0.012997789523109362 -0.018493983816136615 -0.14272011081176128
-0.009174278348376952 -0.012732156502370556 -0.14214684241159084
-0.021106872472828848 -0.027882991764875648 -0.14566412978031215
-0.021872929892263616 -0.027745679297159077 -0.14716233287858452
-0.036223516507625564 -0.045949311637093856 -0.1412569205805472
-0.022078952442720068 -0.027119755794927227 -0.14566412978031215
-0.036930051618544985 -0.04499939809734346 -0.14053905314299084
-0.009998622507546752 -0.01199007751227958 -0.14141168830475473
-0.02326025973861444 -0.026593384489847723 -0.14716233287858452
-0.030165446473510722 -0.03448806356389282 -0.14101637958289331
-0.010324398020286101 -0.011710730819107978 -0.14141168830475473
-0.03807973526614128 -0.04285256262765265 -0.13840011430018295
-0.0239612903072968 -0.02571782666964826 -0.14641191877097773
-0.010742705551570185 -0.011439819484879037 -0.14214684241159084
-0.015378454336885828 -0.016248052393257943 -0.14124979269235852
-0.024884173357481536 -0.025080384726863487 -0.14716233287858452
-0.042608343035967125 -0.04096713151229372 -0.1426997660803401
-0.011439819484878945 -0.010742705551570282 -0.14214684241159084
-0.02537884570737861 -0.02327580734134895 -0.14343692336065172
-0.02802613334887449 -0.0212152278166352 -0.14641191877097773
-0.03666660641889383 -0.02708237572522889 -0.1402929253341004
-0.012768085543797542 -0.009124208675859141 -0.14214684241159084
-0.018505243559139073 -0.012364808435710545 -0.140519277941374
-0.029153282538099012 -0.019314435342462237 -0.14566412978031215
-0.013116456564129445 -0.008615901555592454 -0.14214684241159084
-0.04877231447593331 -0.030683853557366542 -0.1391106123612816
-0.01324693785655909 -0.008261540305739277 -0.14141168830475473
-0.05000809954741828 -0.030375522510016108 -0.1412569205805472
-0.05145783490149022 -0.029083809720653723 -0.1426997660803401
-0.04050710576323684 -0.022894491356033685 -0.1432027117349195
0.13430179222124466 0.07383303507145614 1.9473388794809954
0.135093166112392 0.07220880167792373 1.946343167437327
-0.029749544101953185 -0.01590146261195332 -0.1405066123444964
-0.0436534626797968 -0.01610461262586419 -0.1432027117349195
-0.09888116532269878 -0.02251062615771302 -0.24482807611549132
-0.05237721048316561 -0.025404770490476045 -0.14053905314299084
-0.041206251303984434 -0.021610835366510893 -0.1432027117349195
0.1353756870328005 0.07167773664415823 1.946343167437327
-0.04914302474007252 -0.030648372026220845 -0.13982360462932925
-0.012944766280871576 -0.008871765232915333 -0.14214684241159084
-0.012623193535879066 -0.00932363541597889 -0.14214684241159084
-0.03655997172925113 -0.02722615595997517 -0.1402929253341004
-0.012012848635259074 -0.010097854231504293 -0.14214684241159084
-0.025692679622651662 -0.023194762267958503 -0.14417659039227093
-0.039732760883853815 -0.04132452146417175 -0.13840011430018295
-0.015250369436003348 -0.01636833212123803 -0.14124979269235852
-0.03059210445700712 -0.034426449212246094 -0.14174252269353826
-0.022933139884070298 -0.026638715000132627 -0.14641191877097773
-0.015024022537422865 -0.018454128352757778 -0.15024554533674184
-0.009856677149213885 -0.01210703623415152 -0.14141168830475473
-0.014141955287202013 -0.018084606850313198 -0.1449481013870978
-0.020997213754604144 -0.027965663051103325 -0.14566412978031215
-0.013358389266084531 -0.018235224322566808 -0.14272011081176128
-0.025930445279519466 -0.03720500643299483 -0.13957220175925672
-0.019268052303489182 -0.028113957843575624 -0.14196600837806092
-0.012574799691260574 -0.01850325585107688 -0.14124979269235852
-0.03303148923599898 -0.04901731815867021 -0.1426997660803401
-0.02439893799684219 -0.03878237375354431 -0.14101637958289331
-0.01185151165954853 -0.018838104952952725 -0.140519277941374
-0.011479365608686919 -0.01906716266404031 -0.140519277941374
-0.010931321719916912 -0.019519279439093304 -0.14124979269235852
-0.007321350002664344 -0.01369728245163905 -0.14067971526690873
-0.02595779727719436 -0.05144346692229569 -0.1391106123612816
-0.01558787409591818 -0.031505050753338426 -0.14641191877097773
-0.009684125556707076 -0.020167145969811166 -0.14124979269235852
-0.015168438537342248 -0.03190871752470713 -0.14716233287858452
-0.009058785055956729 -0.02071010340844655 -0.14272011081176128
-0.00844233202199295 -0.020843118178687572 -0.14198341964687178
-0.0055471363967805115 -0.01468007051106594 -0.14214684241159084
-0.007783468077219935 -0.021098013415276853 -0.14198341964687178
-0.011664832734119009 -0.03240031935206117 -0.14343692336065172
-0.004815687079767096 -0.015021624919350187 -0.1428851284869497
-0.026061197897679772 -0.1031821466913041 -0.2569265625977824
-0.007379983977241917 -0.03363606477170265 -0.14343692336065172
-0.003759783211065829 -0.022053573283518597 -0.14124979269235852
-0.0030652085077927673 -0.022160788821012047 -0.14124979269235852
-0.0024549506987757413 -0.022236665249814738 -0.14124979269235852
-0.008910742325983479 -0.08372564321344185 -0.2591362871920785
-0.006048934490346601 -0.08543234558162605 -0.2635919663418313
-0.0011556058973227366 -0.024504563873793767 -0.15488767195734215
