-0.04196309303580929 -0.019545424975780806 -0.14247131355253287		0 255 0
-0.05302883078765996 -0.02099559938262975 -0.13769214905671945		0 255 0
-0.0534623094586557 -0.019010791018623182 -0.13698675590068252		0 255 0
-0.030408472781612374 -0.014601940643741358 -0.1405066123444964		0 255 0
-0.041842013841131315 -0.021944264375161043 -0.14541215609003127		0 255 0
-0.019402188491953562 -0.0106664433861726 -0.13979192418452605		0 255 0
-0.041103443433530396 -0.022807461783117905 -0.1446731717524648		0 255 0
-0.029404596026255187 -0.01723433194913804 -0.14196600837806092		0 255 0
-0.013790128270616165 -0.008155459124829722 -0.1451182994964563		0 255 0
-0.03948065558151964 -0.024622371669255964 -0.1432027117349195		0 255 0
-0.0186971785827645 -0.01207261528746316 -0.140519277941374		0 255 0
-0.03888959965838327 -0.025545692203896773 -0.1432027117349195		0 255 0
-0.04803587238123613 -0.03182440090626758 -0.1391106123612816		0 255 0
-0.01281191538301676 -0.009619458169524624 -0.1451182994964563		0 255 0
-0.017969434802897175 -0.013713839095709203 -0.14272011081176128		0 255 0
-0.02737797933709695 -0.021757930571676062 -0.14566412978031215		0 255 0
-0.01255310915569877 -0.010219837602991793 -0.14662187548211755		0 255 0
-0.02596336381875367 -0.022351733344252295 -0.1427000481980384		0 255 0
-0.011843388674647595 -0.011034481175281526 -0.14662187548211755		0 255 0
-0.011756359675138179 -0.01112715764673073 -0.14662187548211755		0 255 0
-0.046559661797520226 -0.04476625121086768 -0.1267642719610933		0 255 0
-0.017296095541910354 -0.02977740915250406 -0.14343692336065172		0 255 0
-0.01760946319813626 -0.04204523643736611 -0.1402929253341004		0 255 0
-0.008687292688609896 -0.020742215193241268 -0.14198341964687178		0 255 0
-0.012807780328923919 -0.032348760492636824 -0.14491900654377965		0 255 0
-0.011410004066250656 -0.03249093449007995 -0.14343692336065172		0 255 0
-0.005162821323902224 -0.015079367117573898 -0.14437090414384365		0 255 0
-0.012757136652937269 -0.04327530864557823 -0.13885425137909257		0 255 0
-0.0034411365647636907 -0.01539476003094964 -0.1428851284869497		0 255 0
-0.004757639386761298 -0.022098299421994264 -0.14272011081176128		0 255 0
-0.0022111852251648894 -0.015536597192254403 -0.14214684241159084		0 255 0
-0.014502305598928173 -0.1079709051487308 -0.2630056401936641		0 255 0
-0.0018445328907999473 -0.015584379706267174 -0.14214684241159084		0 255 0
-0.008060021460005637 -0.08526612067000076 -0.2635919663418313		0 255 0
-0.0013071272249974017 -0.03024092315674831 -0.19111195144481496		0 255 0
-0.0005115968591538294 -0.06513719584078227 -0.27132431514085376		0 255 0
0.003275777686116063 -0.0438221790148491 -0.27745429516758546		0 255 0
0.00911645280489263 -0.06405553611694474 -0.26949912538082005		0 255 0
0.009196255274378696 -0.03581704952199664 -0.15402781519085218		0 255 0
0.008498946157982896 -0.0320539323301526 -0.20937362139576632		0 255 0
0.011097167968791037 -0.03241217529494071 -0.1427000481980384		0 255 0
0.013800250362157712 -0.03154999376818147 -0.14343692336065172		0 255 0
0.009972564769084832 -0.020155805548444643 -0.14198341964687178		0 255 0
0.007014505894671236 -0.014038229926453597 -0.14214684241159084		0 255 0
0.010287928111942584 -0.01999667673749329 -0.14198341964687178		0 255 0
0.0077753109199426565 -0.013631571168158696 -0.14214684241159084		0 255 0
0.011583018057694494 -0.019411431234035725 -0.14272011081176128		0 255 0
0.008356716284208743 -0.013283090203698661 -0.14214684241159084		0 255 0
0.019182847747965946 -0.02945451398476955 -0.14641191877097773		0 255 0
0.009124208675859174 -0.012768085543797516 -0.14214684241159084		0 255 0
0.02056786519890277 -0.027619050273140964 -0.14343692336065172		0 255 0
0.014064001979307508 -0.017696717724047278 -0.14272011081176128		0 255 0
0.03871469156268853 -0.041881317378373493 -0.13769214905671945		0 255 0
0.009667067430751658 -0.01236215999344999 -0.14214684241159084		0 255 0
0.009273992487294646 -0.012659709939803416 -0.14214684241159084		0 255 0
0.03350913109523146 -0.0501499586990361 -0.14561291074533045		0 255 0
0.006939893044456357 -0.014166084208396634 -0.1428851284869497		0 255 0
0.009684125556707283 -0.020167145969811066 -0.14124979269235852		0 255 0
0.01084226369364073 -0.032498331684489394 -0.1427000481980384		0 255 0
0.010714559771000543 -0.03254065846277828 -0.1427000481980384		0 255 0
0.013714766074661731 -0.04396546885897047 -0.14174252269353826		0 255 0
0.009765622955917996 -0.032654020785857135 -0.14196600837806092		0 255 0
0.007616510970176138 -0.027006110807716137 -0.25416069471828756		0 255 0
0.012017098925288244 -0.06579937099389503 -0.20585925315668374		0 255 0
-0.0002237311471142515 -0.01899001099470744 -0.17202130515373587		0 255 0
-0.005559093208868901 -0.10879857402105983 -0.2630056401936641		0 255 0
-0.001895862245988051 -0.015496454986322841 -0.14141168830475473		0 255 0
-0.0026981104500359092 -0.01545947581303331 -0.14214684241159084		0 255 0
-0.018668115458104657 -0.10696347860616354 -0.2621360633520533		0 255 0
-0.003077484483238553 -0.015471559278990086 -0.1428851284869497		0 255 0
-0.0032426947244077603 -0.015354482190508837 -0.14214684241159084		0 255 0
-0.008170393292647569 -0.03345285772955702 -0.14343692336065172		0 255 0
-0.005848742138445486 -0.02171406826871178 -0.14198341964687178		0 255 0
-0.004304099029203633 -0.015261183994247335 -0.14362649823288368		0 255 0
-0.00668112638468165 -0.021717340723312807 -0.1434598189812724		0 255 0
-0.007780629980013044 -0.02134811783213388 -0.1434598189812724		0 255 0
-0.01204572169490386 -0.0322606510423991 -0.14343692336065172		0 255 0
-0.01777443825130048 -0.041975760220051284 -0.1402929253341004		0 255 0
-0.019246575176267655 -0.04132147680304772 -0.1402929253341004		0 255 0
-0.022935641839037176 -0.040210460679371354 -0.14247131355253287		0 255 0
-0.024677469509039433 -0.038885469768310935 -0.14174252269353826		0 255 0
-0.033246240178645865 -0.048509490223388144 -0.14197717025018777		0 255 0
-0.010547740968322235 -0.012059200293634411 -0.1451182994964563		0 255 0
-0.011013051024023212 -0.011635800720151442 -0.1451182994964563		0 255 0
-0.039609278451694756 -0.041849045257990755 -0.1391106123612816		0 255 0
-0.01567549415907129 -0.015799095217885063 -0.140519277941374		0 255 0
-0.011535626333717687 -0.011355833531504956 -0.14662187548211755		0 255 0
-0.016453346402786048 -0.015329577213029437 -0.14198341964687178		0 255 0
-0.017072877146479603 -0.014815088113804423 -0.14272011081176128		0 255 0
-0.03546289144919139 -0.028640503334672773 -0.1402929253341004		0 255 0
-0.012685835397980407 -0.009920177887413666 -0.14586863833921745		0 255 0
-0.018036164505737036 -0.01343150458073463 -0.14198341964687178		0 255 0
-0.0183582932925201 -0.012581955103269461 -0.140519277941374		0 255 0
-0.0187914190416765 -0.01192539715208658 -0.140519277941374		0 255 0
-0.029280882298677174 -0.01778556088765661 -0.1427000481980384		0 255 0
-0.01924512043365462 -0.011178455453639657 -0.140519277941374		0 255 0
-0.02949610465555759 -0.016366786417064294 -0.1405066123444964		0 255 0
-0.041192690963339086 -0.02264587349343496 -0.1446731717524648		0 255 0
-0.019628098916995428 -0.010491437448677832 -0.140519277941374		0 255 0
-0.05294191246431637 -0.024912572984773233 -0.1412569205805472		0 255 0
-0.030736869256033788 -0.014316513120744648 -0.14123484810910175		0 255 0
-0.052522494265511685 -0.022973810259197053 -0.13840011430018295		0 255 0
-0.0559239580487218 -0.01720445594216205 -0.1412569205805472		0 255 0
-0.0984201383258616 -0.02444768941036086 -0.24482807611549132		0 255 0
-0.09699049267583068 -0.025716563153553987 -0.24224678059794502		0 255 0
-0.042022920192462176 -0.01997642436131931 -0.1432027117349195		0 255 0
-0.02948837671216916 -0.017439377373023573 -0.1427000481980384		0 255 0
-0.013318990212557514 -0.008452488212690712 -0.1428851284869497		0 255 0
-0.03798919375065901 -0.02603609837603716 -0.14174252269353826		0 255 0
-0.013111817301982848 -0.009062134612139224 -0.14437090414384365		0 255 0
-0.05506320120716149 -0.04168175264783954 -0.1355384645369128		0 255 0
-0.07616052725995064 -0.06200441744757521 -0.2370970820243749		0 255 0
-0.03477828449886163 -0.029468050979268617 -0.1402929253341004		0 255 0
-0.026799788973670406 -0.036583764254653664 -0.13957220175925672		0 255 0
-0.025886714790042467 -0.03809114408692381 -0.14174252269353826		0 255 0
-0.009494930647702356 -0.020385162186640222 -0.14198341964687178		0 255 0
-0.006362789526289885 -0.014703539053607172 -0.1451182994964563		0 255 0
-0.020578468647644736 -0.05319209261027487 -0.13769214905671945		0 255 0
-0.020160068535780742 -0.053352073294060276 -0.13769214905671945		0 255 0
-0.014426265400736507 -0.04324092931226208 -0.1402929253341004		0 255 0
-0.004042879015651694 -0.015247792841348595 -0.1428851284869497		0 255 0
-0.020278457676904865 -0.10630339788417169 -0.26126685926945553		0 255 0
-0.0005602987654979767 -0.01584661069922664 -0.14362649823288368		0 255 0
0.002726668375574809 -0.08676399454561538 -0.2671639469128611		0 255 0
0.0011819176867290699 -0.030081813890153523 -0.2726878940174279		0 255 0
0.01047086606735617 -0.08034670351150802 -0.2493727495109145		0 255 0
0.010277325261239157 -0.03249660060183277 -0.14196600837806092		0 255 0
0.023567585814206454 -0.053879977975489296 -0.14197717025018777		0 255 0
0.007397703237416559 -0.013840129306674541 -0.14214684241159084		0 255 0
0.007882132119953521 -0.013570084217054511 -0.14214684241159084		0 255 0
-0.03022709874918802 -1.0368647522362339e-16 1.9241586011816192		185 69 0
-0.060509482796135654 -2.075625927845398e-16 1.9254429626690435		185 69 0
-0.09093375364264547 -3.1192541739760946e-16 1.928245589246468		186 68 0
-0.12139823953544829 -4.1642618963296584e-16 1.9295697622624826		186 68 0
0.018841889705011276 -0.012061478214129805 -0.14124979269235852		0 255 0
0.01850524355913922 -0.01236480843571033 -0.140519277941374		0 255 0
0.3026353097023232 -0.35434042105529506 2.084712626557372		215 39 0
0.2797528483400046 -0.3275485010976376 2.080036135088606		213 41 0
0.2563114648325395 -0.3001021673888449 2.068882578138236		211 43 0
0.2340595698610576 -0.2740485458163038 2.064985596146478		209 45 0
0.009174278348377094 -0.012732156502370452 -0.14214684241159084		0 255 0
0.24142877152530712 -0.3939759481349986 2.067164023625341		212 42 0
0.22411612588695995 -0.3657242781413992 2.071232173006052		212 42 0
0.20572050100751596 -0.33570534664609064 2.0639762585113335		210 44 0
0.18803805554575317 -0.3068502181867505 2.062033373460603		209 45 0
0.007681784909186531 -0.013591342516759962 -0.14141168830475473		0 255 0
0.016569779979982924 -0.030999877954849823 -0.14641191877097773		0 255 0
-0.0833279009445154 0.16354021379539763 1.9417082838047364		189 65 0
-0.09756195558039604 0.1914761189597111 1.9465278217100968		190 64 0
-0.11160105200818818 0.2190293970966956 1.9458849730644725		190 64 0
-0.12591057691261168 0.24711342100290465 1.9487055918690679		191 63 0
0.00912616335919281 -0.020425699662607995 -0.14124979269235852		0 255 0
0.17807588542342806 -0.4299132177208306 2.0817878384358917		215 39 0
0.16445509675462502 -0.39702972498638905 2.0751450355646615		213 41 0
0.1506718539527874 -0.3637540332807118 2.0639762585113335		210 44 0
0.1376553201681617 -0.3323293408827813 2.0610493012098994		209 45 0
0.010434665164942236 -0.030091045806230773 -0.14248384724305724		0 255 0
0.009700128746610737 -0.02797282076872616 -0.14296653035077792		0 255 0
0.008871058198811153 -0.025581982209358534 -0.14193965799829647		0 255 0
0.008097500716952524 -0.02335122988023102 -0.1416126779113352		0 255 0
-0.08579033117817088 0.26403548991586745 1.9506832851955302		191 63 0
-0.0760793625518471 0.23414820164460554 1.948857755265966		191 63 0
-0.06650894895991782 0.2046934972887668 1.949506125118857		190 64 0
-0.056805807969278484 0.17483030000298594 1.9446913550437308		189 65 0
0.0074365576648356664 -0.02383939635946979 -0.14308522212763158		0 255 0
0.008104922022885399 -0.025981974089947492 -0.1426753211364609		0 255 0
0.008816694784727512 -0.02826370627736321 -0.14296653035077792		0 255 0
0.009386835717820254 -0.030091408864680695 -0.1410191278789699		0 255 0
0.008852358219349533 -0.03286530781559274 -0.15227116370522242		0 255 0
0.009040219322855168 -0.03356276185442663 -0.16784461698635952		0 255 0
0.008761415682388574 -0.03252767411430175 -0.1765932841643594		0 255 0
0.008038914225664898 -0.029845311721811197 -0.17710063022558767		0 255 0
0.007914679362222404 -0.03033066155212357 -0.1796062605267527		0 255 0
0.008626015148148584 -0.033056645004570416 -0.17909173650312774		0 255 0
0.009641775240399358 -0.03694924433376941 -0.18439574158146124		0 255 0
0.00903452148650578 -0.03462212440348952 -0.1600771249220174		0 255 0
0.10852848577714512 -0.45205367685579256 2.0798379843189894		214 40 0
0.10013208473041574 -0.4170801495062646 2.071232173006052		212 42 0
0.09173837567096883 -0.3821178350907455 2.0600512203668173		209 45 0
0.0838124173049712 -0.3491038425311101 2.0571130221345424		208 46 0
0.009391640215726879 -0.04280467540076693 -0.1424484357860532		0 255 0
0.00932901879521621 -0.042519263106798794 -0.14983351318437846		0 255 0
0.00909336920712454 -0.04144523302314022 -0.15510191261270936		0 255 0
0.008742091413609095 -0.039844199382419294 -0.1588742131791378		0 255 0
0.010850898337020614 -0.05455114973474464 -0.21662509103955874		0 255 0
0.010775248679803989 -0.054170833225453734 -0.20189456368002695		0 255 0
0.009923460020584819 -0.04988860246001641 -0.1750818445350811		0 255 0
0.011349605566174143 -0.05705832028287675 -0.18910455980750157		0 255 0
0.013065075866551578 -0.06568257187153294 -0.13143478818388288		0 255 0
0.010679897652068721 -0.055985984119642306 -0.25498335115904425		0 255 0
0.01024693448437294 -0.05371631171072079 -0.2640635495290284		0 255 0
0.0095669712623323 -0.05015181967237863 -0.2676457883928214		0 255 0
0.008417337079256602 -0.04412522623357291 -0.25738514496048565		0 255 0
0.00824317335084283 -0.04513532133264737 -0.2628913327998978		0 255 0
0.009235831890785813 -0.05057060217256105 -0.26948527530310395		0 255 0
0.00999517680639949 -0.05472837919723456 -0.2686445624818275		0 255 0
0.010532093078742555 -0.057668252890228505 -0.26226026695626115		0 255 0
0.010377222600907066 -0.05811052221998175 -0.2640842298555751		0 255 0
0.009780182447251354 -0.05476720807422959 -0.2686445624818275		0 255 0
0.009068036562551361 -0.0507793231797579 -0.2704056786576531		0 255 0
0.008150532926424568 -0.04564147295869782 -0.26565094533838146		0 255 0
0.007926991533281979 -0.04649695976686322 -0.27025949666509413		0 255 0
0.008727997167182571 -0.05119537865328866 -0.27224778285597856		0 255 0
0.00938167781292354 -0.05502964068798155 -0.26956209445537055		0 255 0
0.009989094907477746 -0.05859253691268566 -0.26591000846351187		0 255 0
0.009528606842534015 -0.058669183142220784 -0.26591000846351187		0 255 0
0.008949191115979188 -0.05510162621196887 -0.26956209445537055		0 255 0
0.008325644545290714 -0.05126234849194311 -0.27224778285597856		0 255 0
0.007561564532558041 -0.04655778349696194 -0.27025949666509413		0 255 0
-0.028771653758518267 0.18165707249754828 1.9456857145879496		189 65 0
-0.03366899568736572 0.21257767251869017 1.949506125118857		190 64 0
-0.038533433709276664 0.24329052544757285 1.9498486850814898		191 63 0
-0.04349590623590892 0.27462234387913015 1.9536498341266404		192 62 0
0.007060469359623957 -0.04696232274889574 -0.27210602715568494		0 255 0
0.007773452200512621 -0.05170468881307214 -0.2740915879694773		0 255 0
0.008384262263951947 -0.05576745828014889 -0.2723172685366485		0 255 0
0.008958307054398096 -0.0595856855605361 -0.26956686519489004		0 255 0
0.00875386860226239 -0.059822841401753486 -0.2704821573248686		0 255 0
0.008165199882422217 -0.05579995311484561 -0.2723172685366485		0 255 0
0.00759582901233848 -0.05190894391566768 -0.2750141176797573		0 255 0
0.006922699308742971 -0.047308859846482976 -0.2739542808833374		0 255 0
0.006759605963858734 -0.04749546706608195 -0.2748790430996661		0 255 0
0.007391925021648587 -0.05193837233971567 -0.2750141176797573		0 255 0
0.007972834202348436 -0.05602005298912504 -0.27323650484127754		0 255 0
0.008518877959492941 -0.0598567564039039 -0.2704821573248686		0 255 0
0.013213057036228701 -0.09552751987846951 -0.2328194752799388		0 255 0
0.008075754320579033 -0.060124681403490844 -0.27139787191185266		0 255 0
0.007532612357407018 -0.05608094304837922 -0.27323650484127754		0 255 0
0.006983778208594295 -0.051994825884483724 -0.2750141176797573		0 255 0
0.0064078678635016584 -0.0477071241242367 -0.2758042232041391		0 255 0
0.03639005537995361 -0.46237949401839856 2.0749633653105137		214 40 0
0.03360590027380262 -0.42700344922238 2.0682975360955633		212 42 0
0.030803152235001175 -0.3913911588174589 2.0580887071775877		209 45 0
0.02814172426768267 -0.35757451017413067 2.055144888573302		208 46 0
0.006110398271436479 -0.0863004315222361 -0.2662703486159138		0 255 0
-0.1878083276920431 2.985127886552443 1.9985423520597367		171 0 83
-0.14113172924871897 2.992691091319198 2.00187458821425		170 0 84
-0.09413327741332947 2.9953694557116908 2.0024299612902516		170 0 84
0.0021389043353308716 -0.10891950382996254 -0.2630056401936641		0 255 0
0.0011991133203459359 -0.06106249154325757 -0.273230551464829		0 255 0
0.0011147030983045302 -0.05676406671375033 -0.27415615653696257		0 255 0
0.0010265626643881417 -0.05227568816827155 -0.2740915879694773		0 255 0
0.0009387393761832826 -0.04780345964548008 -0.2739542808833374		0 255 0
-0.0470985569698822 2.9981406501762 2.003540707770219		170 0 84
0.0005594666661342319 -0.047486808511407914 -0.27210602715568494		0 255 0
0.0006159629290149957 -0.05228213838435036 -0.2740915879694773		0 255 0
0.0006666057215522525 -0.05658063324967747 -0.27323650484127754		0 255 0
0.0007170840391023532 -0.06086516769038452 -0.2723140046940337		0 255 0
0.0004780621696695562 -0.06086751435749363 -0.2723140046940337		0 255 0
0.0004444095254976428 -0.056582814725817235 -0.27323650484127754		0 255 0
0.00041064722992515616 -0.05228415413127419 -0.2740915879694773		0 255 0
0.0003729825706408564 -0.04748863937355583 -0.27210602715568494		0 255 0
0.00018585979783717303 -0.04732856558633332 -0.27118254430489386		0 255 0
0.00020463443255363886 -0.05210946248215456 -0.27316947495020366		0 255 0
0.00022220647609833891 -0.056584123624957676 -0.27323650484127754		0 255 0
0.0002390329279266579 -0.060868922372234666 -0.2723140046940337		0 255 0
-0.00023903292792597745 -0.060868922372234666 -0.2723140046940337		0 255 0
-0.0002214589176407156 -0.05639376040562176 -0.2723172685366485		0 255 0
-0.00020463443255305637 -0.05210946248215456 -0.27316947495020366		0 255 0
-0.0001833311096736189 -0.04668464374328739 -0.26749301005496684		0 255 0
-0.00036287289417211957 -0.04620146185434979 -0.264730605041774		0 255 0
-0.0004092657093903786 -0.05210825709049553 -0.27316947495020366		0 255 0
-0.0004429144201113538 -0.05639245590994715 -0.2723172685366485		0 255 0
-0.0004780621696689298 -0.06086751435749364 -0.2723140046940337		0 255 0
-0.000817497473817005 -0.0693881304242488 -0.27026768037282545		0 255 0
-0.000867407815469733 -0.0736244558038836 -0.2691443610987673		0 255 0
-0.0009201909003752647 -0.0781046159229338 -0.26885650860679916		0 255 0
-0.0009698274452666757 -0.08231770178686063 -0.2675964413202386		0 255 0
-0.001673024076373476 -0.06084639543915184 -0.2723140046940337		0 255 0
-0.0015447913053562694 -0.05618268377847794 -0.2713984518439087		0 255 0
-0.001422601432021999 -0.05173874692392117 -0.27132651597643026		0 255 0
-0.0012039684734425288 -0.04378726096408107 -0.2509845139389648		0 255 0
-0.0013459519713195263 -0.042828886176393764 -0.24551960191027605		0 255 0
-0.001614734952843794 -0.05138169932809109 -0.26948527530310395		0 255 0
-0.0017534624708235881 -0.055796080527195355 -0.26956209445537055		0 255 0
-0.001911953798325617 -0.06083935634250933 -0.2723140046940337		0 255 0
-0.0021436180218005153 -0.06062672697329323 -0.27139787191185266		0 255 0
-0.0019725590832376048 -0.055788764491580135 -0.26956209445537055		0 255 0
-0.0018102963123954278 -0.0511995790090305 -0.26856531037451464		0 255 0
-0.0014749756591969755 -0.041715896056554944 -0.23917066806572143		0 255 0
-0.0015111904847278713 -0.03204471684012312 -0.18381200294310276		0 255 0
-0.0023473496805136995 -0.049775429766790974 -0.2612219296709384		0 255 0
-0.002602813391350418 -0.05519252467270807 -0.2668108142161826		0 255 0
-0.002828781776607034 -0.059984172710163826 -0.26865199983982546		0 255 0
-0.003505310028285386 -0.06860340675179434 -0.26754118446260466		0 255 0
-0.003744581407373004 -0.0732862540923019 -0.2682388917946131		0 255 0
-0.003959119389547441 -0.07748503717740932 -0.2670531677162336		0 255 0
-0.004172680518254088 -0.08166470198902682 -0.2658015522647225		0 255 0
-0.00373213843908165 -0.05932064178350196 -0.26591000846351187		0 255 0
-0.0034575050774793737 -0.054955469501892715 -0.2658946069977083		0 255 0
-0.003041309329595516 -0.048340227523326104 -0.2539093791898101		0 255 0
-0.001841482406369488 -0.029269524687231388 -0.1680383999778937		0 255 0
-0.007719589351236018 -0.10902790007984478 -0.26387558610911255		0 255 0
-0.03637295752185548 -0.4621622451329092 2.0739884443108214		213 41 0
-0.03357411217356524 -0.42659954311264114 2.0663411162748133		211 43 0
-0.030759093317134938 -0.39083133718664315 2.0551449447791286		209 45 0
-0.0280878239287629 -0.3568896414325098 2.051208633461043		207 47 0
0.3863898796526421 4.46129336094802 2.0643837841988417		76 0 178
0.46360271216775845 5.352799881225808 1.9821447870475264		19 0 235
0.35420161597557615 4.089644685335622 -0.16128410630437878		134 0 120
-0.0076434356759137855 -0.08085910340434727 -0.2640083015507529		0 255 0
-0.007203024323538378 -0.07620003795366377 -0.2634514578749845		0 255 0
-0.006789447508292364 -0.07182485225346881 -0.2637178302680718		0 255 0
-0.006376876725871674 -0.06746030926889286 -0.26391180745955334		0 255 0
-0.006618935670924158 -0.06720318165151831 -0.2630055552008307		0 255 0
-0.007047238524802314 -0.07155181350444259 -0.2628149052344635		0 255 0
-0.007527827987584619 -0.07643132020656097 -0.2643512532545883		0 255 0
-0.007933890872675292 -0.08055414586697081 -0.26311230104132965		0 255 0
0.4282716801920748 4.17997131964932 -0.16509129248565768		127 0 127
0.5497270925292244 5.365387408702369 1.9897582964464404		18 0 236
0.46548655220614776 4.54319192207972 2.1054048135370076		69 0 185
-0.008731302325227864 -0.079087147085212 -0.2586387200819466		0 255 0
-0.008370361379439117 -0.0758177848978335 -0.26255209110491473		0 255 0
-0.007592418636586134 -0.06877126768468894 -0.25291276741257585		0 255 0
-0.007231800562486038 -0.06550483003248042 -0.2566745376990875		0 255 0
-0.01044496298879646 -0.08824904670836022 -0.2595534790813414		0 255 0
-0.011184367073334424 -0.09449624027551157 -0.26430544925703237		0 255 0
-0.011670947265526017 -0.0986073355617407 -0.2627781999393016		0 255 0
-0.012276718048987556 -0.10372546706891775 -0.2638092297007073		0 255 0
0.6970826233256302 5.517977147516911 1.5685993802557134		16 0 238
-0.004731740513174714 -0.037455582948137854 -0.16889846043623707		0 255 0
0.699665646875067 5.538423884302991 1.1104169758991795		22 0 232
-0.00374918121995192 -0.029677825269689435 -0.1444478117779627		0 255 0
0.7000902123664747 5.541784666225851 0.6611266200454369		27 0 227
-0.003446554338356341 -0.027282286834228116 -0.14415546499625903		0 255 0
-0.003146070791945522 -0.024903714643761617 -0.1438259616185971		0 255 0
0.6931636516351535 5.4869552922787905 0.21729650845239165		33 0 221
0.7532209078942722 5.2924059502362635 0.21003457290344257		46 0 208
-0.003628985923624514 -0.025498584139422752 -0.1475725335828145		0 255 0
0.7912475430899678 5.5595950155793785 0.6646522310945991		24 0 230
-0.0038746606817981213 -0.027224784963581758 -0.14415546499625903		0 255 0
0.7908565156151436 5.556847513335646 1.1164639202609878		20 0 234
-0.004214877711404789 -0.029615274410954903 -0.1444478117779627		0 255 0
0.7874658340848174 5.533023343137529 1.576198669091025		14 0 240
-0.00448755111193781 -0.031531177584018064 -0.14248384724305724		0 255 0
-0.004611338836714404 -0.03151331193242226 -0.14248384724305724		0 255 0
-0.004308893539633075 -0.029446438660492198 -0.1437057434018487		0 255 0
-0.004002101916408549 -0.027349863140178204 -0.1448998556468025		0 255 0
-0.0037674453015925542 -0.025746249230736765 -0.1490903652368197		0 255 0
-0.006054241239094262 -0.03637368530458032 -0.1436151147351218		0 255 0
-0.007354450789479191 -0.04418530217744654 -0.16373628530375567		0 255 0
-0.0104936272550126 -0.06304537272361778 -0.2199890105554661		0 255 0
-0.011279293911717034 -0.0677656325541534 -0.22330606031496006		0 255 0
-0.011141353757221662 -0.06535128430791623 -0.21549264459782		0 255 0
-0.010275110859834955 -0.06027020645145394 -0.21044458726970675		0 255 0
-0.007454930285014876 -0.04372801359403144 -0.16214895880506222		0 255 0
-0.006165240769717329 -0.0361631459828116 -0.14287832823377125		0 255 0
-0.006242526168130567 -0.03576806216630516 -0.14141314152478027		0 255 0
-0.006796190287196495 -0.03894041452761424 -0.14449379195660203		0 255 0
-0.009406486796378746 -0.053896739146575355 -0.18831797448867055		0 255 0
-0.010897308746660403 -0.062438763762955186 -0.20602827340400115		0 255 0
-0.014402535259678695 -0.0806515266578677 -0.23929040562849363		0 255 0
-0.016560260265846175 -0.09273438656534949 -0.2616545266726257		0 255 0
-0.017339053695852452 -0.09709548535446119 -0.2610207346949931		0 255 0
-0.018300941960295414 -0.1024818812634369 -0.2629344776480877		0 255 0
-0.005692529873540227 -0.0311693269208852 -0.14175001997508793		0 255 0
-0.00537431841046784 -0.029426966785266257 -0.1444478117779627		0 255 0
-0.004991633852236445 -0.027331585580763113 -0.14564706664099566		0 255 0
-0.004674850678789585 -0.025597046014779242 -0.1490903652368197		0 255 0
-0.004775333739085761 -0.025578490597219665 -0.1490903652368197		0 255 0
-0.005072767028789209 -0.02717165560298872 -0.1448998556468025		0 255 0
-0.0055181457641631715 -0.029557272277635115 -0.14519269169910445		0 255 0
-0.005814887326606262 -0.031146732131012406 -0.14175001997508793		0 255 0
-0.0199269246326208 -0.10673613242465822 -0.2621360633520533		0 255 0
-0.010661077389146458 -0.055887324846361844 -0.18494039134385945		0 255 0
-0.008788256394189696 -0.046069653376235226 -0.1614321950149459		0 255 0
-0.007181772931170611 -0.03764817214306654 -0.14010009732991313		0 255 0
-0.006768536234112574 -0.0354819095146354 -0.14068482865768692		0 255 0
-0.006907820819219448 -0.035455056015846705 -0.14068482865768692		0 255 0
-0.007291768484829704 -0.037425704408099496 -0.13937771257242387		0 255 0
-0.008366809308701607 -0.04294345503122687 -0.15059168692850486		0 255 0
-0.010014255929483726 -0.05139913356597314 -0.1702170489311986		0 255 0
0.5583379501401227 2.8069544266920534 0.6397207046103897		218 0 36
-0.01493712917062325 -0.07509401937846122 -0.22362864401889		0 255 0
1.0583122681290953 5.320495060566722 1.123407518940732		33 0 221
-0.018377786544409556 -0.09239137207257156 -0.2616545266726257		0 255 0
-0.019242054326985527 -0.0967363396276879 -0.2610207346949931		0 255 0
-0.02024197393004434 -0.1017632749370964 -0.26206010449034844		0 255 0
-0.008978267771154572 -0.043354415205985396 -0.14391589693281448		0 255 0
-0.008260074366043414 -0.03988639042915414 -0.14020287810883383		0 255 0
-0.007732163467178518 -0.037337205120303585 -0.13937771257242387		0 255 0
-0.007325026828170233 -0.03537121665314688 -0.14068482865768692		0 255 0
-0.007463872433657156 -0.03534217868003276 -0.14068482865768692		0 255 0
-0.00787872633220388 -0.03730655317046901 -0.13937771257242387		0 255 0
-0.00837329595240578 -0.039648389535205365 -0.13948079839948593		0 255 0
-0.008962559904093087 -0.04243861298226268 -0.14099161907045138		0 255 0
-0.01540026447066308 -0.07019043602722908 -0.2098860036890052		0 255 0
-0.019712084126693726 -0.08984259864457259 -0.25548334820135027		0 255 0
-0.021066524454930232 -0.09601578855263461 -0.2601425953126585		0 255 0
-0.022161901979778964 -0.10100823697649268 -0.2611861140327705		0 255 0
-0.009643698409974723 -0.04160576454341634 -0.13882708466914967		0 255 0
-0.009197495597574774 -0.03968071376288585 -0.14020287810883383		0 255 0
-0.008609673024429177 -0.03714467348747611 -0.13937771257242387		0 255 0
-0.008156331168297224 -0.035188822762779834 -0.14068482865768692		0 255 0
-0.10807063222530866 -0.4501465795616135 2.071063686939492		213 41 0
-0.09975375844303319 -0.4155043071084298 2.063406493750282		211 43 0
-0.09138879750972949 -0.38066173725612384 2.052201191277033		208 46 0
-0.08345157641439709 -0.3476008320525783 2.0482564526812324		207 47 0
-0.010296023636518607 -0.04144915511251104 -0.13882708466914967		0 255 0
-0.009819638487601137 -0.03953135046987781 -0.14020287810883383		0 255 0
-0.009192054043346196 -0.0370048561751427 -0.13937771257242387		0 255 0
-0.008708046946926635 -0.03505636752328157 -0.14068482865768692		0 255 0
-0.008845645482009085 -0.03502190088450199 -0.14068482865768692		0 255 0
-0.00938569508740372 -0.03716007879263917 -0.14010009732991313		0 255 0
-0.009974801623395903 -0.039492484127658836 -0.14020287810883383		0 255 0
-0.01045871428095286 -0.04140840322753513 -0.13882708466914967		0 255 0
-0.011386612342605752 -0.041622444609652184 -0.14026730611256372		0 255 0
-0.010859625309094916 -0.03969610445225203 -0.14165552523449962		0 255 0
-0.010113475464170582 -0.03696863998288936 -0.14010009732991313		0 255 0
-0.009580893617172959 -0.03502184863180241 -0.14141314152478027		0 255 0
-0.010129810935410204 -0.03486703793707331 -0.14141314152478027		0 255 0
-0.01069290594859848 -0.03680522368527725 -0.14010009732991313		0 255 0
-0.011481804892745131 -0.03952063166174058 -0.14165552523449962		0 255 0
-0.012038984549276233 -0.041438456618781476 -0.14026730611256372		0 255 0
-0.01220161974162513 -0.041390860242390824 -0.14026730611256372		0 255 0
-0.011577131077163209 -0.039272442886249065 -0.14092780160695223		0 255 0
-0.010837356903627202 -0.036762949058695905 -0.14010009732991313		0 255 0
-0.010266655014177414 -0.03482698951836537 -0.14141314152478027		0 255 0
-0.010403340768423848 -0.03478640402439602 -0.14141314152478027		0 255 0
-0.01098164073320602 -0.03672010750196214 -0.14010009732991313		0 255 0
-0.011731263936512889 -0.03922667690084625 -0.14092780160695223		0 255 0
-0.012364066769903486 -0.04134262556773231 -0.14026730611256372		0 255 0
-0.01307911421251241 -0.041355774969268656 -0.14099161907045138		0 255 0
-0.012409714678690441 -0.03923915330548727 -0.14165552523449962		0 255 0
-0.01155706033569895 -0.03654308531782559 -0.14010009732991313		0 255 0
-0.01094845842023919 -0.03461870393750695 -0.14141314152478027		0 255 0
-0.009823569458960537 -0.03064276671997257 -0.1439601275729857		0 255 0
-0.009132050429690801 -0.028485703914557584 -0.1444478117779627		0 255 0
-0.008657441032818338 -0.027005249677202532 -0.1486632611126072		0 255 0
-0.00778234963201423 -0.024275567582978125 -0.14606550534855708		0 255 0
1.61594718872559 4.719795509596817 2.793841446975756		20 0 234
-0.015735532236984786 -0.04537746193518308 -0.1402792891824728		0 255 0
-0.01679627067106108 -0.048436374540779585 -0.14239663940167188		0 255 0
-0.017437624746232252 -0.05028588428056776 -0.14085190479837661		0 255 0
-0.017975149729433947 -0.05183597607899547 -0.13857101275570674		0 255 0
0.3072046555644081 0.8532937568502924 0.507893752786807		59 195 0
-0.018892134193966136 -0.051209370516217684 -0.1378611172047068		0 255 0
-0.01842156106516765 -0.049933826236243525 -0.14085190479837661		0 255 0
-0.017653537140491424 -0.0478520062936017 -0.14167052664582847		0 255 0
-0.01670902608442733 -0.04529179704831176 -0.1410016367544876		0 255 0
0.961940190100612 2.5457008459898054 2.145364834566835		180 0 74
1.0142339973893806 2.5616626630412367 2.171975782397224		177 0 77
1.5468237277982173 3.9068307708144294 2.3531788464411187		84 0 170
1.0453332939092874 2.523657815355952 2.153409978531162		179 0 75
1.0839089236763773 2.5047657358425535 2.151553404804032		179 0 75
-0.018431572048144745 -0.04169139303303 -0.1402929253341004		0 255 0
1.103412690848343 2.4437882200007195 2.113803342191636		184 0 70
-0.02021107117366422 -0.04384120247630776 -0.1410016367544876		0 255 0
-0.021353542319616618 -0.04631941396755738 -0.14167052664582847		0 255 0
-0.02239674246177691 -0.04858229000528847 -0.14157382182078326		0 255 0
-0.02320603258398109 -0.050337775986450194 -0.13999852985102795		0 255 0
0.8759734125472751 1.8615382584726257 1.621877274257514		240 0 14
1.1509652763785747 2.3494124364271003 2.062439365443858		189 0 65
1.1845188496225578 2.324749138238115 2.056869840108992		190 0 64
-0.031192182658840023 -0.04915101507241896 -0.14053905314299084		0 255 0
-0.030345156119200817 -0.047403815231330436 -0.14215853756146768		0 255 0
-0.029286123173848242 -0.04574944239277318 -0.1437543443176467		0 255 0
-0.028207976645463005 -0.044065211188850144 -0.14532572799215923		0 255 0
-0.02643015156439684 -0.0412879741456319 -0.1431843227425148		0 255 0
-0.027096811316559017 -0.040553243966222056 -0.14245419341069215		0 255 0
-0.028920510540173493 -0.04328260273365208 -0.14458983494940633		0 255 0
-0.030178708477048007 -0.04516562901655233 -0.1437543443176467		0 255 0
-0.03142946026917955 -0.0470375113563206 -0.14288338445246904		0 255 0
-0.032346921973652416 -0.04641136807117808 -0.14288338445246904		0 255 0
-0.030902093774626244 -0.04433832837363775 -0.1430250790504088		0 255 0
-0.029764733147471408 -0.04270644319026404 -0.14458983494940633		0 255 0
-0.028030733133411197 -0.04021849973296916 -0.1431843227425148		0 255 0
-0.040178008218629005 -0.04346432441830565 -0.13677931188028422		0 255 0
-0.04141813495668596 -0.044805885965344475 -0.1351368590709814		0 255 0
-0.04285387323927363 -0.0463590588890644 -0.13416177997966683		0 255 0
-0.04473588615074591 -0.04839500898640506 -0.1345274083431078		0 255 0
-0.02239065042603998 -0.024032047493795658 -0.1469459746531181		0 255 0
-0.02222848385889385 -0.02385799294114054 -0.15746012408910193		0 255 0
-0.02064237400653293 -0.02215560973310363 -0.15874199618478035		0 255 0
-0.017288561814929437 -0.018555938783833187 -0.14531614764444453		0 255 0
-0.024983545351416978 -0.02660477358710857 -0.14214432272888136		0 255 0
-0.026101389215331425 -0.027795156396548205 -0.13937771257242387		0 255 0
-0.027883452915973307 -0.02969286149030077 -0.14020287810883383		0 255 0
-0.02953947940680423 -0.03145635058774833 -0.14026730611256372		0 255 0
-0.034391773470626164 -0.03633650853372762 -0.14612961392244722		0 255 0
-0.035601685487657415 -0.0376148368633052 -0.14385633124122438		0 255 0
-0.03677358861462076 -0.0388530070324003 -0.14157382182078326		0 255 0
-0.038102375694911705 -0.04025693239623004 -0.13999852985102795		0 255 0
-0.029785623399524376 -0.031223380256244705 -0.14026730611256372		0 255 0
-0.028115797715861042 -0.02947295181688236 -0.14020287810883383		0 255 0
-0.02631888459053849 -0.0275893014045066 -0.13937771257242387		0 255 0
-0.02506214144519782 -0.0262718950643718 -0.14141314152478027		0 255 0
-0.038295380536577356 -0.03982955726606735 -0.16138175298821056		0 255 0
-0.036817027509187236 -0.03829197895403939 -0.1475473850434875		0 255 0
-0.03688853499575413 -0.038366351149621794 -0.14085190479837661		0 255 0
-0.0384173744850297 -0.03995643849528912 -0.13999852985102795		0 255 0
-0.03046337137273688 -0.031189738567252507 -0.1417186763017252		0 255 0
-0.028461058625807452 -0.02913968276934115 -0.14020287810883383		0 255 0
-0.02664207947671373 -0.0272773319669513 -0.13937771257242387		0 255 0
-0.0253699035740914 -0.025974822361929065 -0.14141314152478027		0 255 0
-0.02351754926951345 -0.023889894115236662 -0.14997399053008753		0 255 0
-0.020663230713397294 -0.020990384166503773 -0.14223021714469644		0 255 0
-0.020201172723684515 -0.020521010579875553 -0.15095297527829155		0 255 0
-0.01788379800364872 -0.018166945704640076 -0.14606550534855708		0 255 0
-0.025705351452535614 -0.025908037800058185 -0.14214432272888136		0 255 0
-0.026855491234011885 -0.027067246418110303 -0.13937771257242387		0 255 0
-0.028837378610880374 -0.029064760950062055 -0.14092780160695223		0 255 0
-0.03070739292606812 -0.030949520302759215 -0.1417186763017252		0 255 0
-0.031069869002913218 -0.030585617983435547 -0.1417186763017252		0 255 0
-0.029027692055760324 -0.02857527014597474 -0.14020287810883383		0 255 0
-0.02703223999164004 -0.026610918943473102 -0.13865827416356474		0 255 0
-0.02600878245271439 -0.025603412883344175 -0.14214432272888136		0 255 0
-0.057979246478949614 -0.05574597006698428 -0.23492082453248825		0 255 0
-0.041450305350990306 -0.0398536997579401 -0.1597171086700283		0 255 0
-0.05767855601469256 -0.05545686176292953 -0.2117515540898515		0 255 0
-0.041195556633500455 -0.03960876359125591 -0.14434012595403975		0 255 0
-0.016187536216981078 -0.01544214154803872 -0.14124979269235852		0 255 0
-0.041609254999173076 -0.03876732864376132 -0.16610467822502895		0 255 0
-0.06154022882425624 -0.057337010136077365 -0.23362848179302445		0 255 0
-0.05049126661472517 -0.04704269582648682 -0.18262972585265902		0 255 0
-0.04266448610980329 -0.039750487108428274 -0.1472808215608165		0 255 0
-0.011991205422175083 -0.010997544585565587 -0.1473779664862143		0 255 0
-0.03657437324303309 -0.033018505851908526 -0.1439169673568297		0 255 0
-0.056460885261614704 -0.05097159308860271 -0.21127958995957158		0 255 0
-0.06345960394414188 -0.05728987589933834 -0.22625372656973208		0 255 0
-0.061112146927915716 -0.055170645510554256 -0.20794591934397175		0 255 0
-0.06303877025292083 -0.05601764598286438 -0.21299797366063825		0 255 0
-0.06805381241911532 -0.06047412340981742 -0.240932685646921		0 255 0
-0.06194115122406289 -0.05504227742894227 -0.23016220688999559		0 255 0
-0.03702070845502329 -0.03289742061826215 -0.1446520890348747		0 255 0
-0.032480500269314656 -0.028409504363494206 -0.14026730611256372		0 255 0
-0.03050169129264739 -0.026678712602560026 -0.13948079839948593		0 255 0
-0.028700105637026796 -0.025102931591794157 -0.13937771257242387		0 255 0
-0.027329657702358123 -0.023904250960120103 -0.14141314152478027		0 255 0
-0.036837338543295094 -0.03196581406371175 -0.14245419341069215		0 255 0
-0.04279918500097964 -0.037139240887659936 -0.15739728888878704		0 255 0
-0.06555372624461137 -0.05688462595786835 -0.22969294352478478		0 255 0
-0.07393923231301185 -0.06416119745875397 -0.2472576200355032		0 255 0
-0.03270262392575622 -0.02815352951753834 -0.14026730611256372		0 255 0
-0.030869266919191684 -0.026575201407913814 -0.14020287810883383		0 255 0
-0.028896376394912205 -0.02487674957309244 -0.13937771257242387		0 255 0
-0.02737483929667547 -0.023566865702474345 -0.14068482865768692		0 255 0
-0.03309273687601411 -0.028039866582200913 -0.14099161907045138		0 255 0
-0.031077033836251572 -0.02633193760322171 -0.14020287810883383		0 255 0
-0.0290908646881875 -0.024649033039297098 -0.13937771257242387		0 255 0
-0.027701757765242304 -0.023472026346447027 -0.14141314152478027		0 255 0
-0.026138111345840976 -0.022147130277982884 -0.1427000481980384		0 255 0
-0.024550907713468597 -0.020802273904898683 -0.1439601275729857		0 255 0
-0.022822674412871044 -0.019337921429211008 -0.1444478117779627		0 255 0
-0.02208160022559804 -0.018710000522683956 -0.1517212536591958		0 255 0
-0.019549676223578928 -0.0165646714289049 -0.14681764818987414		0 255 0
-0.027885250346371585 -0.023253735553941626 -0.14141314152478027		0 255 0
-0.029435333118070686 -0.024546362100667324 -0.14010009732991313		0 255 0
-0.031282883775478554 -0.02608704952058371 -0.14020287810883383		0 255 0
-0.033140805905779 -0.02763638579553826 -0.14026730611256372		0 255 0
-0.03750945654810039 -0.03078321544453546 -0.14172661823511307		0 255 0
-0.04106256824798373 -0.03369917885807492 -0.1475473850434875		0 255 0
-0.04199011346405546 -0.03446039554443958 -0.1437543443176467		0 255 0
-0.07144770011989922 -0.058635612141888116 -0.23344612041394697		0 255 0
-0.06617758450235316 -0.05387702426416669 -0.21553374113087795		0 255 0
-0.04169842070860722 -0.03394785169614611 -0.14229822583442306		0 255 0
-0.04098718806175458 -0.03336881728653292 -0.14680453823941664		0 255 0
-0.03782323202472835 -0.030792952098048176 -0.14245419341069215		0 255 0
-0.035350147303848105 -0.028779544589808477 -0.1402929253341004		0 255 0
-0.033636884053118724 -0.027384729012531403 -0.14099161907045138		0 255 0
-0.03175136356791935 -0.02584967399812456 -0.14092780160695223		0 255 0
-0.029569208681279314 -0.024073120612869245 -0.13937771257242387		0 255 0
-0.028157260534483426 -0.02292361409738193 -0.14141314152478027		0 255 0
-0.03374416399489614 -0.027252426464046957 -0.14099161907045138		0 255 0
-0.03168878204828967 -0.025592461044133312 -0.14020287810883383		0 255 0
-0.02966351536499956 -0.0239568172817098 -0.13937771257242387		0 255 0
-0.028247064015269007 -0.022812864322784208 -0.14141314152478027		0 255 0
-0.026790266388048472 -0.02163632694539265 -0.14343692336065172		0 255 0
-0.025292859265984482 -0.02042699257021117 -0.14544761684086693		0 255 0
-0.02363328971333087 -0.01908669274229116 -0.14669071469417258		0 255 0
-0.022288610915686652 -0.018000704656881642 -0.15018719138230416		0 255 0
-0.019934509587622416 -0.01609948780226674 -0.14681764818987414		0 255 0
-0.037869501409105395 -0.030339191595431175 -0.14172661823511307		0 255 0
-0.04083249468289598 -0.032712996828786894 -0.14532572799215923		0 255 0
-0.04175013089462348 -0.03344816206219587 -0.14157382182078326		0 255 0
-0.04550892805543578 -0.036459526431593864 -0.1472808215608165		0 255 0
-0.0437527034655687 -0.03449185025350556 -0.14071607301777492		0 255 0
-0.04179731539347634 -0.032950346592522044 -0.14085190479837661		0 255 0
-0.04088009980929272 -0.03222727212914084 -0.14458983494940633		0 255 0
-0.03830224053602962 -0.03019505174079447 -0.14245419341069215		0 255 0
-0.04223714429279385 -0.026341474063869483 -0.1453896502029364		0 255 0
-0.04439446299866584 -0.027686900126396224 -0.14532572799215923		0 255 0
-0.04609127864635027 -0.028745130414523756 -0.1437543443176467		0 255 0
-0.047515306686820476 -0.029633234909331382 -0.14143608810790043		0 255 0
-0.0397679845995831 -0.024155553246673487 -0.1432027117349195		0 255 0
-0.04252933185024264 -0.025377727837980885 -0.1446520890348747		0 255 0
-0.04515774088629632 -0.026946128898188922 -0.1460639742559688		0 255 0
-0.046884176878413515 -0.02797631255806682 -0.14448598511304475		0 255 0
-0.048333588698127906 -0.028841192796848533 -0.14215853756146768		0 255 0
-0.04855861384615536 -0.028460696051304753 -0.14215853756146768		0 255 0
-0.047102454046039174 -0.027607226024245545 -0.14448598511304475		0 255 0
-0.04536798034091224 -0.026590633394830806 -0.1460639742559688		0 255 0
-0.04294519512377731 -0.025170614407449218 -0.1453896502029364		0 255 0
-0.043431109130988535 -0.024322589778227998 -0.1453896502029364		0 255 0
-0.04588130754929944 -0.025694766823582744 -0.1460639742559688		0 255 0
-0.04787739148493551 -0.02681262753911179 -0.14521996553176525		0 255 0
-0.049609648256719936 -0.027782737943697514 -0.1436105924790938		0 255 0
-0.06052127189919669 -0.02935492379619876 -0.1373042755948367		0 255 0
-0.058275665178003075 -0.028265726360185428 -0.1376408208395765		0 255 0
-0.05689959699354186 -0.027598285385704382 -0.14005988185680343		0 255 0
-0.0549131626914603 -0.026634795595521482 -0.14103592530559722		0 255 0
-0.05318248214098798 -0.025795355278416168 -0.1426997660803401		0 255 0
-0.050900140549618236 -0.024688340151517572 -0.14288338445246904		0 255 0
-0.04862660248437709 -0.023585595041268215 -0.1430250790504088		0 255 0
-0.04659928276095051 -0.022602274398390118 -0.14385633124122438		0 255 0
-0.04433400915026315 -0.021503537836309535 -0.1439169673568297		0 255 0
-0.04219043979989902 -0.019049714016408734 -0.14247131355253287		0 255 0
-0.030957951339138524 -0.013831953169473216 -0.14123484810910175		0 255 0
-0.04261809689046401 -0.017457235689158142 -0.14174252269353826		0 255 0
-0.7286686101292177 -0.14494119827605081 0.17836509090810598		20 234 0
-0.7259214534465231 -0.14439475483673322 0.20874194164500612		20 234 0
-0.679631375726099 -0.13518708589117506 0.4321604388845676		27 227 0
-0.6769812481644589 -0.13465994274403117 0.44568496660069795		28 226 0
-0.6919929436345176 -0.1096009150860842 0.38159324597315464		24 230 0
0.09504227114078953 0.01352651826600795 1.9069999999999998		185 69 0
0.15134201911973308 0.02153915896017579 1.9423603316274891		188 66 0
0.3062369299367307 0.04358396928856233 1.9529875525368763		192 62 0
0.4662278412208241 0.06635404788520864 1.9615477920254243		198 56 0
0.6321307015247142 0.08996552142585337 1.9651027914957642		205 49 0
0.8153727523175781 0.1160447272087071 1.9883201191118884		217 37 0
1.003227099807261 0.14278036001891323 1.9887848438192552		229 25 0
1.2145684408334663 0.1728586870142653 2.0019678760797		245 9 0
1.4448271660270333 0.20562935647380212 2.0086732009130954		250 0 4
1.7056278896904886 0.2427467960096911 2.0171575285378682		238 0 16
1.8115826105251498 0.2578263858546851 1.829837697720755		242 0 12
1.832283826025466 0.26077260511304856 1.580687707710803		253 0 1
1.7909646069205387 0.2548920094028297 1.3143241001748949		229 25 0
1.7930843389338451 0.25519369194316543 1.1098759989578073		213 41 0
1.8094415439563132 0.25752166695745665 0.9312469543855948		203 51 0
1.815900129083926 0.2584408597403376 0.7597499873048073		194 60 0
1.8269970620343725 0.26002018717484854 0.5996092374032665		187 67 0
1.8314047659853454 0.2606474963425311 0.44411199688426967		182 72 0
1.8397480818875405 0.261834926036661 0.2943237447072384		179 75 0
1.8460962857554215 0.2627384092399194 0.146755006831497		177 77 0
1.8518047818893841 0.26355084855035105 -3.2080806603444555e-15		177 77 0
1.8589101249294748 0.2645620886150552 -0.14777364007942054		179 75 0
1.8631859330785159 0.2651706262303261 -0.29807334292579096		182 72 0
1.8727479700415888 0.26653150561682193 -0.45413764127050454		188 66 0
1.877781177154725 0.26724783706739924 -0.6162762727107133		195 59 0
1.4907443030971894 0.21216433281482622 -0.6237088412588955		143 111 0
1.2484253966253316 0.17767724538259058 -0.6425144555059732		112 142 0
1.0456502759653832 0.14881807208447262 -0.6472323244358076		87 167 0
0.8995507524107713 0.1280250307324928 -0.6601477375127169		71 183 0
0.7562809335474856 0.10763471599610416 -0.6524338414467645		54 200 0
0.6684368178688677 0.0951326469585495 -0.675172570532899		47 207 0
0.5902668417267339 0.08400741186632762 -0.6980779399962931		42 212 0
0.0845229428217409 0.012029396143968515 -0.11750815190940667		0 255 0
0.0912536970801282 0.012987324330314362 -0.15041307182538174		0 255 0
0.10092884212367753 0.014364301380494302 -0.20008007315428517		0 255 0
0.09547489588192093 0.01358808988454148 -0.2328194752799388		0 255 0
0.08278613873315681 0.011782212317795958 -0.2573570179858185		0 255 0
0.06427239548164188 0.009147316462952252 -0.27041151192317614		0 255 0
0.043215069294515726 0.006150415148572704 -0.2755986759390734		0 255 0
0.030416167804615434 0.004328861720714093 -0.2782824422996974		0 255 0
0.03048041024212224 0.003850571280669697 -0.2782824422996974		0 255 0
0.043597928195115127 0.005507699170426955 -0.27745429516758546		0 255 0
0.06506068984385836 0.00821907650924966 -0.2731511548911635		0 255 0
0.08612233070483954 0.01087978050827257 -0.2671639469128611		0 255 0
0.10522704872360854 0.013293267660971822 -0.25605967517712175		0 255 0
0.12483446210593445 0.01577026000649696 -0.24694869096646266		0 255 0
0.440332564213835 0.05562693914671486 -0.7242685113506157		32 222 0
0.4965113787408362 0.06272397386775012 -0.6888208430957298		32 222 0
0.5716527438477512 0.0722165358172988 -0.6746390978930038		37 217 0
0.6642650620431386 0.08391619241137528 -0.669544621365897		46 208 0
0.7616331582897489 0.09621664349069042 -0.6556662944737724		55 199 0
0.8958529347193463 0.1131725444222171 -0.6560483934465017		70 184 0
1.0444853515349657 0.1319491852554772 -0.645148636315147		87 167 0
1.2387152737738982 0.15648613060755748 -0.6361733737329237		111 143 0
1.4920629239663574 0.18849138178715297 -0.6229448048719347		143 111 0
