0.096 0.0 1.727
-0.096 -3.2930390389303353e-16 1.704
0.096 0.0 1.727
-0.096 -3.2930390389303353e-16 1.705
0.096 0.4874109009927859 1.7026072987020233
-0.32336135681098227 -4.0302973399188796e-15 1.1257781743535116
0.096 1.1102175440438529 1.780174431031194
-0.3670782413552198 -2.379477960394165e-15 0.5829265176922929
0.096 2.139959506399913 1.9319063929105469
-0.3866640792241667 -1.786893057689984e-15 0.34309263724252514
0.096 3.390054098496326 1.6607703662060755
-0.39741144761279795 -1.5180159909509634e-15 0.1900537213777549
-0.4030382312680318 -1.4043927034622782e-15 0.06996691941387256
0.096 3.5429512185555208 0.632690811483737
-0.4082491690723239 -1.4077275490196918e-15 -0.04066785786222568
-0.41444429048402126 -1.5314131423079932e-15 -0.16209299684963738
-0.3288801337435311 -1.4277461154556037e-15 -0.24822735672945626
-0.19403941540633357 -1.126313261330965e-15 -0.25330459598938204
0.096 0.17078677941731216 -0.23313703261443125
-0.10081517116120835 -9.99145037428213e-16 -0.2580026173786834
0.096 0.08479867898398513 -0.22985687730100884
-0.08884278894752709 -9.86201061407333e-16 -0.2577363159159869
0.096 0.07478211263873659 -0.2301556769434274
-0.07747889652557319 -0.039711251764608 -0.2234982813293613
-0.07307802039706976 -0.0334407713342596 -0.17919454516119465
-0.08477868671142585 -0.022721803138408665 -0.08793057631478547
0.12674911222848126 0.025406517566194876 -0.08029082402854017
-0.3996402974276349 -0.08010681935548303 -0.30829224798744814
-0.3994977806444816 -0.06815966508871726 -0.15800349463554103
-0.39272296589432115 -0.06252683806449295 -0.03954668884848011
3.5394548758102578 0.569463073966904 0.6397226626811111
-0.3886308559301334 -0.06252683806449295 0.06820895661452903
3.367133148731065 0.5938587117531057 1.669569149603194
-0.38386497582583295 -0.06770197374492928 0.18565432967919576
2.165343101437024 0.46203866665513127 1.978143486601434
-0.372540296334051 -0.0794922623021101 0.33438130075003913
1.109183002861279 0.3319809153467156 1.7988416557607871
-0.3532438772999385 -0.10572667037282914 0.5676533338226258
0.48347398449139234 0.27823319787908296 1.707414208071594
-0.3093572705699328 -0.17803121871876357 1.0902070450186867
0.09481808069713321 0.015017708643862182 1.726
-0.09481808069713317 -0.015017708643862532 1.704
0.09130142556433472 0.029665631459994988 1.726
-0.09130142556433464 -0.029665631459995307 1.704
0.4639744968234807 0.5477639809729045 1.7016459168281088
-0.3017960952213548 -0.35629766655778594 1.1046277731273995
-0.34313193630537825 -0.21068546617856343 0.5727443951125148
1.0584927042392422 0.6499221006370514 1.7827199616761384
2.042700391235016 0.8941693877945873 1.9379373181745756
-0.3608032585478408 -0.1579376154204207 0.33639160917138206
3.375446186633026 1.2212864941061483 1.7381996601007166
-0.3712938098381348 -0.13433960733732028 0.18653420801890758
3.1480038111842377 1.03902970036117 0.5908512968593609
-0.37512604918792675 -0.12381405165414344 0.06838475289446337
-0.379075959547037 -0.12381405165414344 -0.03964861330427516
-0.3846810293401335 -0.13464101301398929 -0.15800349463554103
0.38984992495811266 0.13645016212477717 -0.1602341322068663
-0.39220237461145263 -0.16127756506591548 -0.3144213185239779
-0.08205699100843267 -0.04511648117874287 -0.08873727884978351
0.044227459182633516 0.04151882234326654 -0.08818998557671359
-0.046348525881659046 -0.04350998785633454 -0.09663370760001595
0.03948674653846403 0.04151882234326654 -0.08939931253174453
-0.038473003144081884 -0.040452909459003095 -0.08464402995026875
0.038167590425579746 0.06293297463153896 -0.09510565162951545
-0.036610391953421424 -0.06036537393021428 -0.08749719949915422
0.04252799318877204 0.0626062610972499 -0.09288094225632602
-0.041219754109519745 -0.06068037766772336 -0.0872517942407911
0.07767240199765366 0.06696936952859793 -0.09035068391977957
-0.17087733738169017 -0.14733093424255234 -0.2500777858493899
-0.3792093386059376 -0.24453025758167304 -0.3248407384360786
0.22377296330484459 0.14429829328019267 -0.18571083725685245
-0.3708883233318938 -0.2035680441204815 -0.1628365427067458
0.36362014722837643 0.199578788323952 -0.15949058634975788
2.696782651813452 1.3812728661292037 -0.3099522700727526
-0.36461450564634185 -0.18675295278532805 -0.04076978231802073
3.1368718932721715 1.6236011026471977 0.6284717007653124
-0.3625213335821127 -0.18763598162852563 0.07067010453360997
-0.3587842714141863 -0.2035680441204815 0.19269335639689036
3.451094994632378 1.9580921297418752 1.8970177004187017
1.9527232155006826 1.340434685515459 1.9774733837943197
-0.347770941932804 -0.23872519642349382 0.34644315127809666
1.0006084424088115 0.9634461409989625 1.7988416557607871
-0.3298711293236957 -0.31761981320965144 0.5880175789821819
0.4363930460081682 0.8079175187414295 1.7083755899455084
-0.2888502879035767 -0.5347638098853644 1.1286623199752543
0.08553662632208328 0.043583087974996534 1.725
-0.08553662632208316 -0.043583087974996826 1.703
0.07766563145999492 0.056427384220077474 1.724
-0.07766563145999471 -0.05642738422007775 1.703
0.39534726999489944 1.0436697792092477 1.7045300624498516
-0.28246968895843094 -0.7456863883551191 1.2161480705014451
0.9016906821802148 1.2379868182676501 1.7852654923210831
-0.3211580188744684 -0.44093767608445195 0.6312915999462385
1.7340236806111053 1.6972864798405267 1.9339167013318899
-0.3388225829877863 -0.33164425353588545 0.3725771607555547
3.6899255943529083 2.985306845619052 2.234011104528332
-0.34780260651883976 -0.28138711082789003 0.20633147066242372
-0.3508905219502885 -0.2589699375602449 0.07559240037177185
-0.35144407617716117 -0.2566757987312536 -0.04341981816869208
-0.3448338543817287 -0.2698804960504356 -0.16692604492084218
-0.2673138064276257 -0.24579335149534276 -0.24945317083676222
0.20318159887793127 0.18682419295057998 -0.18571083725685245
-0.15743845082821195 -0.19355992368383906 -0.25411129852438
0.0710823508724782 0.14921064952858443 -0.22047496394178398
-0.036847195241651545 -0.0773468219301981 -0.08443722023302365
-0.03394112549695386 -0.07980037205327152 -0.09130142556433483
0.04080441152620594 0.09593692529430844 -0.1255394601509604
-0.03141123927530401 -0.10164890555239682 -0.10176304724358154
0.029665631459994648 0.09600000000000007 -0.09130142556433483
0.03288294204062407 0.09500526301210904 -0.08818998557671359
-0.03288294204062396 -0.09500526301210938 -0.08818998557671359
0.12725297070071356 0.21533346233226294 -0.23313703261443125
-0.13760625175265262 -0.23285295789403335 -0.25411129852438
0.17652229212420567 0.223402103839691 -0.18448502314954648
-0.3415716999994742 -0.34335986952467384 -0.048516040958444674
3.611957534202369 3.6690979817933487 0.9120311002994242
-0.3400598953336194 -0.3454395750344784 0.08420641808855517
3.5438320973476922 3.9462397291599034 2.4548605677960005
-0.3376541888105002 -0.3759953457158762 0.23008818583464308
1.5533620207327496 2.092723106385555 1.9821641034441198
-0.32877416724534914 -0.44293171031209955 0.414793637603756
0.7948349626955784 1.5020153128380562 1.80053867619075
-0.31078647136234194 -0.5872993274302322 0.7000209273597403
0.3469064588298027 1.2604792739271844 1.7112597355672508
-0.2715384101084082 -0.9866306299725385 1.3382435684885468
0.0678822509939085 0.06788225099390863 1.724
-0.06788225099390827 -0.06788225099390886 1.703
0.056427384220077335 0.07766563145999501 1.725
-0.05642738422007709 -0.0776656314599952 1.702
0.2878827367512786 1.4397195604093829 1.7083755899455084
-0.2581655712932343 -1.2911021585023337 1.5314813251452981
0.6557380690091791 1.7055590283956361 1.786962512751046
-0.30349585399285783 -0.7893854548361139 0.8239034187470398
1.2611501088249906 2.33854013544013 1.9359270097532326
-0.32210227060712643 -0.5972715557491942 0.49051525480767266
-0.3301220047225597 -0.5059688266977621 0.2718824069709549
2.665055294373532 4.0846562213024065 2.2208129294326544
-0.33332384180417807 -0.4660387319812514 0.0998522870027126
1.9883749968861337 2.7800584477735284 0.603860221574503
-0.33395121206530093 -0.4620507051775784 -0.05738346861261418
1.1871484367773404 1.642523675752277 -0.2067027963523651
-0.17169578652530504 -0.2990792600099958 -0.2188078181541133
-0.11471804304664758 -0.2671863596915691 -0.25491800105937806
0.1057795250708431 0.2463679250707666 -0.23313703261443125
0.028055156193974435 0.1115651741853801 -0.09288094225632602
0.025441959145902106 0.11332015140661547 -0.09700776466210577
-0.026518802272195274 -0.1181164811787427 -0.10461621679246699
0.018653926416234264 0.11847371704418447 -0.08749719949915422
-0.04006941426610968 -0.25448650015891194 -0.2558342028833966
-0.045620805226178 -0.25868667774572185 -0.2570644260427609
0.020893485574107813 0.11847371704418447 -0.08631360290486863
0.08144687094980678 0.27049056254449483 -0.2323303300794332
-0.08860532224781897 -0.29426426306811837 -0.25491800105937806
0.48263625827902823 1.198786283704229 -0.8225212660022969
-0.11367610193298758 -0.28235208077435076 -0.18509793020319945
0.7883078129602339 1.6665966811260224 -0.6944718305392721
-0.3293915670642507 -0.6498516853985701 -0.07369138153982246
1.9021298531531368 3.7921975631730813 0.7480131711206728
-0.3228583991839081 -0.6436694280391069 0.12587013643299685
1.8370873954947575 4.014895666066071 1.9819259602008932
-0.31676089264525814 -0.6922707859079142 0.3391930999589098
1.001024676074169 2.6467808847936825 1.989535234322377
-0.3147240342926898 -0.8321528708142762 0.6225255078091911
0.5122354409418735 1.8997705045624402 1.807326757910602
-0.29663613148385704 -1.1001592786011292 1.0445160746422306
0.22285242207000663 1.5891862580471834 1.712221117441165
-0.20638532569972648 -1.471757499505964 1.5853187100844925
0.04358308797499638 0.08553662632208338 1.725
-0.04358308797499605 -0.08553662632208354 1.702
0.029665631459994818 0.09130142556433479 1.726
-0.02966563145999448 -0.0913014255643349 1.702
0.15109414246253408 1.6896428420245648 1.7054914443237656
-0.13657461243580554 -1.5272750653564322 1.54109514388444
0.3462121118282377 2.013555554893264 1.7945991046858794
-0.29411070451734356 -1.710535889998792 1.52392434610678
0.6742590549255499 2.7956952971858002 1.9687620473018335
-0.31844455222535406 -1.3203737207046826 0.928092387853315
1.2246453111129347 4.197054538886311 1.9410116174042928
-0.3280182689066949 -1.0255070909612967 0.18880520464949527
0.7736933387655369 2.393649036394585 -0.25634000632455534
0.055611587354927945 0.2896228659889873 -0.23313703261443125
-0.031153601179631986 -0.27701878169157185 -0.2580026173786834
0.02904245824840813 0.25824643369198125 -0.23830059932431122
-0.027184067777750093 -0.2707422549438361 -0.2548831463671014
0.015508772590521075 0.1544610650951042 -0.12458840363466525
0.011914342310555647 0.24343061442878253 -0.21588982919900007
-0.013352682926740998 -0.27281840024434895 -0.24632363772044502
0.013895248145283253 0.2534724661212721 -0.22328953794955142
-0.015413638172587278 -0.281170428815478 -0.251435278027226
0.029471625072464307 0.3148728123100732 -0.2452375706394017
-0.03149250710049477 -0.2516415909440957 -0.1446460646621029
0.6084726871253623 3.902520994969106 0.6943953057406949
-0.06709818518543853 -0.4303431886936221 0.07471341897210008
0.5783830728216086 4.0664308097631405 1.8107896231269427
-0.3579225204334469 -2.516441495250314 1.1200851264531573
0.3515448356008484 2.990248594536717 2.027731094327893
-0.29305750215598925 -2.4927539681891253 1.689999279542282
0.1767523980000024 2.1088718912514057 1.8098722885555467
-0.16376983596000746 -1.9539740767246447 1.6766561848034507
0.07670372917585168 1.7596540274926558 1.7102983536933367
-0.06922446940182343 -1.58807293586337 1.5430179076322685
0.015017708643862022 0.09481808069713325 1.726
-0.015017708643861677 -0.09481808069713331 1.703
-1.6465195194651677e-16 0.096 1.728
4.939558558395502e-16 -0.096 1.703
-8.404970745436934e-16 1.780589789929168 1.7093369718194225
2.272660043453078e-15 -1.6048738268163012 1.5401337620105258
-1.9233804028054738e-15 2.1191755472352924 1.7962961251158427
5.343131849888558e-15 -1.962349612072222 1.6630800213637467
-3.779212597840278e-15 2.968552677652866 1.9881950287081487
9.742164087788329e-15 -2.550807127165831 1.7080920553343684
-6.268936205950795e-15 4.070132307431786 1.7901124821437144
1.596601719024711e-14 -3.4553338478358353 1.5195498926823272
-6.580058101727751e-15 3.89718257206408 0.6849023066242399
1.2758484883623092e-14 -2.5188300855754444 0.44247923659476684
2.96844648988202e-15 -0.6214595722973458 -0.22826857813228751
1.2806193560520533e-15 -0.3149857139617605 -0.18387211609589352
9.433076902197462e-16 -0.3102273359973296 -0.23797724782441945
-1.5974842838117163e-16 0.157610278852618 -0.10083781687475399
-1.4194801880426688e-16 0.23911712611187014 -0.20546390256702426
4.952603592215447e-16 -0.2780953074037748 -0.24486793867576861
-1.2819053135849174e-16 0.24186773244895646 -0.2111345466175243
4.571293317682112e-16 -0.2875013043448673 -0.2577363159159869
-0.0064277049883149475 0.1313291270208142 -0.08749719949915422
0.00680646167421275 -0.13906778101981665 -0.0979588211784009
-0.007236973027875896 0.13201443986097297 -0.0872517942407911
0.007584115621080603 -0.1383468988624444 -0.09569551626409348
0.03917011524238614 -0.31298969261491577 -0.18509793020319945
-0.05889134303137765 0.4005341097945158 -0.1464785338503604
0.09039297234875968 -0.6147842254522757 -0.2286403510608417
-0.44591605463704376 2.8599422817745745 0.508754434130018
0.49840362785379944 -3.1965783556483554 0.5687009655876324
0.49089053554159723 -3.4512980959300372 1.5367075203067078
-0.4202590125546873 2.9547099094652647 1.315418117869183
-0.35200906772513996 2.9941973638446364 2.0304115055563496
0.2964224668898261 -2.5213764369241862 1.7094322609485968
-0.1772485881165386 2.1147920451011526 1.8149633498454356
0.16236421703019108 -1.937203326882114 1.6622315111487649
-0.07704765953646493 1.7675441059898773 1.71798940868465
0.06913851607963653 -1.5861010876729829 1.54109514388444
-0.015017708643862348 0.0948180806971332 1.729
0.015017708643862733 -0.09481808069713313 1.704
-0.029665631459995147 0.09130142556433468 1.729
0.029665631459995505 -0.09130142556433457 1.703
-0.15177352894651736 1.697240227938529 1.7131824993150793
0.136319928573686 -1.524427008127973 1.5382109982626975
-0.34523197202272826 2.0078551016666495 1.7895080433959907
0.3190972051355764 -1.8558563608843495 1.65374640899895
-0.41872731121395157 1.7361783519441847 1.2215974173693815
0.5816494557203539 -2.4117060588049255 1.6980405132276537
-0.4492399509465129 1.5396168654380502 0.710941698487157
1.0071433826073 -3.4516407868656445 1.5960993082372563
-0.46574102416600294 1.4560796397887839 0.2686167157396916
1.0225443615830316 -3.1968539347548774 0.5906755005794265
-0.46941786518268086 1.4522829192942297 -0.15533287063165896
0.833904564154052 -2.579930259729482 -0.2763171996603855
0.18111152627711868 -0.6004413800788118 -0.23198630741782963
0.09026581679612018 -0.3515887566008413 -0.2188078181541133
0.026938177846746906 -0.14029292533409998 -0.09035068391977957
-0.01482643921813534 0.13183715440631472 -0.09381913359224851
0.015455057089444713 -0.13742684388893742 -0.10132466427962838
-0.013032053940667821 0.129793955021475 -0.09225248208062999
0.013798439551056677 -0.13742684388893742 -0.10271410375987669
-0.018557134900546203 0.11785898047955731 -0.08654614298285906
0.020482453836827137 -0.13008695253150132 -0.10461621679246699
-0.020893485574107952 0.11847371704418426 -0.08631360290486863
0.021895800758868846 -0.12415721131646516 -0.094757324928171
0.08068370798708016 -0.26795604677127804 -0.22991022247443912
-0.03856744562340029 0.1280850932751815 -0.08631717124478941
0.1319207922955778 -0.3276687849836211 -0.21758200404680736
0.24651951305319791 -0.5211778895663193 -0.2145129797757816
-0.47888392515013056 0.9447829179196516 -0.10763222531957471
0.2025078906048602 -0.39952478197598873 -0.0446429116382327
-0.4672181525996698 0.9314734936847863 0.1830039274116616
1.6032304187334494 -3.196294131574394 0.6304054598445904
-0.4550442475935655 0.9944846293170816 0.4892123568797764
-0.43557377429632677 1.1516882323483564 0.8637625183703416
0.857894298145992 -2.2683339220081558 1.7047415412987967
-0.40618419731190086 1.5064493703396011 1.4322852428887776
0.4707194022716651 -1.7457964929498748 1.660534490718802
-0.22335148446364012 1.5927451293867927 1.7160666449368218
0.2003983434243631 -1.4290636401760457 1.5391723801366117
-0.04358308797499667 0.08553662632208323 1.73
0.043583087974997006 -0.08553662632208306 1.705
-0.05642738422007763 0.0776656314599948 1.731
0.05642738422007789 -0.07766563145999461 1.704
-0.28352143089747234 1.417908397234007 1.6824182793498255
0.259134434300487 -1.2959475029597052 1.5372496163887832
-0.3986336686459505 1.0368366344947602 1.0843960547463611
0.6066482857669413 -1.5778776766978337 1.6528978987839684
-0.4304834884929784 0.7982419447460091 0.6580409565862494
1.1059270286489291 -2.050711271613126 1.6973704104205394
-0.4509982377664814 0.6912324714532052 0.37350835520767106
1.9964340850054465 -3.059879066281988 1.663410001225211
1.925907986004979 -2.6927198212169907 0.5848742233415929
-0.4627792655042371 0.6470376103774498 0.1395822462678764
-0.47636073703659243 0.6590867363692225 -0.08245688473819693
0.2621886397153283 -0.3627609108552247 -0.0446429116382327
0.3191708510599234 -0.4732196210748306 -0.2145129797757816
0.17438833814557925 -0.3037694528354936 -0.22248526047603115
0.10544993698575184 -0.24560029132881148 -0.2323303300794332
0.02864496432331975 -0.11391062705797714 -0.09663370760001595
-0.031586326734104365 0.14068756684030867 -0.13790319486279742
0.025309998224235852 -0.11273238882366092 -0.09605670814581062
-0.029205784510484903 0.09451190401213995 -0.08844825601544937
0.030606725447046387 -0.09904544411531446 -0.09700776466210577
-0.033400744343125725 0.09650129532809368 -0.09100455958448105
0.1276496021633241 -0.2160046295800149 -0.2339437351494293
-0.2423647201402624 0.41012193308819656 -0.4614338500188743
0.2146547386767493 -0.27166155414412085 -0.22800142395890796
0.39627136591268225 -0.4268676609910826 -0.22157666541831164
-0.471233888070694 0.47370085497072817 -0.06757591419211936
-0.45599250708511135 0.4632062175748496 0.11391598939746085
0.6168895559240754 -0.6266486256268302 0.1548765226221651
-0.44048458560204257 0.49050229357261804 0.302238209691013
0.386473864605675 -0.43035857142619777 0.26440344108340436
1.3382996570126524 -1.802986411485112 1.707421952527254
-0.4182130232342468 0.5634256827657028 0.5300513204274168
-0.38186636173268285 0.7216203988247543 0.8620863784212074
0.692801928181508 -1.309201474181869 1.5688953875007996
-0.3094081472032461 1.1242297363083726 1.525713033901813
0.32358977944911393 -1.1757584786000834 1.5958939106975485
-0.06788225099390874 0.06788225099390839 1.73
0.06788225099390897 -0.06788225099390816 1.704
-0.07766563145999512 0.05642738422007719 1.729
0.07766563145999529 -0.056427384220076954 1.704
0.37867357459779943 -0.9996532061495079 1.6324264219062876
0.7900852634173019 -1.0847568470521702 1.5638043262109107
-0.3747205517783249 0.5144769850719458 0.7382038870339079
-0.408827102497115 0.40016565022698053 0.4516492919950429
1.5281787530271962 -1.4958026036752192 1.7040714384916822
-0.4314156160997399 0.3490335940704412 0.25780435353556563
-0.44700613200851824 0.32990674541984616 0.0972153428036973
2.45654622518678 -1.813020252056252 0.5419799310376107
-0.4628181383810745 0.3380174070038636 -0.05779116643579439
-0.4815804500697771 0.3769037439379329 -0.23570403670337178
0.4726715938325754 -0.36993132371298243 -0.2312427615607212
0.2511662274775137 -0.2309457549505695 -0.23351758744178477
-0.5042798200637566 0.4636820997814638 -0.4799062230102821
0.14786353283826148 -0.18178820981302177 -0.23717054528942141
0.07186071105047251 -0.15084452384900354 -0.22328953794955142
-0.03703927206583867 0.07775001494990674 -0.08537541156894614
0.06230770417853607 -0.14649419848138193 -0.21874299874788553
-0.03411836015989022 0.08021707573754637 -0.09225248208062999
0.07014968792707972 -0.11566694364249074 -0.22444933784565646
-0.05351517885448291 0.08823898380009557 -0.1607285512538811
-0.0848948190392279 0.12497526471521478 -0.24205336466800115
0.07942949476305232 -0.11692965774061229 -0.2242277292854739
0.16234825185262597 -0.13997713204451467 -0.23636384275442338
0.2487300824114287 -0.16039170170220976 -0.20838839824201266
-0.47321803240830457 0.2597333570237412 -0.20967993170457683
0.4854537150433201 -0.2664491089787014 -0.21525652563289002
-0.453019026611198 0.23203311875264582 -0.051166076809116015
-0.4362434771288121 0.22579353400056945 0.08578858460796433
2.4547786229508723 -1.270559147641903 0.49170219497638573
-0.41760159685049 0.2369399861297301 0.22568879413608392
2.0306297926774546 -1.1521445285178478 1.115685734754598
-0.3927266211663861 0.2695847423526086 0.39268024496898385
1.6850341539103206 -1.156681196930624 1.7060817469130254
0.871568757784534 -0.8391989520708831 1.5663498568558551
-0.3583824200541266 0.34507220304058256 0.6397767020960535
0.41802943229739625 -0.7739199897705817 1.6362719494019444
-0.08553662632208345 0.043583087974996236 1.73
0.08553662632208361 -0.0435830879749959 1.703
-0.09130142556433483 0.02966563145999468 1.73
0.09130142556433495 -0.02966563145999433 1.702
0.44568014703535175 -0.5261658415538863 1.6343491856541161
-0.3486137241337831 0.214051323162187 0.5820780074773113
0.981074876796325 -0.6023870001711149 1.6520493885689869
-0.3830147401007645 0.1676604445476883 0.3578348989990399
1.6934925849309617 -0.7413075526885405 1.6062364286529935
-0.4063566321238731 0.1470258564833982 0.20501165315285597
2.0266709733357415 -0.73327961723507 1.0430957717283722
-0.4225537576108643 0.13946803450397804 0.07752615945104974
2.4480594778478113 -0.8080061709892274 0.4593556794684648
-0.44180604560022096 0.14430299567511812 -0.04657947629833869
-0.46251972589265783 0.16188509357989708 -0.1914630582054203
-0.48781548736651864 0.20059463964707927 -0.39348632844521214
0.29526360877043756 -0.12141536858935426 -0.23351758744178477
-0.5332967027842266 0.2932165846951057 -0.7615271930381422
0.17275581473027757 -0.09498440496064134 -0.23555714021942534
0.08569985955220577 -0.08045131484713446 -0.22704230329324138
-0.07154657838071958 0.06716482773272386 -0.18294731050488458
0.08449451335438088 -0.08884278894752604 -0.2577363159159869
-0.058000009142163196 0.029727487982920263 -0.15597326867240532
0.07861043595512876 -0.04029121416964321 -0.22730250739454191
0.09957396911102875 -0.04556541506999863 -0.2580026173786834
-0.06614710620641558 0.030269159468916302 -0.15761614443497748
0.1916504682127324 -0.05136484627245781 -0.25330459598938204
-0.47806546170444636 0.09582693193692858 -0.3708087674600519
-0.44972436474919386 0.07672899217134398 -0.17882277863457705
-0.43001903765913796 0.06846487999786606 -0.04352174262448713
2.575994350111948 -0.41013333971364885 -0.26704207418303577
-0.4094276946290025 0.06587284249449152 0.07207647477308479
2.554011183660809 -0.4109149885009684 0.46146523482767704
-0.39165285051968424 0.06907551527972638 0.18961378220789896
2.6037666503132226 -0.4592243431903977 1.2907815243572518
-0.3660630681089191 0.07811015805692934 0.32835037548601037
1.8737356346442815 -0.3998157676354687 1.7114425693699398
