0.096 0.0 1.729
-0.096 -3.2930390389303353e-16 1.705
0.096 0.0 1.729
-0.096 -3.2930390389303353e-16 1.705
0.096 0.48796133679289067 1.7045300624498516
-0.3236356552696081 -4.033716129223346e-15 1.1267395562274258
0.096 1.1123342600477497 1.78356847189112
-0.3676023355436756 -2.3828752485744647e-15 0.5837750279072743
0.096 2.143670847895577 1.9352569069461183
-0.3866640792241667 -1.786893057689984e-15 0.34309263724252514
0.096 3.390054098496326 1.6607703662060755
-0.3982881381542822 -1.5213647376191398e-15 0.1904936605476108
-0.4030382312680318 -1.4043927034622782e-15 0.06996691941387256
0.096 3.544920071691701 0.6330424040436057
-0.4082491690723239 -1.4077275490196918e-15 -0.04066785786222568
-0.41444429048402126 -1.5314131423079932e-15 -0.16209299684963738
-0.3288801337435311 -1.4277461154556037e-15 -0.24822735672945626
-0.19460462749592863 -1.1295940683290815e-15 -0.25411129852438
0.096 0.17196869484580568 -0.23475043768442733
-0.10114201348965189 -1.002384261115724e-15 -0.2589408087146059
0.096 0.08549091309814012 -0.2317332599728538
-0.08913412945669039 -9.894350922473317e-16 -0.25868737243228207
0.096 0.07570916362186142 -0.23300884649231285
-0.07776152809327361 -0.039856112544057444 -0.22444933784565646
-0.07307802039706976 -0.0334407713342596 -0.17919454516119465
-0.0843415504623619 -0.022604644873977155 -0.08712387377978745
0.1299170533122137 0.026041522809051584 -0.08335535929680507
-0.4042407907442878 -0.08102897582827955 -0.311969690309366
-0.4003921935062993 -0.0683122638866735 -0.15837526756409523
-0.39463081587022203 -0.06283059373160257 -0.03975053776007021
3.5413988131442133 0.5697758341428731 0.6400742552409798
-0.3886308559301334 -0.06252683806449295 0.06820895661452903
3.3680198365170644 0.5940150962033373 1.6700090887730499
-0.38472990077248026 -0.06785451989974133 0.18609426884905167
2.171205048872079 0.4632894829230464 1.9835043090583484
-0.37326024987389966 -0.07964588524222734 0.33505140355715346
1.1112715223950047 0.33260601384239863 1.8022356966207131
-0.3532438772999385 -0.10572667037282914 0.5676533338226258
0.48401685189663046 0.27854561124366684 1.7093369718194225
-0.30989899528643167 -0.17834297448034847 1.0921298087665152
0.09481808069713321 0.015017708643862182 1.728
-0.09481808069713317 -0.015017708643862532 1.705
0.09130142556433472 0.029665631459994988 1.727
-0.09130142556433464 -0.029665631459995307 1.704
0.4650199548205556 0.5489982389727265 1.7054914443237656
-0.30205693494176306 -0.3566056115086936 1.1055891550013137
1.0605037265542454 0.6511568827400932 1.7861140025360647
-0.34263367851277876 -0.21037953232571008 0.5718958848975333
2.041289290805652 0.8935516942686769 1.9365971125603472
-0.3608032585478408 -0.1579376154204207 0.33639160917138206
3.3763000096735616 1.2215954199459058 1.7386395992705723
-0.3712938098381348 -0.13433960733732028 0.18653420801890758
3.1489396749200425 1.0393385914157287 0.5910270931392954
-0.376035090559057 -0.12411408972274607 0.06856054917439773
-0.37815748193149423 -0.12351405786115832 -0.03954668884848011
-0.3838198872307976 -0.13433960733732028 -0.1576317217069868
0.3915736530247569 0.1370534788348622 -0.16097767806397473
-0.39220237461145263 -0.16127756506591548 -0.3144213185239779
-0.08205699100843267 -0.04511648117874287 -0.08873727884978351
0.044227459182633516 0.04151882234326654 -0.08818998557671359
-0.0461082701942268 -0.04328444622704339 -0.09569551626409348
0.03969291656833488 0.041735602341445806 -0.09035036904803968
-0.03867341096509842 -0.04066363071224389 -0.0855950864665639
0.038366688270989026 0.06326125890399696 -0.09605670814581062
-0.036993541584467805 -0.06099713364419835 -0.08939931253174453
0.0427499273965878 0.06293297463153896 -0.09381913359224851
-0.041434924218290585 -0.06099713364419835 -0.08818998557671359
0.07847496355639841 0.06766134042449796 -0.09196408898977564
-0.17087733738169017 -0.14733093424255234 -0.2500777858493899
-0.3792093386059376 -0.24453025758167304 -0.3248407384360786
0.22377296330484459 0.14429829328019267 -0.18571083725685245
-0.3708883233318938 -0.2035680441204815 -0.1628365427067458
0.3652346844172441 0.2004649531261894 -0.1602341322068663
-0.36461450564634185 -0.18675295278532805 -0.04076978231802073
3.1377487077805233 1.6240549295967872 0.6286474970452469
-0.3633745318752228 -0.1880775851547778 0.07084590081354432
-0.3587842714141863 -0.2035680441204815 0.19269335639689036
3.4478951945630922 1.9562766180442368 1.8952579437392783
1.9547062652156473 1.3417959376375928 1.9794836922156624
-0.347770941932804 -0.23872519642349382 0.34644315127809666
1.0024925230990052 0.9652602474899369 1.8022356966207131
-0.3298711293236957 -0.31761981320965144 0.5880175789821819
0.4366379100892827 0.8083708485610784 1.7093369718194225
-0.2888502879035767 -0.5347638098853644 1.1286623199752543
0.08553662632208328 0.043583087974996534 1.726
-0.08553662632208316 -0.043583087974996826 1.704
0.07766563145999492 0.056427384220077474 1.726
-0.07766563145999471 -0.05642738422007775 1.704
0.39601426251121175 1.0454305601354519 1.707414208071594
-0.28224767190582967 -0.7451002897378907 1.215186688627531
0.9025460227489137 1.2391611681529329 1.786962512751046
-0.3207334287658363 -0.4403547301052583 0.630443089731257
1.7370245620503093 1.7002237843025798 1.9372672153674613
-0.3382308466605176 -0.3310650537941901 0.37190705794844037
3.690651984153653 2.9858945258823266 2.2344510436981877
-0.34780260651883976 -0.28138711082789003 0.20633147066242372
-0.35011328268936687 -0.25839630678289727 0.0754166040918375
-0.3522292357540405 -0.25724923694002694 -0.04352174262448713
-0.34116260613228333 -0.26700723321358033 -0.1650671802780711
-0.26793602211999784 -0.24636547488255195 -0.2500660778904152
0.20379108429599727 0.1873846109312148 -0.1863237443105054
-0.15743845082821195 -0.19355992368383906 -0.25411129852438
0.06662007482080733 0.08190487476402633 -0.08147695603480123
0.07186071105047216 0.15084452384900493 -0.22328953794955142
-0.036847195241651545 -0.0773468219301981 -0.08443722023302365
-0.03411836015989003 -0.08021707573754717 -0.09225248208062999
0.04410215414239947 0.10369038319692836 -0.14075636441168288
-0.03124893770611838 -0.10112368664165723 -0.10081199072728637
0.02982054023557644 0.09650129532809401 -0.09225248208062999
0.03305463198059298 0.09550130889155403 -0.08912817691263608
-0.03305463198059287 -0.09550130889155437 -0.08912817691263608
0.12764960216332324 0.2160046295800164 -0.2339437351494293
-0.1380060248983107 -0.23352944139872486 -0.25491800105937806
-0.22874953491022137 -0.28949956822075007 -0.2439370073538854
0.17705467973841724 0.22407588000496634 -0.18509793020319945
1.2619084805449718 1.3593410168166056 -0.7138040228240912
-0.3415716999994742 -0.34335986952467384 -0.048516040958444674
-0.3400598953336194 -0.3454395750344784 0.08420641808855517
2.225026291037476 2.2602257630599665 0.5616691143902582
3.552720804700682 3.956137763020902 2.4610197161739835
-0.3376541888105002 -0.3759953457158762 0.23008818583464308
1.553886607576681 2.093429841193635 1.9828342062512343
-0.32877416724534914 -0.44293171031209955 0.414793637603756
0.7952087666011184 1.5027216974543236 1.8013871864057314
-0.3111581525358089 -0.5880017006778152 0.7008694375747219
0.34729511151893794 1.2618914374858095 1.7131824993150793
-0.27250915475855625 -0.9901578157041473 1.3430504778581176
0.0678822509939085 0.06788225099390863 1.725
-0.06788225099390827 -0.06788225099390886 1.704
0.056427384220077335 0.07766563145999501 1.726
-0.05642738422007709 -0.0776656314599952 1.703
0.28804427035601443 1.4405274000632156 1.7093369718194225
-0.2584885241690971 -1.2927172660204755 1.5334040888931266
0.6569809552751672 1.7087917458363484 1.790356553610972
-0.30318632105124466 -0.78858036706082 0.8230549085320582
1.2611501088249906 2.33854013544013 1.9359270097532326
-0.32210227060712643 -0.5972715557491942 0.49051525480767266
-0.3306436064046518 -0.5067682711071511 0.2723223461408108
2.662944286917333 4.081420738812649 2.219053172753231
2.636251411258454 3.6858907488785175 0.8007520551009787
-0.3327533159314571 -0.46524104780466746 0.09967649072277825
-0.333374821959922 -0.4612532190627634 -0.05728154415681913
1.189484722393866 1.6457561312056825 -0.2071104941755453
1.058775964020189 1.569797363490165 -0.720495935538067
-0.17214433714071972 -0.2998605965171411 -0.2194207252077663
-0.11471804304664758 -0.2671863596915691 -0.25491800105937806
0.10610922651130439 0.24713582282531688 -0.2339437351494293
0.028201563263723053 0.11214738196656449 -0.09381913359224851
0.02557452918937746 0.11391062705797772 -0.0979588211784009
-0.026518802272195274 -0.1181164811787427 -0.10461621679246699
-0.04006941426610968 -0.25448650015891194 -0.2558342028833966
0.01875126792441619 0.11909194668869318 -0.08844825601544937
-0.045176188473647655 -0.25616553788394303 -0.25424985203499345
0.021002513740702864 0.11909194668869318 -0.0872517942407911
0.08195608954624442 0.27218171191588597 -0.2339437351494293
-0.0893757422014141 -0.29682287979842686 -0.2573381086643722
0.4833518780650974 1.2005637613992244 -0.8237470801096028
-0.11401801971260014 -0.28320134631816984 -0.18571083725685245
0.7891496035239549 1.6683763480741813 -0.6952153763963804
-0.3289438755816102 -0.648968441582933 -0.07358945708402742
1.9039170800005316 3.795760683369262 0.7487163562404101
-0.32330136117587005 -0.6445525430292386 0.1260459327129312
1.8374949989670335 4.015786470400327 1.982365899370749
-0.3171654685271434 -0.6931549735403368 0.3396330391287657
1.0000142563964576 2.6441092628521794 1.9875249259010341
-0.31438883840037085 -0.8312665888857125 0.6218554050020768
0.5134354368055734 1.9042210297804185 1.8115693089855096
-0.2973546817986367 -1.1028242263672434 1.047061605287175
0.22322671856199855 1.5918554093895096 1.7151052630629076
-0.20651006094013535 -1.472647000854483 1.5862800919584068
0.04358308797499638 0.08553662632208338 1.727
-0.04358308797499605 -0.08553662632208354 1.703
0.029665631459994818 0.09130142556433479 1.727
-0.02966563145999448 -0.0913014255643349 1.702
0.151263988249559 1.6915421791770016 1.707414208071594
-0.13657461243580554 -1.5272750653564322 1.54109514388444
0.34702889936864056 2.0183059579928577 1.7988416557607871
-0.29443728942951325 -1.7124352945591093 1.5256213665367429
-0.3182157281301064 -1.319424942275541 0.9274222850462007
0.6744883061357962 2.796645846571348 1.969432150108948
1.2246453111129347 4.197054538886311 1.9410116174042928
-0.32710928946085865 -1.022665283185315 0.18827781580969222
0.774307707064729 2.395549766326807 -0.2565438552361454
0.05595831500550185 0.2914286093718534 -0.23475043768442733
-0.03125460101360212 -0.2779168753275573 -0.2589408087146059
0.02904245824840813 0.25824643369198125 -0.23830059932431122
-0.027273984741930456 -0.27163779132341437 -0.2558342028833966
0.015278640450003995 0.15216904260722466 -0.12173523408577978
0.011958880233650375 0.2443406012078871 -0.21684088571529522
-0.013352682926740998 -0.27281840024434895 -0.24632363772044502
0.013845049339788711 0.2525567563122779 -0.22235134661362896
-0.01531173564301638 -0.27931155697639537 -0.24955889535538103
0.05352760040847378 0.5718851958582093 -0.4606271474838763
-0.03160703845339029 -0.2525567563122781 -0.14525897171575586
0.6089345455756183 3.9054831859383397 0.6949226945804979
-0.06709818518543853 -0.4303431886936221 0.07471341897210008
0.5788044057101963 4.069393069759721 1.8121094406365104
-0.35834366889651864 -2.5194024586086723 1.121404943962725
0.35247330046399145 2.99814613838015 2.033091916784807
-0.29340559939245164 -2.4957148914247482 1.692009587963625
0.177083191098979 2.1128186567614935 1.8132663294154727
-0.16376983596000746 -1.9539740767246447 1.6766561848034507
0.07678971134735443 1.7616265375127427 1.712221117441165
-0.06922446940182343 -1.58807293586337 1.5430179076322685
0.015017708643862022 0.09481808069713325 1.728
-0.015017708643861677 -0.09481808069713331 1.703
-1.6465195194651677e-16 0.096 1.729
4.939558558395502e-16 -0.096 1.703
-8.414397689066999e-16 1.7825868842780144 1.7112597355672508
2.272660043453078e-15 -1.6048738268163012 1.5401337620105258
-1.9279137943570507e-15 2.1241704263076446 1.80053867619075
5.343131849888558e-15 -1.962349612072222 1.6630800213637467
-3.776667765399097e-15 2.966553724441882 1.98685482309392
9.74598063072554e-15 -2.5518064189902807 1.7087621581414825
-6.2704760066619375e-15 4.071132029300942 1.7905524213135704
1.5970636094347896e-14 -3.456333461921752 1.5199898318521832
-6.581746003646854e-15 3.898182268699092 0.6850781029041741
1.2768608013787003e-14 -2.520828633604434 0.4428308291546355
2.992044951800031e-15 -0.6264000319284794 -0.23012744277505856
1.2844921699605334e-15 -0.3159382851127732 -0.18448502314954648
9.404167137713158e-16 -0.30927657525263696 -0.23717054528942141
-1.621705686143001e-16 0.16 -0.10325792447974809
-1.4249190904532923e-16 0.24003333101884 -0.20640209390294673
-1.2819053135849174e-16 0.24186773244895646 -0.2111345466175243
4.5862838750304975e-16 -0.2884441020371192 -0.25868737243228207
-0.006461246586139981 0.13201443986097297 -0.08844825601544937
0.006841903763394671 -0.13979192418452582 -0.09890987769469607
-0.007236973027875896 0.13201443986097297 -0.0872517942407911
0.007623634061144238 -0.13906778101981665 -0.09663370760001595
0.03917011524238614 -0.31298969261491577 -0.18509793020319945
-0.059173570960802536 0.4024536094468012 -0.1472220797074688
0.09010601500050303 -0.6128325598913166 -0.2278968052037333
-0.44468474783619144 2.8520451308535106 0.5073480638905432
0.49840362785379944 -3.1965783556483554 0.5687009655876324
0.4911713944764273 -3.4532727274147015 1.5375873986464197
-0.4182932757706088 2.940889427853199 1.3092589694912002
-0.3522411840178995 2.9961717504602356 2.0317517111705787
0.2964224668898261 -2.5213764369241862 1.7094322609485968
-0.1777447810310225 2.1207122323338776 1.8200544111353247
0.16219885200389064 -1.9352303202371852 1.660534490718802
-0.07713364282125684 1.7695166415498405 1.7199121724324786
0.06918149269291575 -1.5870870106712167 1.542056525758354
-0.015017708643862348 0.0948180806971332 1.73
0.015017708643862733 -0.09481808069713313 1.704
-0.029665631459995147 0.09130142556433468 1.73
0.029665631459995505 -0.09130142556433457 1.704
-0.15194337695124863 1.6991395898909458 1.7151052630629076
0.13640482300454015 -1.5253763584143751 1.5391723801366117
-0.3460487547956697 2.012605477038882 1.793750594470898
0.3190972051355764 -1.8558563608843495 1.65374640899895
-0.41895636752587295 1.7371280932184785 1.2222675201764956
0.5823370835759808 -2.4145571854574293 1.7000508216489967
-0.4492399509465129 1.5396168654380502 0.710941698487157
1.0074207913157593 -3.4525915106943326 1.5965392474071123
-0.4660446304799601 1.4570288260303352 0.26879251201962595
1.0225443615830316 -3.1968539347548774 0.5906755005794265
-0.46911106599206454 1.4513337453125108 -0.15523094617586392
0.8335973491046431 -2.5789797991656664 -0.27621527520459044
0.18111152627711868 -0.6004413800788118 -0.23198630741782963
0.09050163381000387 -0.3525072727527968 -0.2194207252077663
0.026938177846746906 -0.14029292533409998 -0.09035068391977957
-0.01482643921813534 0.13183715440631472 -0.09381913359224851
0.01553515954959766 -0.13813911743298513 -0.10226285561555087
-0.013032053940667821 0.129793955021475 -0.09225248208062999
0.013798439551056677 -0.13742684388893742 -0.10271410375987669
-0.01865392641623439 0.11847371704418426 -0.08749719949915422
0.020588359024264983 -0.13075957131052163 -0.10556727330876216
-0.020893485574107952 0.11847371704418426 -0.08631360290486863
0.021895800758868846 -0.12415721131646516 -0.094757324928171
0.08093800586883988 -0.2688005872218676 -0.23071692500943716
-0.03876755558351943 0.12874967197602244 -0.08712387377978745
0.1319207922955778 -0.3276687849836211 -0.21758200404680736
0.24651951305319791 -0.5211778895663193 -0.2145129797757816
-0.4797834750115211 0.9465576263578025 -0.10783607423116481
0.2025078906048602 -0.39952478197598873 -0.0446429116382327
-0.4672181525996698 0.9314734936847863 0.1830039274116616
-0.4546380638032401 0.9935969276522599 0.4887724177099205
-0.4349016730755195 1.1499111486196558 0.8624223127561129
0.8575575551588974 -2.2674435494502823 1.7040714384916822
-0.40546463540947186 1.5037806708136021 1.4297397122438331
0.47047944871397424 -1.7449065570826345 1.6596859805038204
-0.22372578337675353 1.595414297994415 1.7189507905585644
0.20052306585722485 -1.4299530501924729 1.5401337620105258
-0.04358308797499667 0.08553662632208323 1.731
0.043583087974997006 -0.08553662632208306 1.705
-0.05642738422007763 0.0776656314599948 1.732
0.05642738422007789 -0.07766563145999461 1.705
-0.28368295720040854 1.4187162003710831 1.6833796612237395
0.259134434300487 -1.2959475029597052 1.5372496163887832
-0.39770316551242735 1.0344164181075541 1.0818505241014167
0.6069589525515163 -1.578685713571543 1.65374640899895
1.1059270286489291 -2.050711271613126 1.6973704104205394
-0.4300492662257266 0.7974367700149723 0.6573708537791351
-0.4509982377664814 0.6912324714532052 0.37350835520767106
-0.4645026558845095 0.6494471789915145 0.14010963510767946
-0.47752205744289816 0.660693524706214 -0.08266073364978704
0.31970911954962583 -0.47401768646798176 -0.21488475270433582
0.17438833814557925 -0.3037694528354936 -0.22248526047603115
0.10577952507084412 -0.24636792507076535 -0.23313703261443125
0.028794122201341227 -0.11450377380531769 -0.09757189893593844
-0.03173793572165716 0.1413628431948363 -0.13885425137909257
0.025574529189377707 -0.11391062705797714 -0.0979588211784009
-0.02935824082580308 0.09500526301210871 -0.08939931253174453
0.030766207462558023 -0.09956153875869879 -0.0979588211784009
-0.033575138597656505 0.09700515450222197 -0.09194275092040353
0.1280463687254464 -0.21667602543890138 -0.23475043768442733
-0.2419526235458542 0.4094245962323211 -0.4606271474838763
0.21519578371303646 -0.27234628692163054 -0.22861433101256093
0.39756756230919843 -0.42826393730968965 -0.22232021127542007
-0.4726262595460352 0.4751005156806282 -0.06777976310370946
-0.45599250708511135 0.4632062175748496 0.11391598939746085
1.0747614283099833 -1.0917639396865906 0.2709020673788382
-0.44048458560204257 0.49050229357261804 0.302238209691013
1.337775166343214 -1.802279806245401 1.7067518497201395
-0.41664994751704143 0.5613198731561162 0.5280410120060739
-0.38149383656417096 0.7209164306630811 0.8612378682062258
0.6935492947352639 -1.3106137875056783 1.5705924079307627
-0.3094081472032461 1.1242297363083726 1.525713033901813
0.32358977944911393 -1.1757584786000834 1.5958939106975485
-0.06788225099390874 0.06788225099390839 1.731
0.06788225099390897 -0.06788225099390816 1.705
-0.07766563145999512 0.05642738422007719 1.73
0.07766563145999529 -0.056427384220076954 1.704
0.37889587576173445 -1.000240054786872 1.6333878037802019
0.7905127989211618 -1.0853438369463544 1.564652836425892
-0.3738694995562555 0.5133085229225625 0.7365068666039449
-0.40942161874703314 0.40074757099560343 0.4523193948021572
1.5281787530271962 -1.4958026036752192 1.7040714384916822
-0.4321325944768256 0.34961366009143374 0.25824429270542154
-0.44700613200851824 0.32990674541984616 0.0972153428036973
-0.4636116683315478 0.3385969584820688 -0.05789309089158944
-0.4815804500697771 0.3769037439379329 -0.23570403670337178
0.4726715938325754 -0.36993132371298243 -0.2312427615607212
0.25240616934891524 -0.23208587364591154 -0.2347434015490907
-0.502376381133493 0.4619318997439552 -0.4780675018493232
0.1483180866384623 -0.1823470529572107 -0.23797724782441945
0.07186071105047251 -0.15084452384900354 -0.22328953794955142
-0.03703927206583867 0.07775001494990674 -0.08537541156894614
0.06230770417853607 -0.14649419848138193 -0.21874299874788553
-0.03411836015989022 0.08021707573754637 -0.09225248208062999
0.07014968792707972 -0.11566694364249074 -0.22444933784565646
-0.05303706296417576 0.08745063811570387 -0.15882643822129078
0.07971574748610258 -0.11735105577459747 -0.2251659206213964
-0.0854731541664507 0.12582664276674677 -0.24392974733984613
0.16234825185262597 -0.13997713204451467 -0.23636384275442338
0.25008546143177307 -0.16126570755392222 -0.20961421234931862
-0.4740334672867346 0.260180921621673 -0.21005170463313103
0.4854537150433201 -0.2664491089787014 -0.21525652563289002
-0.4547603287545864 0.23292500130787425 -0.051369925720706124
-0.4371041454967571 0.22623900393327726 0.08596438088789869
2.4547786229508723 -1.270559147641903 0.49170219497638573
-0.41760159685049 0.2369399861297301 0.22568879413608392
2.0306297926774546 -1.1521445285178478 1.115685734754598
-0.39207396992583043 0.26913673397464644 0.3920101421618695
1.687016844307347 -1.1580422024011976 1.7080920553343684
0.871568757784534 -0.8391989520708831 1.5663498568558551
-0.3579146988918555 0.34462185290385083 0.6389281918810721
0.4185190967993169 -0.774826531552185 1.6381947131497727
-0.08553662632208345 0.043583087974996236 1.731
0.08553662632208361 -0.0435830879749959 1.703
-0.09130142556433483 0.02966563145999468 1.731
0.09130142556433495 -0.02966563145999433 1.704
0.44541881585437637 -0.5258573163891986 1.6333878037802019
-0.34811530879202607 0.21374529257302266 0.5812294972623299
0.9815775455877641 -0.6026956424088444 1.6528978987839684
-0.38231995980666567 0.16735631219774028 0.3571647961919256
1.696314083163215 -0.7425426321734336 1.6089168398814508
-0.4063566321238731 0.1470258564833982 0.20501165315285597
2.0258175978693505 -0.7329708533342758 1.0426558325585165
-0.4243835856649101 0.14007198729715858 0.07787775201091844
2.4480594778478113 -0.8080061709892274 0.4593556794684648
-0.44180604560022096 0.14430299567511812 -0.04657947629833869
-0.4616518166578871 0.1615813193626601 -0.19109128527686609
-0.48707228123370644 0.2002890258027961 -0.3928734213915591
0.29672124786185705 -0.12201476445900424 -0.2347434015490907
0.1732898229608521 -0.09527801275673434 -0.23636384275442338
-0.5355333522701069 0.2944463367636746 -0.7647540031781342
0.08569985955220577 -0.08045131484713446 -0.22704230329324138
-0.0718420533476496 0.0674422068290041 -0.18388550184080707
-0.08117876136971863 0.08535640099071178 -0.24632363772044502
0.08421754604141736 -0.08855156828059613 -0.25678525939969177
-0.058263615948855985 0.02986259775779923 -0.15692432518870048
0.07889373690548042 -0.04043641803636133 -0.22825356391083707
0.09957396911102875 -0.04556541506999863 -0.2580026173786834
-0.06614710620641558 0.030269159468916302 -0.15761614443497748
0.1916504682127324 -0.05136484627245781 -0.25330459598938204
-0.47806546170444636 0.09582693193692858 -0.3708087674600519
-0.4515228290980113 0.07703583424563945 -0.17956632449168547
-0.43001903765913796 0.06846487999786606 -0.04352174262448713
2.563229878796989 -0.40810106225548765 -0.2657170562577001
-0.41037445617480045 0.0660251670074747 0.07225227105301915
2.554011183660809 -0.4109149885009684 0.46146523482767704
-0.39165285051968424 0.06907551527972638 0.18961378220789896
2.6081991391288875 -0.46000609787061364 1.2929812202065316
-0.3660630681089191 0.07811015805692934 0.32835037548601037
1.8744682472326621 -0.3999720917502409 1.712112672177054
