0.096 0.0 1.726
-0.096 -3.2930390389303353e-16 1.704
0.096 0.0 1.726
-0.096 -3.2930390389303353e-16 1.704
0.096 0.5250198734430362 1.6158450211854656
-0.5354218602723751 -5.9434605009211304e-15 1.6453277731906153
0.096 1.3272190996764055 1.8267603732986304
-1.225069124060944 -7.149366405479179e-15 1.6843733822886395
-2.4719582773307263 -1.0481154864555563e-14 1.7950961605012101
0.096 0.3219887637612293 0.23393853041240398
-3.815780142852878 -1.3762668979944365e-14 1.2394671644379085
0.096 2.4061729862267396 0.7818129957686133
-3.911178339068675 -1.3416315582054014e-14 -6.706136792821671e-15
-0.3903006630417408 -1.4077275490196918e-15 -0.12329778075560484
0.096 0.5487596099023032 -0.17830280575434584
0.096 0.09789105631936845 -0.0711220155273895
0.21398611839785295 0.04189290439547475 -0.1469463130731188
-0.3745452797671252 -0.06237499401529186 -0.11958957682310543
-2.6250132530893673 -0.4157612549350602 -4.555370670520297e-15
3.0607832864867524 0.5097283278951336 1.0064683506791992
-2.3329088126336104 -0.45672273782411416 1.715157366189434
0.3489344173916431 0.0683122638866719 0.2503965174765932
1.3201834368210315 0.3557362386196425 1.8380866112198795
-1.2152059063583591 -0.32744902429412126 1.691654535238014
0.5209067794420043 0.2669870273318121 1.6206003037669414
-0.5294394170637756 -0.2713603694418534 1.6472298862232058
0.09481808069713321 0.015017708643862182 1.727
-0.09481808069713317 -0.015017708643862532 1.705
0.09130142556433472 0.029665631459994988 1.727
-0.09130142556433464 -0.029665631459995307 1.704
0.4995331793066804 0.5252402677946154 1.613942908152875
-0.5095098906176316 -0.5357304028602177 1.6462788297069104
1.2550230326571707 0.6937596697872966 1.814625118383006
-1.1338391640792793 -0.6267708747927258 1.6390684306036425
2.633994149782639 1.057872189307783 2.01140113334484
-1.305490270413821 -0.5243146992549927 0.995708217383448
3.0593757446430434 1.0452075355984873 1.0447864579816923
-1.3631492228861528 -0.46570737262352296 0.4647615595399188
-1.3858469743626343 -0.4502889779352054 -2.4937910221899517e-15
-0.3571434362654813 -0.12201476445900827 -0.11835350884560564
-0.0816164811787419 -0.04511648117874287 -0.08899186938124441
0.07708963938169608 0.04261410457801285 -0.08009268244311998
0.2442794938304268 0.15384920188528797 -0.19103020699505446
0.48313552805997445 0.2588382949737239 -0.1736675508387216
-0.9057465893694946 -0.46150093807654197 -1.7357059934361975e-15
0.3969141552339564 0.2022378633562834 -7.460791572576541e-16
3.0440918342912076 1.6308623447654231 1.109680026800431
-0.8909469608631465 -0.4773219497805437 0.32354079311056844
2.526048534696786 1.5909258075357686 2.0590117387805305
-0.8605856673615702 -0.5420038170269238 0.6994644502280419
1.1878151695444181 1.0296652660439185 1.83323250925363
-0.8127995284872462 -0.7045805308760225 1.253167324286793
0.46936699503998686 0.773919989770593 1.6186981907343512
-0.47761419810024636 -0.7875184646857099 1.6472298862232058
0.08553662632208328 0.043583087974996534 1.728
-0.08553662632208316 -0.043583087974996826 1.706
0.07766563145999492 0.056427384220077474 1.729
-0.07766563145999471 -0.05642738422007775 1.705
0.4246787020795842 0.998479512180354 1.6129918516365802
-0.42792354749417477 -1.0061086013030223 1.625355586348417
1.0680614507372113 1.3201965572582366 1.8154341353773809
-0.5715090033209286 -0.7064239778578265 0.9692023592611865
2.2438805100609773 2.0151302502380988 2.0143400596063024
-0.6054171757946469 -0.5436984988671993 0.5407624321090745
2.551699537135024 1.9493249882164112 1.024391336352946
-0.6253006413677527 -0.47768718363075 0.24937671446058143
-0.6349917647118118 -0.46134852199630927 -1.3360819850660058e-15
0.4409533567450764 0.33685838964652376 -0.17459460182184647
0.22431315368388804 0.20144576303772432 -0.19338134800422435
0.13001328699575038 0.16070526070493776 -0.207108350559987
0.11597406694813937 0.19730686759461785 -0.21196245252623672
0.11597406694813937 0.19730686759461785 -0.21196245252623672
0.1999041540445775 0.24709512338368822 -0.19749584477027168
0.3933656440070785 0.4136091149866022 -0.17830280575434584
-0.4664954025599557 -0.49050229357262143 -0.21229467513559028
-0.4569119171131326 -0.45691191711313656 -1.0959645551440022e-15
-0.45051628489449597 -0.47370085497073144 0.20487826727058922
2.3378239210491842 2.458133539903805 1.0738340554529373
2.0241263255736825 2.5019577334559453 2.0789964373584744
-0.4365188370018307 -0.5395669559934175 0.4449534359854015
0.9426554558017358 1.6037412509504159 1.83323250925363
-0.41340069641721394 -0.703319273161204 0.8009268244311976
0.3722735952355382 1.2047026604104443 1.6177471342180558
-0.35569460166289135 -1.1510519102108345 1.5454668389796242
0.0678822509939085 0.06788225099390863 1.728
-0.06788225099390827 -0.06788225099390886 1.705
0.056427384220077335 0.07766563145999501 1.727
-0.05642738422007709 -0.0776656314599952 1.703
0.30836579261954217 1.3734814252264658 1.6120407951202849
-0.2634045466621873 -1.1732210926750741 1.376178779079087
0.7756468908461 1.8162863955270454 1.814625118383006
-0.29862479651882823 -0.6992720033887193 0.6949455981680794
-0.31385765646519176 -0.5339665383591887 0.3838237697469844
1.4723111084278335 2.130748652922377 0.8133327291948579
-0.322576056923013 -0.46683645516175665 0.1758306697993443
-0.3275904976172496 -0.45088963823854145 -9.416033501941428e-16
-0.33360577408072317 -0.48279881178691475 -0.18201100968684522
0.32808964095198057 0.4748157889284074 -0.17892083974309575
0.1561384562646045 0.265638608072652 -0.18456456921983722
-0.3425823857637232 -0.5828359667541693 -0.4196786701368273
0.09672836610813675 0.2265030872903065 -0.21277146952061166
0.07445993449852525 0.24862115732927087 -0.21196245252623672
-0.2460377435675698 -0.8215181622764345 -0.7418685838418285
0.07445993449852525 0.24862115732927087 -0.21196245252623672
-0.2460377435675698 -0.8215181622764345 -0.7418685838418285
-0.23515056001570672 -0.5704564461205385 -0.37206806470113685
0.12940618447077903 0.31392905079319355 -0.19925920052714913
-0.22916406318642984 -0.4729054374665151 -0.16130687106372363
0.2355367122481998 0.4860561049423494 -0.16594212597934788
-0.2249026963648919 -0.44139639460217756 -8.335505067292411e-16
1.2213191333521576 2.520327362908802 0.8735910430979723
-0.22152484030191016 -0.45714105456163884 0.1557445651649728
0.9721112068303787 2.358264017084876 1.5546919923135891
-0.21556185729983268 -0.5229358204640945 0.34032766107734147
0.572430742562497 1.911341913812185 1.7337234189455113
-0.20547574806111663 -0.6860819664978959 0.6180889837024596
0.23873422585923396 1.5162347321470113 1.6158450211854656
0.04358308797499638 0.08553662632208338 1.727
-0.04358308797499605 -0.08553662632208354 1.704
-0.02966563145999448 -0.0913014255643349 1.704
0.029665631459994818 0.09130142556433479 1.728
0.1719382780569808 1.7124352945591073 1.7099996162986857
0.38582503786094396 2.020206125661341 1.7167340620636375
-0.1285150075419131 -0.6729133156183664 0.5671209130568379
0.6197149042099899 2.3575355915765615 1.4559440699284536
-0.1344100535674302 -0.5113262292035491 0.3109383984627178
-0.13839097636690295 -0.4478426069958725 0.1424568344068501
0.7617046014871199 2.4649278691867185 0.8003540154311101
-0.14007198729715764 -0.4310972493238909 -7.598001532531971e-16
-0.14270961112620315 -0.4618180026469622 -0.14709208932247594
0.0885638893680709 0.33691705636778996 -0.20043477103173407
-0.1457397080414231 -0.5544267960630054 -0.3379765200681733
0.0506825256768371 0.2653771497153001 -0.21196245252623672
-0.15266482973620005 -0.799363426272192 -0.6755291903030826
-0.07226206962146084 -0.7762099333840523 -0.6310332556124604
0.028175847306969384 0.3026535591320265 -0.23542394536311026
-0.07217080923559076 -0.7752296512193163 -0.6302242386180855
0.028175847306969384 0.3026535591320265 -0.23542394536311026
-0.06941295798920337 -0.541714416000647 -0.31740403623793667
-0.0677293030301493 -0.449632574161128 -0.1375125624968525
0.4004410646116957 2.5282853782302053 -4.3872884695748945e-15
-0.0664822550719331 -0.41975243865944417 -7.100615427693536e-16
0.3753412265416255 2.4917669949087906 0.7790318428192389
-0.06569471892322855 -0.4361256392243414 0.13318632457560173
-0.06381354625672848 -0.4980153410083855 0.29095369988477376
0.3314254222726414 2.586518919163663 1.5382340052494
0.20836157388527238 2.238135777628581 1.8316144752648797
-0.06087060658761377 -0.6538474435056338 0.5299061313155903
0.08737866207735025 1.7852971522069787 1.7166570119127518
-0.053473435726176674 -1.0925547525110764 1.048064280957259
0.015017708643862022 0.09481808069713325 1.727
-0.015017708643861677 -0.09481808069713331 1.704
-1.6465195194651677e-16 0.096 1.727
4.939558558395502e-16 -0.096 1.703
-9.543020560537156e-16 1.8005610236812302 1.7099996162986857
1.747736892818766e-15 -1.0992001637554463 1.041406885343193
-2.2703446958721895e-15 2.252047068779869 1.8202882373436307
1.981184714944297e-15 -0.6550725150698967 0.5242430123549657
-4.451913815817247e-15 3.208436535136701 1.8850273041019585
2.0784980679585827e-15 -0.49931553150287644 0.2880147736233114
-5.8466165684203425e-15 3.5842858423959436 1.1072078908454315
2.1321523692848204e-15 -0.435707470672698 0.13133222260935204
-6.1080628408915276e-15 3.561294146795516 -6.105843218016663e-15
2.1566420396220965e-15 -0.41914198071775155 -6.997707957726962e-16
2.199030135032461e-15 -0.4493740090392412 -0.13565846053060282
2.2462241049632573e-15 -0.5396081911906082 -0.31211396896730437
-3.089158517358529e-16 0.30642617381679393 -0.23542394536311026
2.3437967014616565e-15 -0.7749690316393295 -0.622134068674336
-0.02817584730696999 0.30265355913202635 -0.23542394536311026
0.07372246882694014 -0.7918969511505407 -0.6439775275224596
0.07363118128047741 -0.7909163772377008 -0.6431685105280847
-0.02817584730696999 0.30265355913202635 -0.23542394536311026
0.07053467935003178 -0.5504685830826546 -0.3226941035085689
0.06903877137001385 -0.4583257039305494 -0.14029371544622704
0.0677019737449302 -0.42745343927852636 -7.237825387648967e-16
-0.3796526996775094 2.5203894474925304 0.7879933356561123
0.06685697411332815 -0.4438414692945521 0.1356584605306013
-0.30145330891195693 2.3526097708456066 1.3989289004560839
0.0649320968400364 -0.5067447626258238 0.296243767155406
-0.20119615236506877 2.1611677169294525 1.768511149703634
0.06187153738263267 -0.6645990373887054 0.5388053182537147
-0.08747520759159433 1.7872697439992662 1.7185591249453422
0.05453300123445499 -1.114203507934048 1.0689875243157523
-0.015017708643862348 0.0948180806971332 1.727
0.015017708643862733 -0.09481808069713313 1.704
0.029665631459995505 -0.09130142556433457 1.703
-0.029665631459995147 0.09130142556433468 1.726
-0.17212898971956905 1.7143347051254285 1.711901729331276
0.10315699146275628 -1.0274016644671156 1.023336811533585
-0.4090519926346003 2.141824039766493 1.8202882373436307
0.1168288517943081 -0.6117238097282324 0.5145348084224663
-0.8748292690576893 3.3280483079321397 2.056072812519068
0.12262162329703756 -0.4664803755013388 0.28272470635267916
0.12575891779759601 -0.4069644067698203 0.1288600866543525
-1.0748417978273777 3.478261122827452 1.1297661314348024
0.1271168365714198 -0.3912253952136479 -6.860497997771532e-16
-1.122123893828268 3.4535422347062275 -6.2259019329776645e-15
0.12948496878012397 -0.419022161036911 -0.13287730758122826
0.13219682295728816 -0.5029065996281732 -0.3056483311920871
0.059639583342141034 -0.31227691252920947 -0.2540313362337341
0.07420943255673379 -0.24778473324293232 -0.21115343553186175
-0.04142609258229487 0.1383214093700764 -0.09870007331374381
-0.04079996951270626 0.13623078918299097 -0.09627302233061895
0.06552322959941945 -0.2187815673579669 -0.18283784072873852
-0.05672994006299865 0.13762229609322293 -0.0711220155273895
0.06884727394734155 -0.16701797868762555 -0.0946334256190885
0.18433723540279695 -0.3804003111893128 -0.12855106965997898
-0.2168610669154552 0.4475168413979298 -0.15234537822685007
-1.3771889921038696 2.7028855839690897 -5.200257482310821e-15
0.1810192830395186 -0.3552703465923643 -6.637531812843957e-16
-1.3205734683128316 2.7251496812180864 0.94466495180421
0.17887241293050893 -0.36912304447480254 0.12453384873310325
-1.3116851166651642 3.182043155806299 2.098393350684126
0.174389712033712 -0.4230554898958677 0.2733201423159996
-0.6054886680522246 2.0217220766408577 1.8340415262480048
0.16636312808470213 -0.5554852246365407 0.49835446853496734
-0.25344266131563564 1.6096500797548792 1.7157059553964567
0.14582421829863657 -0.9261501729665985 0.9843434943654837
-0.04358308797499667 0.08553662632208323 1.726
0.043583087974997006 -0.08553662632208306 1.704
-0.05642738422007763 0.0776656314599948 1.726
0.05642738422007789 -0.07766563145999461 1.704
-0.32740879463219436 1.4583002027009 1.711901729331276
0.19241729939855465 -0.857039246704701 1.0033646246913868
-0.777717948879272 1.8211360694887155 1.8194792203492558
0.2188060723736961 -0.5123652234040831 0.5064446384787168
-1.6583199700146682 2.821302445998599 2.049019389491558
0.22904473981489826 -0.3896741861446465 0.2774346390820469
0.23485168191861217 -0.3398805469986427 0.12638795069935294
0.2377916457906229 -0.32729212210529446 -6.74043928281053e-16
0.24193232524820013 -0.35012775029010884 -0.1304051716262287
0.2467785497305959 -0.4198447456245465 -0.2997704786691624
0.11311087883665699 -0.26486504728075916 -0.2532223192393591
0.13607260328398363 -0.23150053995617237 -0.2532223192393591
0.13607260328398363 -0.23150053995617237 -0.2532223192393591
-0.11402503663490907 0.19399097917171254 -0.20791736755436196
0.29518867271935095 -0.3648732656690517 -0.2980071229122849
0.2897337132730259 -0.3046440545948647 -0.1297871376374788
0.2840035211049345 -0.2840035211049311 -6.688985547827244e-16
0.28056328426263855 -0.29500169491038347 0.1254608997162281
-2.045856741340506 2.528818004523055 2.101332276945588
0.2738597212624884 -0.33850923177957587 0.2756712833251695
-0.9426554558017392 1.6037412509504103 1.83323250925363
0.260759451766429 -0.4436304768610895 0.5015905365124671
-0.39474619966951746 1.2774255359902553 1.7157059553964567
0.22886719460532742 -0.7406297995625029 0.991951946495845
-0.06788225099390874 0.06788225099390839 1.726
0.06788225099390897 -0.06788225099390816 1.704
-0.07766563145999512 0.05642738422007719 1.726
0.07766563145999529 -0.056427384220076954 1.704
-0.45063954553501107 1.0595171158610397 1.711901729331276
0.26235007623402884 -0.6168220229926643 0.9938540595284353
-1.0699618286276613 1.3225455535137602 1.8186702033548807
0.2978709160865378 -0.3681887008030914 0.5007815195180922
-2.2759390276691662 2.043920592825575 2.0431415369686334
0.3114057612569059 -0.2796597977448241 0.2739079275682921
0.3195015010716405 -0.2440774279055082 0.1248428657274782
-2.4727668950536414 1.7965703111002282 -5.239705345798007e-15
0.32336400156893114 -0.23493769916581778 -6.654683057838386e-16
-0.38644925092824084 0.2952209578553006 -0.15234537822685007
0.3284913587894756 -0.2509450680938834 -0.12855106965997898
-0.10212220386880509 0.09171145313411451 -0.07229758603197445
0.12156427197415892 -0.10917151813785278 -0.09345785511450355
0.15250451464852285 -0.18850594698118509 -0.24755920027873446
-0.11133877634431837 0.07012206227735444 -0.0711220155273895
0.13203763450726322 -0.08315837064025056 -0.09169449935762615
-0.42561380816332667 0.22802121976960607 -0.15234537822685007
0.3609565483282374 -0.19338130214526864 -0.12824205266560404
-2.681512223530187 1.3662987210190136 -5.1590944943241915e-15
0.3552703465923666 -0.18101928303951403 -6.637531812843957e-16
-2.5705969474340424 1.3771889921038556 0.9369395269448363
0.3502326001504222 -0.18763598162852166 0.12422483173872831
-2.5743269898817935 1.6213319692728676 2.098393350684126
0.34155316021656307 -0.21511294409833845 0.27273235706370713
-1.188861672635968 1.0305724340207165 1.8348505432423796
0.32598855874002564 -0.2825852916081688 0.4975454515405924
-0.49768417698586037 0.8206110298170113 1.7166570119127518
0.2861961427899782 -0.4718970831801442 0.9843434943654837
-0.08553662632208345 0.043583087974996236 1.726
0.08553662632208361 -0.0435830879749959 1.705
-0.09130142556433483 0.02966563145999468 1.727
0.09130142556433495 -0.02966563145999433 1.704
-0.5294650826267696 0.5567125334352347 1.710950672814981
0.30665509220360415 -0.32243624532238463 0.9881477204306643
-1.25781556676645 0.6953033446770007 1.8186702033548807
0.3479587798863549 -0.192346882847595 0.4975454515405924
-2.673219409080122 1.0736259490238345 2.041378181211756
0.3638189382696592 -0.14611799224030486 0.27214457181141466
0.3729570537714821 -0.12741734118116183 0.12391581474435336
0.3773681522143776 -0.12261434538546587 -6.603229322855099e-16
0.38352120242375504 -0.13102648523542604 -0.12762401867685413
-0.454298340910186 0.15520684249414227 -0.15234537822685007
0.39173725200311016 -0.1573306244602454 -0.2938926261462376
0.08077747210701738 -0.04465268837063973 -0.08737383539249452
0.190066517976952 -0.051215267747535556 -0.2532223192393591
0.190066517976952 -0.051215267747535556 -0.2532223192393591
-0.15601211841721466 0.042038979309164615 -0.20306326558811225
0.4123202012451612 -0.08072154820328277 -0.2980071229122849
0.40378502504991676 -0.06724444247865256 -0.12947812064310382
0.39669675634082874 -0.06283059373159831 -6.688985547827244e-16
0.3918914257904418 -0.06526373888230429 0.1254608997162281
-2.848072079751939 0.5575782777022557 2.0942788539180786
0.3825278739311555 -0.07488898705759285 0.2756712833251695
-1.3178633161105058 0.3551110595788386 1.8348505432423796
0.36422938806711114 -0.09814514323685397 0.5015905365124671
-0.5516871600411544 0.28276329026528463 1.7166570119127518
0.31998614063124925 -0.16400659743001908 0.99290300301214
0.3918479196704242 -0.016188046063293184 0.12391581474435336
0.41056685570440704 -0.025930267359901164 -0.29330484089394515
-1.3331388111646094 0.11588772555576556 1.8356595602367545
0.36364897228528775 -0.03161145107013681 0.4951184005574676
-3.4732255960018987 0.28741591893731167 1.1316202334010523
0.39094138494650765 -0.03235113133289258 0.12391581474435336
0.3955651906017764 -0.031131655660762765 -6.603229322855099e-16
-0.12425669039644256 0.016346227160194342 -0.0711220155273895
0.14462638890257987 -0.019025903545454456 -0.08934335834845625
-1.3279654838257653 0.24044928744473487 1.8364685772311298
0.36381089092334784 -0.0658737524074294 0.4975454515405924
-2.891482437195826 0.35984139018317246 0.9455920027873348
0.3912693133504122 -0.0486929790203279 0.12453384873310325
-0.1500648051576659 0.04043641803636221 -0.1941640786499878
0.190066517976952 -0.051215267747535556 -0.2532223192393591
0.4123202012451612 -0.08072154820328277 -0.2980071229122849
0.40378502504991676 -0.06724444247865256 -0.12947812064310382
0.39669675634082874 -0.06283059373159831 -6.688985547827244e-16
0.3918914257904418 -0.06526373888230429 0.1254608997162281
-2.8496696136173663 0.5578910331930975 2.0954544244226634
0.38174508217754527 -0.07473573683584442 0.275083498072877
-1.3178633161105058 0.3551110595788386 1.8348505432423796
0.36365568692208877 -0.09799055389591096 0.5007815195180922
0.3967751105117372 -0.08379446090523371 -6.757590527804959e-16
-3.510164443953136 0.9454721447018792 -6.232762430975436e-15
0.39626344993708673 -0.10673461595920015 -6.843346752777103e-16
0.4038121431919645 -0.1379586981982993 -0.13473140954747795
-3.358470765529081 1.0912333009427941 -6.054389483033376e-15
0.39677640170815964 -0.12892046791539785 -6.963405467738105e-16
-3.2429211848962365 1.107914144165041 1.1075169078398066
0.39145472522888025 -0.13373690020628348 0.13040517162622722
-2.6501456726161714 1.0643590096456113 2.023744623642982
0.38116399267477136 -0.1530841621077331 0.2856636326141415
-2.2437740411119993 0.9020872621063873 0.7799588938023637
0.3905201758202661 -0.15700479181424862 0.13256829058685182
-2.2244776574369136 1.0450402533955796 0.7910835055998618
0.39105157603754565 -0.18371262878130432 0.13596747752497623
0.4023496804199058 -0.21555753865027552 -0.1436929023843515
-2.198807263285104 1.1780038725156647 0.801281066414235
0.38990970914989315 -0.20889286431762624 0.1390576474687257
-1.7486845261840889 1.101335664668312 1.4247914515569526
0.37904434623184613 -0.23872519642348877 0.30388497543520815
-1.6937248425513864 1.521059677866841 1.5200126624283332
0.37316169293192675 -0.3351200798284668 0.33033531178836945
-2.1318064671339068 1.6285552260166223 0.8556680574242254
0.38418379779058043 -0.29349030565796613 0.15141832724372353
0.3962719241833478 -0.30272481250143124 -0.1563625991537244
-2.1133954906403374 1.7518061623191208 0.8739000600923472
0.3839294160238154 -0.31824138920742906 0.15605358215934773
-2.0904463409947915 1.8772910055823915 0.8927500967492189
0.3802798688092598 -0.34150409093014383 0.1597617860918471
-1.9517333840089783 1.8970100635637481 0.8630844652892241
0.3768527598356681 -0.36628644247586456 0.16408802401309633
-0.39336564400707985 0.41360911498660075 -0.17830280575434584
0.3880596126035256 -0.4080300234051387 -0.17583066979934625
0.38086480541000606 -0.38086480541000145 -9.09015984704728e-16
-1.8000916039881465 1.892728321761996 0.8266204599529805
0.37546622398645546 -0.3947885509991369 0.1699593469062203
0.36512443636296454 -0.4513186235909144 0.37089249419655
-1.7015811344798126 1.9354897097357262 0.8139507631836077
0.3725252838114198 -0.4237346305874508 0.1758306697993443
-1.6773824979935603 2.065032452152417 0.8386721227336035
0.3679937557151768 -0.45303861739959667 0.18170199269246826
-1.6478246965303864 2.1978248683640667 0.8643205332667239
0.3630029094883071 -0.48416365129237726 0.1881913495743421
-0.3297442190547101 0.4772103168534904 -0.17984789072622057
0.3717273866693199 -0.5379689278075033 -0.20333318229871675
0.3590094880361831 -0.5195634119994368 0.1962257914280907
-1.681136793587162 2.860120744830534 2.0772330816015967
0.3487100951435471 -0.5932610486287423 0.42731987841662733
-0.3094538688063012 1.3783277877851863 1.6177471342180558
0.28805744857805793 -1.283026731529272 1.505522465295228
-0.23901436110854252 1.518013910616996 1.6177471342180558
0.23775376077568833 -1.5100076601468182 1.6091876255713995
-1.259550127327038 3.055567842567103 2.0149278448585948
0.32257354259553844 -0.7825376078596894 0.5131365252513282
-0.24872386501347138 0.5132692559080143 -0.1755216528049713
-0.23246951756079057 0.5194463875846352 -0.1749036188162214
-0.21758199433093892 0.5286776483034701 -0.1755216528049713
-0.20168122813719008 0.5356029076300466 -0.1755216528049713
-0.18367578634816908 0.5364340754914332 -0.1736675508387216
-0.16278486647242008 1.621271039338191 1.6186981907343512
0.1654544539840155 -1.6478590448040327 1.6453277731906153
-0.8550868742414485 3.2529437749831103 2.0096377775879626
0.2755471828925183 -1.0482437753467857 0.6453882070171344
-0.1692984792410361 0.5478613873113262 -0.1755216528049713
0.2764713925681089 -0.9802936137155288 -1.7391362424350832e-15
-0.12767679125100698 0.5591803432622224 -0.17521263581059635
0.25520789143470135 -1.0630173715181956 -1.8677705798932993e-15
-0.6618294067342938 3.407490689165642 2.0590117387805305
0.242044705398768 -1.246189836256777 0.7511895524297795
0.22980050008306804 -1.1552851293778394 -2.0135561623459444e-15
-0.043252529133680856 0.3375525152500525 -0.19279356275193188
0.20469860708157775 -1.2924161405131327 -2.238237471772962e-15
-0.05872788667353252 0.4583257039305497 0.2668545045407824
0.19275166304776845 -1.504277552864246 0.8934335834845577
-0.08240700015469152 1.6837175026535833 1.6186981907343512
0.08390323262292071 -1.7142881191068378 1.6481809427395007
0.17080234362781102 -1.4431017148528538 -2.4869305241921803e-15
-0.04320545182676317 0.5772289103998968 -0.17644870378809616
0.029463181813508998 -0.39363088721572953 -0.11835350884560564
-0.2097779668524363 2.6654817959654604 -4.5828126625113824e-15
0.1274050338160365 -1.6188344440857239 -2.7802168135969133e-15
-0.10394982084936161 2.6456996115858247 -4.538219425525868e-15
0.07214028268861308 -1.8360928025602645 -3.14725345647769e-15
1.9369522946906384e-15 -0.39581814005929544 -0.11866252583998059
1.109413642758944e-14 -2.1561382144936814 -3.694378171799969e-15
-9.045565717709455e-16 1.7067020829658583 1.6206003037669414
2.7612957345434973e-15 -1.7366554062334876 1.649131999255796
0.08255179314192407 1.686675873743544 1.6215513602832365
-0.08395149957364256 -1.7152742963683296 1.649131999255796
0.01944881995946576 0.1517829876646694 -0.07053423027509703
-0.08103044637891804 -0.40343262478850267 -0.12391581474435473
-0.10391717162291973 -0.4056576932041883 -0.12638795069935432
0.1633569094440185 1.6269683545936597 1.624404529832122
-0.16545445398400982 -1.6478590448040387 1.6453277731906153
0.35968516215498025 1.1069971021305998 -1.989544419353744e-15
-1.2157258369134487 -3.741619393987194 -6.7455846563088585e-15
-0.12547253404694064 -0.40603764948506416 -0.12855106965997898
0.5881726828628332 1.1543538864377494 -2.2159408532802045e-15
-1.8128540443628853 -3.5579263924141444 -6.846777001775989e-15
0.23929449740364533 1.5197930957289933 1.619649247250646
-0.24265621319868141 -1.541143826776036 1.64247460364173
0.4103495233185529 0.8277076583010929 0.5678005537145282
-1.2814546548317365 -2.5847960611530345 1.7809893144461908
0.4642655219189292 0.639006670667329 -1.3446576075632202e-15
-2.462291283864628 -3.389053206045058 -7.182941403666794e-15
0.42767430656984723 0.6189360709139009 0.234543898730584
-2.48540998881471 -3.5969191262040763 1.373580539996635
0.38787368282560125 0.6598901236681619 0.47610605435690256
-1.4372960189093043 -2.445274040652757 1.7756992471755586
0.2527125471447269 1.1255982269511735 1.3200664446176729
-0.31380629414726985 -1.3977137751533995 1.6405724906091395
0.38864607672749285 0.6093755774165319 0.4525946442652036
-1.502340496408706 -2.3555869010282446 1.7621801863728317
0.3826879211610195 0.5538449619270015 0.42438095215516497
-1.5702234754444957 -2.2725053833317346 1.7557145485976147
0.3782202957104666 0.5057451371330954 0.4008695420634661
-1.6384474963688898 -2.1908841570226074 1.7527756223361521
0.4226795476480968 0.4226795476480975 -1.0119234546713008e-15
-2.4729771531496096 -2.472977153149631 -5.996075250052318e-15
0.3685181194360351 0.4555134465633263 0.37441920571030485
-1.707914395314148 -2.111098292358752 1.7539511928407372
0.4039547505411863 0.2934903056579688 -8.404110047270126e-16
0.35575472054236096 0.31948764464754464 0.31446510997647265
-1.9540638097518594 -1.7548586372005612 1.7539511928407372
0.3943043645516479 0.2009081085857938 -7.409337837593254e-16
-4.050527908811512 -2.063847053426934 -7.795240849967902e-15
0.3493216389892168 0.2200055948906567 0.2791979948389243
-2.155700024498991 -1.357677319011857 1.7568901191021995
0.39214227950292546 0.18078006700477114 -7.220674142654537e-16
-3.994965071250763 -1.8417041237632026 -7.5431175485498e-15
0.3917347269872965 0.16226183677066008 -7.083464182699107e-16
-3.9302605205099708 -1.6279672112547876 -7.29442449613058e-15
0.39140910766397385 0.1443984433354174 -6.963405467738105e-16
0.41618793980385677 0.14218677508635205 -0.13905764746872726
-2.4256374885041487 -0.8286966993361475 -0.8281655449248644
0.3912253952136486 0.1271168365714176 -6.860497997771532e-16
-3.8946956918706435 -1.2654633411222351 -7.021719700719163e-15
0.34726121990743075 0.1394680345039795 0.2592132962609803
-2.2956017333270546 -0.9219660687605783 1.7527756223361521
0.3468597348427398 0.12091780916269045 0.25568658474722544
-2.3231152630755094 -0.8098547621010548 1.7527756223361521
0.39030140936740104 0.11007638187104644 -6.757590527804959e-16
-3.8769083953325745 -1.093401250319298 -6.90680635925649e-15
0.3905442410636539 0.09376137676044782 -6.688985547827244e-16
0.3473608367647216 0.10308060179617852 0.25333544373805555
-2.348619230932733 -0.6969613672326794 1.7539511928407372
0.3910677610570238 0.07778821415771511 -6.637531812843957e-16
0.3480439731604532 0.0855732959071592 0.25157208798117814
-2.3697383804895455 -0.5826456979408772 1.7545389780930296
0.41478013110769835 0.06907551527972797 -0.1331863245756032
-2.5162494837709986 -0.41904425170911813 -0.8272384939417396
0.39190323358070495 0.06207137431205605 -6.603229322855099e-16
0.3718107535587785 0.061919598993395136 0.11866252583997927
-4.120964613360785 -0.6862858964753924 1.3553485373285132
0.34815495306664496 0.06815966508871568 0.2498087322243007
-2.3896118852303516 -0.46782372146272766 1.7568901191021995
0.3915372197537202 0.05102553818948937 -6.568926832866241e-16
0.37256172217529093 0.04948758563640369 0.11835350884560432
-4.097926391326207 -0.5443298952945679 1.3417517895760158
0.39263069053324123 0.04178685022097452 -6.568926832866241e-16
0.37341397672910515 0.04178685022097452 0.11835350884560432
-3.708316637657411 -0.41497876771270215 1.2113466179497883
0.3729378949812074 0.03706720870224277 0.11804449185122938
-3.693777759241304 -0.3671335976956812 1.2051662780622894
0.30595301253100354 0.02976331085965328 -0.2157171875913384
-0.2997153002534067 -0.02915650209501659 -0.21101490557299865
0.39266395885026784 0.030903323770027857 -6.551775587871813e-16
-3.337058037670408 -0.26263216333748446 -5.7388065751358865e-15
0.31158410840963124 0.041719660463789686 0.4231158880580973
-1.2142684713970306 -0.1625848911138027 1.6746651783561401
0.3738611964584381 0.024731813905089047 0.11804449185122938
-3.6716092662929896 -0.24288575002262686 1.1949687172479162
0.39336500408203207 0.020099093600032782 -6.551775587871813e-16
0.3731912483232238 0.020049607617731013 0.11773547485685443
-3.6541358048332886 -0.19631754334538956 1.1884793603660424
0.37349369349187295 0.01234155066085137 0.11773547485685443
-3.6418925840542067 -0.12034099266114426 1.1835350884560432
0.39372934776218826 0.01082592770905905 -6.551775587871813e-16
0.096 0.2977182539299801 -0.2163049728436309
0.096 0.40705218897432544 -0.13225927359247835
0.096 0.382 -6.551775587871813e-16
0.096 0.3623525327084537 0.11773547485685443
