0.096 0.0 2.037
-0.096 -3.2930390389303353e-16 2.008
0.096 0.0 2.037
-0.096 -3.2930390389303353e-16 2.008
-0.486364537676046 -3.674859869124844e-15 0.9507039613089882
-0.5283642856234398 -2.240275636245548e-15 0.3797092729809371
0.096 0.41987982008059804 0.3050605459397931
-0.5475500439530722 -1.9016454005907792e-15 0.08541321791196525
0.096 0.44841050663019266 0.07102124712826414
-0.5647482184215096 -2.036921021696359e-15 -0.18108395870372038
0.096 0.4907451624082989 -0.1594527690974739
-0.5802762273262608 -2.8149807084624645e-15 -0.5762920266670377
0.096 0.6003336572273773 -0.6003336572273804
0.10462272611887355 0.023434384116298654 -0.08131727983645318
0.10408754409143743 0.02331450900246509 -0.08061017305526663
-0.5466743810576629 -0.09104055794799004 -0.177375754771221
0.7438137098049333 0.1238712065105189 -0.24288735757871027
0.7327775819754836 0.11750727677277337 0.11654367645497091
-0.5302433571906102 -0.0850291472650533 0.08369243879652273
-0.5107966136704091 -0.10000066295067606 0.3714802794488425
0.6676384919194063 0.1307062145999429 0.48786175940275195
0.553657737601996 0.19315551966781047 1.0968290312758804
-0.4683197159468747 -0.16338349843388156 0.9266467851559022
0.09481808069713321 0.015017708643862182 2.033
-0.09481808069713317 -0.015017708643862532 2.008
0.09130142556433472 0.029665631459994988 2.028
-0.09130142556433464 -0.029665631459995307 2.0069999999999997
-0.45525006709119975 -0.3258211649674296 0.9355568503977858
0.3376081843090914 0.24162520747545405 0.6914210627701732
0.3540306074205214 0.14218677508635205 0.2645033635316125
-0.4948949579339275 -0.1987611144353362 0.3738314204580124
0.3854954142128793 0.12681637287502462 0.062417351551051534
-0.5124267239140966 -0.168572948198892 0.0840053077266032
0.41707258532914393 0.14248900607938475 -0.1393666644631022
-0.5281833979227176 -0.18044899148249555 -0.1779937887599709
-0.541858555579802 -0.24898717133607218 -0.5656854249492395
0.09617434113233661 0.04419267151374526 -0.07495331880577423
-0.5220359245385144 -0.3761674985726893 -0.5819488809165302
0.45826545315518113 0.33021591253140836 -0.5098239892355021
-0.5226617233798674 -0.37661843532569056 -0.5826559876977168
0.45826545315518113 0.33021591253140836 -0.5098239892355021
0.4006900347896925 0.21466838887710923 -0.1430748683956016
-0.5090490024595025 -0.2727213549866227 -0.183247077664345
0.36800376104920807 0.18984458361759604 0.06366882727137337
-0.49480609496369427 -0.2552589593161011 0.0866646936322871
0.33097206765349263 0.2084488863815994 0.26391557827932005
-0.47719406282603577 -0.30054068214644175 0.38499934025156934
0.2729877973275836 0.3063813674947584 0.5951923581578296
-0.43698002819059206 -0.4904341509605083 0.9587230200266834
0.08553662632208328 0.043583087974996534 2.024
-0.08553662632208316 -0.043583087974996826 2.008
0.07766563145999492 0.056427384220077474 2.026
-0.07766563145999471 -0.05642738422007775 2.008
0.26096234567676585 0.417630418369943 0.6272685930286108
-0.425312147452701 -0.6806472007210578 1.028221528913376
0.3171774109091041 0.2848430620745337 0.2791979948389243
-0.46114756979773114 -0.41413632034174 0.41027410610014564
0.35049361075612456 0.2578227397673258 0.06695395103721818
-0.4776434245707412 -0.3513540121002777 0.09229633437373534
0.3819188573238239 0.29176004510635867 -0.15049127626060038
-0.4872882844414755 -0.37225512467403776 -0.19344463847871834
0.43424886804219176 0.4461847612908226 -0.5324514062334716
-0.49275444620278913 -0.5062984411340434 -0.6052834046956862
0.41280019379840277 0.5837876326199457 -0.5798275605729705
-0.46946032846237074 -0.6639171635076201 -0.6604377336282371
-0.46946032846237074 -0.6639171635076201 -0.6604377336282371
0.41280019379840277 0.5837876326199457 -0.5798275605729705
0.3655331003599835 0.38434424673721895 -0.16532409199059797
-0.4691596594207816 -0.4933036590174475 -0.2135307431130901
0.334341621412506 0.3385092317795782 0.0733677641038676
-0.45957606538977086 -0.4653047388540137 0.10183883674118935
0.2991241190818801 0.3697377448949461 0.30212161967833073
-0.4438975322597154 -0.5486875249174183 0.4525946442652036
0.24368444913338733 0.5367611200524871 0.6709279127138408
-0.4107788730504278 -0.9048182137866184 1.1369243248643568
0.0678822509939085 0.06788225099390863 2.0309999999999997
-0.06788225099390827 -0.06788225099390886 2.009
0.056427384220077335 0.07766563145999501 2.037
-0.05642738422007709 -0.0776656314599952 2.01
-0.4024238322636945 -1.2200451053760866 1.340964818903493
0.2306502588784669 0.6992720033887176 0.7653746042778077
0.2842513668309437 0.4835973099398297 0.3467932988525586
-0.42898473974128387 -0.7298324312632312 0.5272433713063476
-0.44126737993796866 -0.6149231684504299 0.11795158664033296
0.31841174467940936 0.4437190869119193 0.08447461112172389
0.34961586062419914 0.5059688266977609 -0.19097250252371875
-0.450422024328293 -0.6518568773205248 -0.24721359549995958
0.35800706103005664 0.6968600207396326 -0.6052834046956862
-0.3894138292542671 -0.7579932316129581 -0.6590235200658641
0.27683464394558477 0.7683685052258725 -0.6059905114768728
-0.29981544289408907 -0.8321528708142762 -0.6569021997223043
0.27651562184218986 0.7674830433009274 -0.6052834046956862
-0.29981544289408907 -0.8321528708142762 -0.6569021997223043
0.6662174543285275 1.3748135388520801 -0.4758861713374221
-0.4298876674534279 -0.8871208365385688 -0.3062358414255749
-0.4223512531648469 -0.8392434864373705 0.14657909374269495
1.5518168128627041 3.7645834398039235 2.4828049056834027
-0.40957530685514676 -0.9935969276522636 0.6530294152969367
0.41371870057428234 1.7885146683396511 1.786468080997677
-0.3836641569118042 -1.6585882422052376 1.6563811284661754
0.04358308797499638 0.08553662632208338 2.042
-0.04358308797499605 -0.08553662632208354 2.01
0.029665631459994818 0.09130142556433479 2.0429999999999997
-0.02966563145999448 -0.0913014255643349 2.01
0.3142594883077574 2.130421791030392 1.9940726011335665
-0.31075547744100623 -2.1066674689358584 1.9717974380288574
0.46836530881353533 1.7817675158148265 1.0997462070392157
-0.378012648597895 -1.4380455707640967 0.8869679457093406
0.5029287728514137 1.567149819389268 0.25733469499117734
-0.3938997377350409 -1.2274101943881692 0.20133115650677522
-0.40479289953431713 -1.3099373397023173 -0.4245893502711805
0.45875311604471314 1.48455626841055 -0.4814484772361712
0.18908406221845306 0.8229887209615548 -0.6081118318204324
-0.20407490263227207 -0.8882363808307207 -0.6569021997223043
0.09572050941925586 0.8546877606196525 -0.6081118318204324
-0.1030893035848323 -0.9204836723010292 -0.6554879861599313
0.0956105771416515 0.8537061760800847 -0.6074047250392459
-0.10319933165565481 -0.9214661121775735 -0.6561950929411178
-0.2800670996268038 -1.8592733914150144 -0.5809519494249049
0.23045383520224813 1.5299072412005057 -0.4777402733036718
0.24025549654506306 1.5358220228725037 0.242786289742436
-0.3493497256882916 -2.2332017794062162 0.3533854565258782
0.22117790359651462 1.72612236028994 1.025685265250364
-0.34053164747356945 -2.6575859592322137 1.580554543414458
0.15972697913789383 2.2213602642454306 2.0020916598512617
-0.15915934072102758 -2.213465984703658 1.9949636076577548
0.015017708643862022 0.09481808069713325 2.0429999999999997
-0.015017708643861677 -0.09481808069713331 2.01
-1.6465195194651677e-16 0.096 2.042
4.939558558395502e-16 -0.096 2.01
-1.843024299546499e-15 2.366947612432518 2.107230429705489
5.22566369810012e-15 -2.237060794882428 1.9913995815610015
-1.926388343335229e-15 1.3883230891979 0.814082574425074
1.5153315886920497e-14 -3.6402660617048306 2.138950533092306
-2.088278249550014e-15 1.232743687876762 0.19225795753444191
-2.245078413535053e-15 1.376352062518889 -0.4242803332768056
9.231392389807777e-15 -1.8864442742895957 -0.5821880174024048
-3.808522679962137e-16 0.314033437710063 -0.21142492757477824
3.387148998469267e-15 -0.9309629423344412 -0.6547808793787447
0.10319933165566207 -0.9214661121775718 -0.6561950929411178
0.10330936098188447 -0.9224485632635726 -0.6569021997223043
-0.2075909224593248 1.378127880576528 -0.4301516561699296
0.27813551958560384 -1.8464502666038016 -0.5769347284980306
-0.19231790012433986 1.2293831802018707 0.19413517111492468
1.0941752112257244 -6.99446385388468 1.1077124469498645
-0.17570358889239485 1.3712305281797887 0.814082574425074
0.46424770940265997 -3.6230940744204907 2.1554085201564956
-0.16817101498797712 2.338793435576101 2.108121436229678
0.15923029532042912 -2.214452766827136 1.995854614181943
-0.015017708643862348 0.0948180806971332 2.041
0.015017708643862733 -0.09481808069713313 2.01
-0.029665631459995147 0.09130142556433468 2.04
0.029665631459995505 -0.09130142556433457 2.01
-0.33150022547574676 2.2472998600232788 2.103666403608736
0.31369884167481205 -2.126621066316101 1.9905085750368132
-0.36079911308095247 1.372561390276596 0.84641076330116
0.853587466227116 -3.2472396879326033 2.0061110660742076
-0.39359537147823237 1.226461774750739 0.20117472204173498
0.9548490927732538 -2.975354889320818 0.4891705721807973
-0.42561101514471333 1.377306176980976 -0.4465295568718019
0.5523574889739336 -1.7874663822007042 -0.5800248984417801
-0.031411239275304564 0.1367174754535027 -0.07566042558696078
0.20320552008236722 -0.8844523917182365 -0.6540737725975582
-0.2787488728902149 0.7736815441283764 -0.6102331521639921
0.29853819463434317 -0.8286078039029884 -0.6540737725975582
-0.2790679269548686 0.7745670947634061 -0.6109402589451787
0.29853819463434317 -0.8286078039029884 -0.6540737725975582
-0.674405396005535 1.3917102637873626 -0.4817574942305462
0.6903514048733984 -1.4246166200224757 -0.4931911230224193
-0.6171578109361415 1.2263386672844452 0.21478452050023497
0.7308174888189136 -1.452188936743567 0.25451887462045325
-0.5597536695397202 1.3579176209796142 0.8940213687368502
0.6367490984974704 -1.5447023718550807 1.0174562717182694
-0.4894928632646113 2.1160879718057055 2.114358481898996
0.4546913655563384 -1.9656403632130972 1.9637783793111618
-0.04358308797499667 0.08553662632208323 2.0389999999999997
0.043583087974997006 -0.08553662632208306 2.01
-0.05642738422007763 0.0776656314599948 2.0389999999999997
0.05642738422007789 -0.07766563145999461 2.0109999999999997
-0.5639002618025388 1.7095999271774225 1.8809147725616437
0.5641668353488541 -1.710408109308611 1.8818057790858325
-0.8923084715190793 1.5180858451941468 1.101509562796093
-0.926491789454364 1.2911021585023275 0.24920010280908542
-0.836335944761436 1.2103567496640464 -0.4613623726017995
-0.36172463931962334 0.7040962793668033 -0.6116473657263651
0.38693327690675394 -0.7531648414818638 -0.6547808793787447
-0.434658486630596 0.6146999267935518 -0.6109402589451787
0.4654814711672222 -0.6582902095580602 -0.6547808793787447
-0.434658486630596 0.6146999267935518 -0.6109402589451787
0.4654814711672222 -0.6582902095580602 -0.6547808793787447
-0.9886654483478674 1.0395443713473678 -0.4533279307480508
0.5779309947757025 -0.6076726092230877 -0.26390051319620683
-1.3119148614665306 1.3282680452378541 0.29347105641547033
0.5592623336962799 -0.5662336090342891 0.12436539970698238
-1.1825826496971266 1.461752544037461 1.2137765459839551
0.532567966763123 -0.6582902095580602 0.5442891436228293
-0.5020585880560934 1.1058790621039867 1.3908611842580416
0.4853981203711776 -1.0691812287914457 1.3445288450002466
-0.06788225099390874 0.06788225099390839 2.038
0.06788225099390897 -0.06788225099390816 2.0109999999999997
-0.07766563145999512 0.05642738422007719 2.038
0.07766563145999529 -0.056427384220076954 2.0109999999999997
-0.5546665073560658 0.4981215589491164 0.4949151824302616
-0.5954645019900812 0.43802307553072856 0.11560506966472953
0.5376719156926967 -0.3955109084607283 0.10418535371679279
-0.632941632450616 0.4835243814025811 -0.25246688440433374
0.5573603312168504 -0.4257854050878706 -0.22187420196121369
-0.4978712537484852 0.5115558907703249 -0.6116473657263651
0.5331369817831513 -0.5477909430707126 -0.6554879861599313
0.5884209379366268 -0.4240030655497166 -0.6569021997223043
-0.19785260816155956 0.1425681973209185 -0.21142492757477824
0.5884209379366268 -0.4240030655497166 -0.6569021997223043
-0.1984525772013617 0.14300052169231675 -0.2121320343559648
-0.6407334287538801 0.3432708600364686 -0.2317627457812121
0.5333221617740131 -0.28572562150334624 -0.19220857050121856
-0.5982599639808234 0.3086284048652139 0.10528039497207439
0.5147613249006374 -0.2655533984478338 0.09026268632821237
-0.5514760772398009 0.34732409590249386 0.44612900648998643
0.4943177018651932 -0.3113252885750636 0.3991061863065887
-0.47083398988538117 0.52842934041843 1.0335675680585064
0.08553662632208361 -0.0435830879749959 2.0109999999999997
-0.08553662632208345 0.043583087974996236 2.038
-0.09130142556433483 0.02966563145999468 2.037
0.09130142556433495 -0.02966563145999433 2.0109999999999997
-0.45482009155637365 0.32551343271257643 0.9346658438735975
-0.5360141750187555 0.2152755308412063 0.40557182408180587
0.48804882829579205 -0.19601155246337973 0.3685413531873801
-0.5800544553552847 0.19082043361878362 0.09542502367453994
0.5068795688924571 -0.16674810138182022 0.08306670093636181
-0.6211649130963208 0.21221526945635077 -0.21013155617496565
0.5228309490723203 -0.178620376647539 -0.17613968679372122
0.49781790356555783 -0.22875023448989829 -0.5190163773909272
-0.5832776191892874 0.2680194729972986 -0.6095260453828055
0.5877002917871467 -0.1316386495927454 -0.5911412690719552
-0.6050496063486467 0.13552471256081441 -0.608818938601619
0.5877002917871467 -0.1316386495927454 -0.5911412690719552
-0.6050496063486467 0.13552471256081441 -0.608818938601619
-0.6041924745330146 0.10061934836426478 -0.19653480842246784
0.5059552341584559 -0.08425938439875406 -0.16377900701872322
-0.5629203800540575 0.09026919289987019 0.08901121060789054
0.48996871844266604 -0.07857075765449259 0.07712219126483309
-0.5123766594037656 0.10030999472108511 0.37265584995342743
0.4721234870754871 -0.09242947278541333 0.3426788020865113
-0.4294889327192336 0.14983653682916728 0.8491292175515144
-0.6107032102595429 0.06797189093568866 -0.608818938601619
0.5434987223700967 -0.06049196280616352 -0.5409366876077103
-0.5948423006423237 0.04922431374993381 -0.19159053651246866
0.49669520725861727 -0.04110245806961705 -0.15914375210309897
-0.5545921645552088 0.04419141964939332 0.08682112809732732
0.4819888385607617 -0.03840618817296894 0.07508854321931012
-0.42089527201670507 0.0729644702281856 0.82418103487424
-0.42904279184295374 0.14968089090037356 0.848238211027326
-0.5609966071655789 0.08996069913748599 0.08869834167781007
0.4890112110173353 -0.07841721298717758 0.07696575679979287
-0.602334888032833 0.10030999472108511 -0.19591677443371797
0.5031825635797909 -0.0837976369943865 -0.16285195603559838
-0.6043555113312994 0.13536924261797192 -0.6081118318204324
0.586312630578253 -0.13132782815844676 -0.5897270555095822
-0.44880079597915923 0.32120544016293806 0.9221917525349603
-0.4700277339510371 0.5275244582290672 1.0317855550101296
-0.4752538617671216 0.6415022808286021 1.0905919856065618
-1.4739683883243628 1.4362899568512928 1.3624862148139507
-0.5479814645588834 0.951548004279601 1.3668040081049557
-1.5892086649164099 1.2994737191258692 0.32319360477311393
0.5444309044776025 -0.4451735432022558 0.10981699445824104
-1.071125746565761 0.96190688583699 -0.4567271176861753
0.5683437782714043 -0.5103917962897259 -0.24103325561246058
-1.364520491167165 1.4405267188798614 1.3025321190801185
-1.3595791788770508 1.2426965771229337 0.2897166292545048
0.5536061685063597 -0.5060128173227963 0.11716941431513182
-1.2666736672227425 1.4473133471308297 1.2519825873829658
-0.5157256686351557 1.050092247886038 1.3757140733468394
-0.9933629381916205 1.044483604466817 -0.4554910497086755
0.5765944356531992 -0.6062672677953145 -0.2632824792074569
-1.3140073312774032 1.3303865979481269 0.293940359810591
0.5585689757678195 -0.5655316083120343 0.12420896524194215
-1.1842969850476655 1.4638715790669579 1.2155399017408326
0.5319989582772318 -0.6575868763897245 0.5437013583705369
-0.5001361155826413 1.1016444526252531 1.3855151451129115
0.4847573778915894 -1.0677698722102933 1.3427468319518698
-1.0871219603455795 1.4884700483641633 1.177333860341822
0.6607341977023096 -0.9046667246949665 0.7141590815353537
-0.535888525771821 1.38206603055479 1.617176841401887
0.6239409726003604 -1.6091548555929434 1.883587792134209
-0.9842769839112765 1.5064446583623101 1.1367766779336412
0.6215452974283332 -0.9512805933146966 0.7165102225445236
-0.9270712874237651 1.2919097113459226 0.24935653727412563
-0.8324760178978757 1.4162927951170219 1.0274486210072415
-0.5527044128452985 1.675657005248633 1.8434924985457324
0.5649665575477861 -1.712832660431687 1.8844787986583973
-0.7765063066942544 1.25365328497279 -0.4613623726017995
0.9127708954600935 -1.473649629959354 -0.5426338421224113
-0.8844256642547635 1.3749287415168479 0.25623965373589574
0.8849637589227751 -1.3757652638551274 0.256396088200936
-0.6948746040610737 1.2222527029168688 0.22010329231160272
0.7715790067711524 -1.35717224522003 0.24450706885787854
-0.709342778379957 1.2957592563676146 -0.46105335560742455
0.7325443601179756 -1.3381416774138422 -0.4761951883317971
-0.6769911407744575 1.3970462346377714 -0.4836115961967959
-0.6176051207844355 1.2272275053636195 0.21494095496527518
-0.5597536695397202 1.3579176209796142 0.8940213687368502
0.6356489339476337 -1.5420334606723658 1.015692915961392
-0.48908098570604 2.114307416433076 2.1125764688506194
0.4546913655563384 -1.9656403632130972 1.9637783793111618
-0.5251875745001947 1.365605543738293 0.8869679457093406
0.5990390112373326 -1.557635851228416 1.0121662044476372
-0.5600543272347567 1.2299950285415187 0.21134296226934993
0.6273043664741014 -1.3776900108158665 0.2368417800709073
-0.4920966898050588 1.3613866968324986 0.8746244554111987
0.5708313763591816 -1.579206399900433 1.0151051307090995
-0.0377064571051857 0.12873789723756393 -0.07141778489984149
0.25191675688601695 -0.8600976079492736 -0.6547808793787447
-0.5017486357270254 1.2264277216682355 0.20711923171326369
0.6005606995478678 -1.4679547447154002 0.2481050615538038
-0.455768700021882 1.3600739966508277 0.8634565356176417
0.5361183856519253 -1.5998480707792981 1.0162807012136845
-0.4213171903575659 1.3619958303499722 0.8552275420855471
0.498321840398617 -1.6109294477617195 1.0121662044476372
-0.4466454048209525 1.2257766912101868 0.2038341079474189
0.613142622817387 -1.682712790336012 0.28017412688705085
-0.3922651941414307 1.3635455732582336 0.8487619043103299
0.8761601784583257 -3.045603715661908 1.8991341501569778
-0.03124893770611893 0.1360110575816473 -0.07495331880577423
0.20342286198409051 -0.8853983727364779 -0.6547808793787447
-0.3938997377350497 1.2274101943881661 0.20133115650677522
0.9554592304585275 -2.9772561071768937 0.48948344111087777
-0.3580552506248188 1.362123117201702 0.8399451255259427
0.8530876640181992 -3.245338327342007 2.004935495569623
-0.33234127694869353 2.2530014997573486 2.109012442753866
0.3143996502539518 -2.131371974161016 1.9949636076577548
-0.3570883448054042 1.2264298564837892 0.19945394292629245
0.9560679303234377 -3.283641909999307 0.5353187393676649
-0.3261452082805752 1.2259416491297928 0.1980460327409304
-0.024224948341302746 0.1427000481980382 -0.07848885271170698
0.1536747974930657 -0.9052403621309262 -0.6547808793787447
-0.290901996796567 1.2267979387561256 0.19679455702060858
0.9294657975069953 -3.919762452931154 0.6304308941121245
-0.2558601768201506 1.2266251886314001 0.19554308130028675
0.818623955427149 -3.924584029541368 0.6273022048113198
-0.22652303517391714 1.2284673798866839 0.19491734344012582
0.10330936098188447 -0.9224485632635726 -0.6569021997223043
-0.2075909224593248 1.378127880576528 -0.4301516561699296
0.2779869379651731 -1.8454638820777785 -0.5766257115036556
-0.1921638522293308 1.228398436239155 0.19397873664988446
1.0932482455005985 -6.988538268848879 1.106773840159623
-0.1754510793429087 1.369259886571982 0.8129070039204891
0.46475376876697316 -3.6270434761019916 2.1577596611656653
-0.16810005364004635 2.3378065595990964 2.107230429705489
0.15930124997789358 -2.2154395497582686 1.9967456207061318
-0.1581075454570842 1.2283386803196672 0.1931965643246833
0.9020957934473324 -7.008388835849447 1.105522364439301
-0.12916794445134736 1.228794980654695 0.1927272609295626
0.7634284876969318 -7.262615331964978 1.1424408981887952
-0.09560642985882531 1.2299374427655472 0.19241439199948215
0.5638116324901588 -7.253205024916826 1.1380607331676689
-0.062080602506979304 1.230141991292243 0.1921015230694017
0.3666952738979513 -7.266154583141154 1.1380607331676689
-0.033438329521203417 1.2312813769914566 0.1921015230694017
0.12104974922757719 -4.4573489180692984 0.6973848451493427
-2.0865893897406213e-15 1.2317467272130256 0.1921015230694017
2.254406234971746e-14 -4.436038886213691 0.6937868524534174
-1.9125461480755172e-15 1.3783471986404585 0.8082047219021493
1.5224057197642987e-14 -3.657260176689648 2.148942882381278
-1.8484703794496182e-15 2.373941869549463 2.113467475374808
5.234998908628308e-15 -2.241057116630453 1.9949636076577548
0.03821376036398958 1.2311389345584383 0.1921015230694017
-0.13706554869718102 -4.415863081267236 0.6909710320826934
0.07012820073132843 1.6965017002078386 0.9968837878880329
-0.15098301053339636 -3.652495449779873 2.148942882381278
-0.26618352889837743 -4.283604314114522 0.6712602894876244
-0.0517592222362131 -0.9300763225816495 -0.6561950929411178
0.14212161672349782 1.522230847338963 0.23871899365139004
-0.2842872575552031 -3.0449332264343467 0.47822015962798126
0.14715095849194823 1.7090314630464178 1.0086394929338824
-0.306196224901115 -3.556205053538223 2.101332276945588
0.19063626428487032 1.5278518082892147 0.24043977276683257
-0.337042634888524 -2.7012237210833487 0.4256581793744642
0.09572050941925586 0.8546877606196525 -0.6081118318204324
-0.1030893035848323 -0.9204836723010292 -0.6554879861599313
0.2303053433777142 1.528921452799917 -0.4774312563092969
-0.27976993118747806 -1.8573005878520719 -0.580333915436155
0.24010128297618072 1.5348362198473027 0.24262985527739578
-0.3525915051126887 -2.253924702731096 0.356670580291723
0.22092516992315975 1.724149969568795 1.024509694745779
-0.34407304251268056 -2.6852238067035468 1.597012530478647
0.15965602413360905 2.2203734764909875 2.0012006533270736
-0.15908838617978907 -2.2124792033889062 1.9940726011335665
0.2805601500314878 1.743438187302607 1.0433188228191381
-0.3343147444099694 -2.0774764053884582 1.2437535938508713
0.32203380658385306 1.5438697168738271 0.2463842824383613
-0.3422032143349639 -1.6405643408468524 0.261871294477344
0.33873609440636937 1.7440145089192909 1.0527233868558177
-0.3381703241435997 -1.7411015877299907 1.0509600310989402
0.41328754107839166 1.5534994744996342 0.2512337508546084
-0.3548402047036186 -1.3338027807469357 0.21556669282543608
0.4002274970454583 1.7541036474737157 1.0697691591722993
-0.344758263090118 -1.510994949740793 0.9210594903423039
0.5020146934756197 1.5643015048644073 0.25686539159605665
-0.39359537147822354 -1.226461774750742 0.20117472204173498
0.4643706089967347 1.7665707746491817 1.090341643002536
-0.3772641647440102 -1.435198168977781 0.8852045899524632
0.3156611129204917 2.139923657255317 2.00298266637545
-0.311175954868338 -2.109517961306503 1.9744704576014223
0.4823643437043672 1.6767375117114482 1.0444943933237232
-0.39199473813561236 -1.3626054462854844 0.8481741190580374
0.5569621213511302 1.4747892940909328 0.2465407169034015
-0.4046111796422811 -1.071376693550318 0.17880459354098216
0.5118813764455997 1.6547634806000475 1.0397921113053834
-0.3933554495535038 -1.271603662035815 0.7982123726131772
0.5562123876600142 1.6598112266927114 1.0544867426126951
-0.40079377439929537 -1.19602155776353 0.7588307607095817
0.6562721688780407 1.4871431103650488 0.254362440155413
-0.4147899165108375 -0.9399331494470616 0.1603453266662351
1.3957011942591326 3.861210770123938 2.485156046692573
-0.40354489111115904 -1.1164079290008933 0.7165102225445236
1.466478717820525 3.813173738422496 2.4810415499265255
-0.4098242815164229 -1.0656350949087285 0.6912354566959473
0.667510261593567 1.377481389896142 -0.47681322232054696
-0.4320365119486689 -0.8915552152624384 -0.30778092639744964
-0.4232433951697621 -0.8410162392373012 0.1468919626727754
1.5514496216757723 3.7636926633603975 2.4822171204311108
-0.41067308530531366 -0.9962600503480723 0.6547927710538141
0.4149539339471258 1.7938546082628084 1.7918141201428073
-0.3844874916746298 -1.662147535749918 1.6599451545629287
1.5939337438381456 3.6173762241698264 2.420499668940401
-0.41147083991802746 -0.9338185097170615 0.622464582177728
0.2190957017299819 0.8617438605447774 0.8758594132771653
-0.38834213054929617 -1.5274213238750283 1.5574794042812665
0.7159714942062557 1.3078679577621388 -0.46537959352867386
-0.4379199094746713 -0.7999500291600005 -0.2836776008362036
0.27156968302923046 0.5831739748875939 0.39146497802678654
-0.4162949029818271 -0.8939597034151575 0.6036554541043689
0.22177694744125312 0.79716885277535 0.8286360674951819
-0.3918205772081426 -1.40838425107069 1.4692697583866179
0.2756514693199628 0.5560109594692111 0.3791214877286446
-0.4191838442221728 -0.8455271869036449 0.5801440440126701
0.3451348252191102 0.5572129983547142 -0.20333318229871675
-0.4465558709316791 -0.720955167641442 -0.2642095301905818
0.2778708411812227 0.5273805543385803 0.3656024269259177
-0.42420634687943587 -0.8051157056285634 0.5619227011916035
0.22603189975340274 0.7451271423328063 0.7938868130518355
-0.39773767618021855 -1.3111650982608616 1.4024442690724903
0.2824228727343638 0.5093618267562668 0.35854900389840805
-0.4271491865471311 -0.7703819731404801 0.5460524993797068
0.34906347918394365 0.5051694127675213 -0.1906634855293438
-0.4520871735627957 -0.6542667039312334 -0.24814064648308443
0.2833126965746792 0.48200034871529496 0.34561772834797366
-0.4285119146500279 -0.7290280131710591 0.5266555860540552
0.22932431714573473 0.6952520905720888 0.7609195716568659
-0.4000270922671078 -1.2127788088318536 1.332945760185798
0.24463980622572531 0.5388654748636253 0.6736009322864058
-0.4104587586947428 -0.9041131013319113 1.1360333183401685
0.259142874073483 0.4147186316716718 0.622813560407669
-0.4227500492425268 -0.6765469534434475 1.0219844832440574
0.2733881982729883 0.30683074798135973 0.596083364682018
-0.4365771215868831 -0.4899819583078496 0.9578320135024951
0.3247569565742427 0.23242762071048323 0.6646908670445222
-0.4522403101789572 -0.32366709059313803 0.9293198047284673
0.5545518295585561 0.19346744305435642 1.0986110443242572
-0.46742671742040826 -0.1630719565141582 0.9248647721075254
0.5614619306935337 0.13162213846161597 1.1048480899935758
-0.4732927633253456 -0.11095285757013336 0.9302108112526556
0.6359305118849129 0.07077971536804194 -0.6342747827243348
-0.5728871136339079 -0.06376292076447357 -0.5706351724175454
0.8034930529095895 0.06649055403357686 -0.26019230926370746
-0.5564587556554735 -0.04604800355944334 -0.17892083974309575
0.7406012602946526 0.05901313285376215 0.11670011092001113
-0.5390750755953507 -0.04295497558511427 0.08431817665668365
0.6754793175606827 0.06571107354528084 0.4890373299073369
-0.5179617713957677 -0.05038766275886015 0.3732436352057199
-0.47805461977820474 -0.053803621296439494 0.9355568503977858
0.096 0.6024549775709369 -0.60245497757094
-0.5809784849716884 -2.8183874337962895e-15 -0.5769991334482243
0.096 0.4907451624082989 -0.1594527690974739
-0.5666253931493586 -2.0436915727841343e-15 -0.18170199269247025
0.096 0.44841050663019266 0.07102124712826414
