0.096 0.0 1.725
-0.096 -3.2930390389303353e-16 1.704
0.096 0.0 1.725
-0.096 -3.2930390389303353e-16 1.704
0.096 0.4874109009927859 1.7026072987020233
-0.32253847083394876 -4.020041089150383e-15 1.122894028731769
0.096 1.1123342600477497 1.78356847189112
-0.3660300968738545 -2.372683668573681e-15 0.5812294972623299
0.096 2.151835799186038 1.9426280378243759
-0.3859345486000618 -1.7835216733860663e-15 0.3424225344354108
0.096 3.384665933041762 1.65813073118694
-0.39741144761279795 -1.5180159909509634e-15 0.1900537213777549
-0.4020813161633282 -1.401058318566209e-15 0.0697911231339382
0.096 3.541966791987431 0.6325150152038026
-0.406315053488039 -1.401058318566209e-15 -0.04046400895063558
-0.4135377313812698 -1.528063315669988e-15 -0.16172122392108318
-0.3288801337435311 -1.4277461154556037e-15 -0.24822735672945626
-0.19403941540633357 -1.126313261330965e-15 -0.25330459598938204
-0.10081517116120835 -9.99145037428213e-16 -0.2580026173786834
0.096 0.08376032781275267 -0.22704230329324138
-0.08855156828059718 -9.82968360878316e-16 -0.25678525939969177
0.096 0.0741640786499867 -0.22825356391083707
-0.07747889652557319 -0.039711251764608 -0.2234982813293613
-0.07185886596216043 -0.0328828817737949 -0.1754417798175047
-0.0843415504623619 -0.022604644873977155 -0.08712387377978745
-0.4057747057389992 -0.08133644495033489 -0.31319550441667193
0.1254935180013458 0.02515483709106677 -0.0790650099212342
-0.3994977806444816 -0.06815966508871726 -0.15800349463554103
-0.39272296589432115 -0.06252683806449295 -0.03954668884848011
3.5384829074218405 0.5693066939237369 0.6395468664011768
-0.3886308559301334 -0.06252683806449295 0.06820895661452903
3.3635863990824193 0.5932331742159135 1.6678093929237703
-0.38386497582583295 -0.06770197374492928 0.18565432967919576
2.1719377934747457 0.46344583520689003 1.9841744118654627
-0.37326024987389966 -0.07964588524222734 0.33505140355715346
1.1097051319904996 0.3321371897448993 1.7996901659757687
-0.3532438772999385 -0.10572667037282914 0.5676533338226258
0.48347398449139234 0.27823319787908296 1.707414208071594
-0.3096281320806075 -0.17818709611178743 1.091168426892601
0.09481808069713321 0.015017708643862182 1.725
-0.09481808069713317 -0.015017708643862532 1.704
0.09130142556433472 0.029665631459994988 1.724
-0.09130142556433464 -0.029665631459995307 1.703
0.4644972249587302 0.5483811089536258 1.7035686805759374
-0.3017960952213548 -0.35629766655778594 1.1046277731273995
1.0610064833740773 0.6514655790278863 1.786962512751046
-0.34213543541921826 -0.210073607498172 0.5710473746825518
2.044817043892363 0.8950959289647535 1.9399476265959186
-0.3608032585478408 -0.1579376154204207 0.33639160917138206
3.37203089574692 1.2200507912088059 1.736439903421293
-0.3704608671625907 -0.13403823632330883 0.18609426884905167
3.147067947675417 1.0387208093815292 0.5906755005794265
-0.37512604918792675 -0.12381405165414344 0.06838475289446337
-0.37815748193149423 -0.12351405786115832 -0.03954668884848011
-0.3838198872307976 -0.13433960733732028 -0.1576317217069868
0.38984992495811266 0.13645016212477717 -0.1602341322068663
-0.3914637393316905 -0.160973830802425 -0.31380841147032495
-0.08205699100843267 -0.04511648117874287 -0.08873727884978351
0.043997787537698195 0.04130321655447414 -0.0872517942407911
-0.0465898683979876 -0.043736549753502184 -0.09757189893593844
0.03928169324808207 0.04130321655447414 -0.08844825601544937
-0.038473003144081884 -0.040452909459003095 -0.08464402995026875
0.038366688270989026 0.06326125890399696 -0.09605670814581062
-0.036610391953421424 -0.06036537393021428 -0.08749719949915422
0.04252799318877204 0.0626062610972499 -0.09288094225632602
-0.041219754109519745 -0.06068037766772336 -0.0872517942407911
0.07807293844028138 0.06731471320725506 -0.09115738645477761
-0.170374427321069 -0.14689732373453168 -0.24927108331439185
0.22243106434848106 0.1434329799452035 -0.18448502314954648
-0.3692725667338813 -0.20268121002584802 -0.16209299684963738
0.36281301292663803 0.1991357796315473 -0.15911881342120365
-0.3637526731379199 -0.18631152831301073 -0.04066785786222568
3.1351182647858065 1.6226934490225144 0.6281201082054438
-0.3616682497878121 -0.1871944373652589 0.07049430825367561
-0.3587842714141863 -0.2035680441204815 0.19269335639689036
3.4454953454786277 1.954914984819951 1.8939381262297104
1.9547062652156473 1.3417959376375928 1.9794836922156624
-0.34842121358004763 -0.2391715713444522 0.347113254085211
1.0029635444033957 0.9657137752024866 1.8030842068356947
-0.3298711293236957 -0.31761981320965144 0.5880175789821819
0.4363930460081682 0.8079175187414295 1.7083755899455084
-0.28958350966330065 -0.536121262095527 1.1315464655969967
0.08553662632208328 0.043583087974996534 1.725
-0.08553662632208316 -0.043583087974996826 1.704
0.07766563145999492 0.056427384220077474 1.724
-0.07766563145999471 -0.05642738422007775 1.704
0.39579193130691087 1.0448436321950945 1.70645282619768
-0.2829137260762563 -0.7468585935425421 1.2180708342492734
0.9038290367586489 1.2409226973148673 1.7895080433959907
-0.3207334287658363 -0.4403547301052583 0.630443089731257
1.7430263420490824 1.7060984099843381 1.9439682434386043
-0.3382308466605176 -0.3310650537941901 0.37190705794844037
3.68919920460327 2.984719165397126 2.2335711653584758
-0.34709087534623484 -0.2808112900186386 0.2058915314925678
-0.35011328268936687 -0.25839630678289727 0.0754166040918375
-0.35144407617716117 -0.2566757987312536 -0.04341981816869208
-0.3565935908035419 -0.2790841268964605 -0.1728744117777096
0.20318159887793127 0.18682419295057998 -0.18571083725685245
0.0662743605057186 0.0814798424031706 -0.0806702534998032
0.07134164878666945 0.14975494793350483 -0.22141315527770647
-0.036847195241651545 -0.0773468219301981 -0.08443722023302365
0.04141331307683517 0.09736853870053999 -0.12839262969984588
-0.03394112549695386 -0.07980037205327152 -0.09130142556433483
-0.03124893770611838 -0.10112368664165723 -0.10081199072728637
0.02982054023557644 0.09650129532809401 -0.09225248208062999
0.03288294204062407 0.09500526301210904 -0.08818998557671359
-0.03288294204062396 -0.09500526301210938 -0.08818998557671359
0.12764960216332324 0.2160046295800164 -0.2339437351494293
-0.13760625175265262 -0.23285295789403335 -0.25411129852438
-0.23146619725386772 -0.29293770668864183 -0.2470015426221503
0.17652229212420567 0.223402103839691 -0.18448502314954648
-0.347108659996244 -0.37390907985765903 -0.19332192284819139
-0.3408821878850602 -0.3426667477302124 -0.04841411650264962
-0.3393774007461203 -0.34474628351876546 0.08403062180862081
-0.33702964150577325 -0.37529988009590576 0.22964824666478717
0.43671155798639666 0.4863008328185347 0.2995985746718775
-0.32877416724534914 -0.44293171031209955 0.414793637603756
0.31581400897898326 0.42547150315855503 0.3980410674258983
0.7948349626955784 1.5020153128380562 1.80053867619075
-0.3111581525358089 -0.5880017006778152 0.7008694375747219
0.3469064588298027 1.2604792739271844 1.7112597355672508
-0.2728974572008296 -0.9915687066461951 1.344973241605946
0.0678822509939085 0.06788225099390863 1.724
-0.06788225099390827 -0.06788225099390886 1.703
0.056427384220077335 0.07766563145999501 1.725
-0.05642738422007709 -0.0776656314599952 1.702
0.2878827367512786 1.4397195604093829 1.7083755899455084
-0.2584885241690971 -1.2927172660204755 1.5334040888931266
0.6569809552751672 1.7087917458363484 1.790356553610972
-0.30318632105124466 -0.78858036706082 0.8230549085320582
-0.32210227060712643 -0.5972715557491942 0.49051525480767266
-0.32960042292674785 -0.5051694127675225 0.271442467801099
2.660833280067325 4.0781852572519846 2.217293416073807
2.6345159026586225 3.6834642371029718 0.8002246662611756
-0.3327533159314571 -0.46524104780466746 0.09967649072277825
-0.333374821959922 -0.4612532190627634 -0.05728154415681913
1.2122640348568676 1.67727330199808 -0.2110855479515523
1.057685991895463 1.5681813130452948 -0.7197523896809587
-0.3385634153350862 -0.5019720647503415 -0.2278968052037333
-0.17169578652530504 -0.2990792600099958 -0.2188078181541133
0.1057795250708431 0.2463679250707666 -0.23313703261443125
-0.11471804304664758 -0.2671863596915691 -0.25491800105937806
0.028201563263723053 0.11214738196656449 -0.09381913359224851
0.02557452918937746 0.11391062705797772 -0.0979588211784009
-0.02638222384174325 -0.11750815190940676 -0.10366516027617184
-0.04006941426610968 -0.25448650015891194 -0.2558342028833966
0.018653926416234264 0.11847371704418447 -0.08749719949915422
-0.04473212022029799 -0.2536475082134484 -0.251435278027226
0.020893485574107813 0.11847371704418447 -0.08631360290486863
0.08195608954624442 0.27218171191588597 -0.2339437351494293
-0.08834865208850409 -0.29341184412345134 -0.25411129852438
0.48227845042063927 1.1978975499104445 -0.821908358948644
-0.11367610193298758 -0.28235208077435076 -0.18509793020319945
0.7891496035239549 1.6683763480741813 -0.6952153763963804
-0.3387421066186638 -0.7161497848516011 -0.2966747969862629
-0.3276008659420268 -0.6463188379954204 -0.07328368371664226
1.9043638868456605 3.7966514636840225 0.7488921525203446
-0.3228583991839081 -0.6436694280391069 0.12587013643299685
1.8374949989670335 4.015786470400327 1.982365899370749
-0.3171654685271434 -0.6931549735403368 0.3396330391287657
1.000351062837017 2.6449998031855544 1.9881950287081487
-0.31405364633253124 -0.8303803170693456 0.6211853021949626
0.5124754396590577 1.9006606079164785 1.8081752681255834
-0.2968756470830753 -1.101047590175082 1.0453645848572122
0.22285242207000663 1.5891862580471834 1.712221117441165
-0.20651006094013535 -1.472647000854483 1.5862800919584068
0.04358308797499638 0.08553662632208338 1.725
-0.04358308797499605 -0.08553662632208354 1.703
0.029665631459994818 0.09130142556433479 1.726
-0.02966563145999448 -0.0913014255643349 1.703
0.15117906528627573 1.690592509820556 1.70645282619768
-0.13657461243580554 -1.5272750653564322 1.54109514388444
0.3471922573506636 2.0192560413692067 1.7996901659757687
-0.29362082909289583 -1.7076867944634175 1.5213788154618355
0.6763223188035822 2.8042502540358867 1.9747929725658626
-0.317758082316368 -1.317527395272058 0.9260820794319721
1.2246453111129347 4.197054538886311 1.9410116174042928
-0.3274122803629038 -1.023612545420372 0.18845361208962655
0.6235067409289161 1.9290024029304822 -0.206498947440775
-0.12863070226021603 -0.4264510270177738 -0.1628365427067458
0.05578492165988894 0.29052558393977357 -0.2339437351494293
-0.05734752293107495 -0.2986635472687241 -0.24120405796441152
-0.031153601179631986 -0.27701878169157185 -0.2580026173786834
0.02854284138168878 0.25380382511735394 -0.23360964264469877
-0.027273984741930456 -0.27163779132341437 -0.2558342028833966
0.015355140545355247 0.15293095243205848 -0.12268629060207493
0.011958880233650375 0.2443406012078871 -0.21684088571529522
-0.013352682926740998 -0.27281840024434895 -0.24632363772044502
0.013845049339788711 0.2525567563122779 -0.22235134661362896
-0.015159047894115256 -0.27652627816339254 -0.24674432134761357
0.054257072221820385 0.5796788224670106 -0.46708076776386054
-0.03149250710049477 -0.2516415909440957 -0.1446460646621029
0.6084726871253623 3.902520994969106 0.6943953057406949
-0.06724840749640523 -0.4313066595853558 0.07488921525203444
0.5785235170992706 4.067418229631696 1.8112295622967982
-0.3573609902457362 -2.5124935518141767 1.1183253697737334
0.35177695158601646 2.9922229785359358 2.0290712999421214
-0.29247734142761184 -2.4878191074631215 1.6866487655067104
0.17683509615745607 2.109858581229509 1.810720798770528
-0.1636044675347921 -1.9520010295265116 1.6749591643734876
0.07678971134735443 1.7616265375127427 1.712221117441165
-0.06918149269291088 -1.5870870106712196 1.542056525758354
0.015017708643862022 0.09481808069713325 1.727
-0.015017708643861677 -0.09481808069713331 1.703
-1.6465195194651677e-16 0.096 1.729
4.939558558395502e-16 -0.096 1.703
-8.409684213405492e-16 1.7815883362887173 1.7102983536933367
2.2712464819334817e-15 -1.6038756186188503 1.5391723801366117
-1.929727157095334e-15 2.1261683846769994 1.8022356966207131
5.345851414992753e-15 -1.963348415335393 1.663928531578728
-3.7957540522757054e-15 2.9815459077465167 1.9969063652006347
9.734531008278619e-15 -2.5488085451834155 1.7067518497201395
-6.26739640545018e-15 4.069132585699316 1.7896725429738587
1.5970636094347896e-14 -3.456333461921752 1.5199898318521832
-6.58343390582864e-15 3.899181965489684 0.6852538991841085
1.2763546447246236e-14 -2.519829359301935 0.4426550328747012
3.0345333972406326e-15 -0.6352952069707436 -0.2334733991320465
1.2844921699605334e-15 -0.3159382851127732 -0.18448502314954648
9.433076902197462e-16 -0.3102273359973296 -0.23797724782441945
-1.4194801880426688e-16 0.23911712611187014 -0.20546390256702426
-1.2721829379844006e-16 0.24003333101884 -0.209232433584934
4.5862838750304975e-16 -0.2884441020371192 -0.25868737243228207
-0.006461246586139981 0.13201443986097297 -0.08844825601544937
0.00680646167421275 -0.13906778101981665 -0.0979588211784009
-0.007274750552444391 0.13270356482054296 -0.08818998557671359
0.007584115621080603 -0.1383468988624444 -0.09569551626409348
0.03893458928671532 -0.31110771713406565 -0.18387211609589352
-0.05903244703355023 0.40149379186304196 -0.1468503067789146
0.08910184219385878 -0.6060029404517531 -0.2252943947038538
-0.44468474783619144 2.8520451308535106 0.5073480638905432
0.49855755835522675 -3.1975656095157787 0.5688767618675667
0.49131182398929374 -3.4542600434765878 1.5380273378162757
-0.41871450427684775 2.9438509539700752 1.3105787870007681
-0.3523572422218007 2.997158944257314 2.0324218139776926
0.2958422966449132 -2.516441495250309 1.7060817469130254
-0.1774966842255032 2.117752134562141 1.81750888049038
0.16211616964279849 -1.9342438187289597 1.6596859805038204
-0.07704765953646493 1.7675441059898773 1.71798940868465
0.0690955395621691 -1.5851151668727594 1.5401337620105258
-0.015017708643862348 0.0948180806971332 1.729
0.015017708643862733 -0.09481808069713313 1.703
-0.029665631459995147 0.09130142556433468 1.73
0.029665631459995505 -0.09130142556433457 1.703
-0.15185845288004443 1.6981899081449354 1.7141438811889935
0.13640482300454015 -1.5253763584143751 1.5391723801366117
-0.3462121118282416 2.0135555548932613 1.7945991046858794
0.3190972051355764 -1.8558563608843495 1.65374640899895
-0.41804014436531384 1.7333291367752008 1.2195871089480386
0.5811910377978703 -2.409805310389801 1.696700307613425
-0.4486859173406616 1.5377181040260455 0.7100618201474452
1.0076982000776749 -3.4535422347062235 1.596979186576968
-0.466348237573609 1.4579780147094927 0.2689683082995603
1.0222402811698474 -3.1959032663028366 0.5904997042994923
-0.46972466516894834 1.4532320957375304 -0.15543479508745403
0.8335973491046431 -2.5789797991656664 -0.27621527520459044
0.18026097773550093 -0.597621545523547 -0.230870988632167
0.09073749501701714 -0.3534259610386567 -0.22003363226141925
0.026938177846746906 -0.14029292533409998 -0.09035068391977957
-0.01482643921813534 0.13183715440631472 -0.09381913359224851
0.015455057089444713 -0.13742684388893742 -0.10132466427962838
-0.013100097793482599 0.13047164411115633 -0.09320353859692515
0.013798439551056677 -0.13742684388893742 -0.10271410375987669
-0.018751267924416316 0.11909194668869297 -0.08844825601544937
0.020482453836827137 -0.13008695253150132 -0.10461621679246699
-0.020893485574107952 0.11847371704418426 -0.08631360290486863
0.021895800758868846 -0.12415721131646516 -0.094757324928171
0.08093800586883988 -0.2688005872218676 -0.23071692500943716
-0.03876755558351943 0.12874967197602244 -0.08712387377978745
0.1322671100865485 -0.32852897940643305 -0.21819491110046033
0.24651951305319791 -0.5211778895663193 -0.2145129797757816
-0.4802332551544324 0.9474449908599809 -0.10793799868695989
0.20206675957547104 -0.39865448118023633 -0.044540987182437645
-0.46677312244125746 0.9305862554767994 0.18282813113172725
1.608144786836975 -3.2060917038672807 0.6323392189238682
-0.4542318827224273 0.9927092319089912 0.48833247854006456
-0.4349016730755195 1.1499111486196558 0.8624223127561129
0.8562105850971872 -2.2638820642072752 1.701391027263225
-0.40570448891748145 1.5046702356182056 1.4305882224588147
0.47047944871397424 -1.7449065570826345 1.6596859805038204
0.20027362127059756 -1.428174232149886 1.5382109982626975
-0.2234762505668705 1.5936348508216425 1.7170280268107359
-0.04358308797499667 0.08553662632208323 1.73
0.043583087974997006 -0.08553662632208306 1.704
-0.05642738422007763 0.0776656314599948 1.731
0.05642738422007789 -0.07766563145999461 1.705
-0.28368295720040854 1.4187162003710831 1.6833796612237395
0.25929591274178526 -1.2967550667377388 1.5382109982626975
-0.39770316551242735 1.0344164181075541 1.0818505241014167
0.6063376193687482 -1.577069640829094 1.6520493885689869
-0.4291808342998293 0.7958264439329324 0.6560306481649064
1.1050550664382472 -2.0490943993534336 1.6960302048063105
-0.4509982377664814 0.6912324714532052 0.37350835520767106
1.9964340850054465 -3.059879066281988 1.663410001225211
1.9247512049254216 -2.6911024608008294 0.5845226307817242
-0.46220482284034564 0.6462344499157592 0.13940644998794205
-0.47636073703659243 0.6590867363692225 -0.08245688473819693
0.2616175037255834 -0.36197069426885004 -0.044540987182437645
0.31970911954962583 -0.47401768646798176 -0.21488475270433582
0.17438833814557925 -0.3037694528354936 -0.22248526047603115
0.10577952507084412 -0.24636792507076535 -0.23313703261443125
0.02864496432331975 -0.11391062705797714 -0.09663370760001595
-0.031586326734104365 0.14068756684030867 -0.13790319486279742
0.025441959145902356 -0.11332015140661489 -0.09700776466210577
-0.02935824082580308 0.09500526301210871 -0.08939931253174453
0.030606725447046387 -0.09904544411531446 -0.09700776466210577
-0.033400744343125725 0.09650129532809368 -0.09100455958448105
0.1280463687254464 -0.21667602543890138 -0.23475043768442733
-0.2419526235458542 0.4094245962323211 -0.4606271474838763
0.2157369188717963 -0.2730311337558395 -0.22922723806621392
0.40016028080695937 -0.4310568407994446 -0.2238073029896369
-0.4726262595460352 0.4751005156806282 -0.06777976310370946
-0.4566810977678386 0.463905701624801 0.1140917856773952
2.4588186369764844 -2.497716657269179 0.620736664448201
-0.44048458560204257 0.49050229357261804 0.302238209691013
0.3883551374360645 -0.43245346570469023 0.2657232585929721
1.3367261858810726 -1.8008665969471365 1.705411644105911
-0.4161289415691777 0.560617962609118 0.5273709091989596
-0.38149383656417096 0.7209164306630811 0.8612378682062258
0.692801928181508 -1.309201474181869 1.5688953875007996
-0.3092138940665178 1.1235239205286165 1.5247516520278988
0.3239783478827589 -1.1771703360176824 1.597816674445377
-0.06788225099390874 0.06788225099390839 1.73
0.06788225099390897 -0.06788225099390816 1.704
-0.07766563145999512 0.05642738422007719 1.73
0.07766563145999529 -0.056427384220076954 1.704
0.37867357459779943 -0.9996532061495079 1.6324264219062876
0.7896577285411558 -1.0841698580198127 1.5629558159959291
-0.3742950227153208 0.513892749944313 0.7373553768189264
-0.4082326037859443 0.39958374662552737 0.45097918918792856
1.5281787530271962 -1.4958026036752192 1.7040714384916822
-0.4314156160997399 0.3490335940704412 0.25780435353556563
-0.44700613200851824 0.32990674541984616 0.0972153428036973
2.4581382896826596 -1.814195253423625 0.5423315235974795
-0.4636116683315478 0.3385969584820688 -0.05789309089158944
-0.4815804500697771 0.3769037439379329 -0.23570403670337178
0.4748984417274205 -0.3716741421945587 -0.23235808034638386
0.251786150207411 -0.23151576997330967 -0.23413049449543774
0.1483180866384623 -0.1823470529572107 -0.23797724782441945
0.07186071105047251 -0.15084452384900354 -0.22328953794955142
-0.037232463919131396 0.07815554855367222 -0.08631360290486863
0.0625384881492986 -0.1470368041393008 -0.21969405526418068
-0.0342965012792848 0.0806359106287744 -0.09320353859692515
0.07014968792707972 -0.11566694364249074 -0.22444933784565646
-0.054234933371107394 0.08942575750602241 -0.16358172080276656
-0.08518391917177771 0.12540085447444288 -0.24299155600392364
0.07942949476305232 -0.11692965774061229 -0.2242277292854739
0.16234825185262597 -0.13997713204451467 -0.23636384275442338
0.25008546143177307 -0.16126570755392222 -0.20961421234931862
-0.4740334672867346 0.260180921621673 -0.21005170463313103
0.48790189074453366 -0.2677928297372364 -0.21637184441855264
-0.45388964726590864 0.2324790444508977 -0.051268001264911066
-0.4371041454967571 0.22623900393327726 0.08596438088789869
2.455655237441542 -1.2710128710651325 0.49187799125632015
-0.4183881183937706 0.23738624496820473 0.22612873330593986
2.029830217162216 -1.151690863079499 1.1152457955847421
-0.39207396992583043 0.26913673397464644 0.3920101421618695
1.6804078892364374 -1.1535055263675753 1.701391027263225
0.8710978924729457 -0.8387455745576093 1.5655013466408736
-0.3583824200541266 0.34507220304058256 0.6397767020960535
0.41802943229739625 -0.7739199897705817 1.6362719494019444
-0.08553662632208345 0.043583087974996236 1.731
0.08553662632208361 -0.0435830879749959 1.703
-0.09130142556433483 0.02966563145999468 1.73
0.09130142556433495 -0.02966563145999433 1.703
0.44541881585437637 -0.5258573163891986 1.6333878037802019
-0.34811530879202607 0.21374529257302266 0.5812294972623299
0.981074876796325 -0.6023870001711149 1.6520493885689869
-0.38231995980666567 0.16735631219774028 0.3571647961919256
1.6927872115495812 -0.7409987833323972 1.6055663258458792
-0.4063566321238731 0.1470258564833982 0.20501165315285597
2.0266709733357415 -0.73327961723507 1.0430957717283722
-0.4243835856649101 0.14007198729715858 0.07787775201091844
2.448995092166832 -0.8083149797213173 0.4595314757483991
-0.44273198364280775 0.14460542619793568 -0.04668140075413374
-0.4616518166578871 0.1615813193626601 -0.19109128527686609
-0.48558594539091865 0.1996778295400695 -0.3916476072842532
0.2959923716468267 -0.12171504322118405 -0.23413049449543774
0.17275581473027757 -0.09498440496064134 -0.23555714021942534
-0.5344150154771034 0.29383145410403805 -0.7631405981081383
0.08569985955220577 -0.08045131484713446 -0.22704230329324138
-0.0718420533476496 0.0674422068290041 -0.18388550184080707
0.08477159464408138 -0.08913412945668933 -0.25868737243228207
-0.08145439718033426 0.08564622163322141 -0.2472746942367402
-0.058263615948855985 0.02986259775779923 -0.15692432518870048
0.07832729963760052 -0.04014609468429592 -0.22635145087824676
0.09957396911102875 -0.04556541506999863 -0.2580026173786834
-0.06614710620641558 0.030269159468916302 -0.15761614443497748
0.19220872160358884 -0.05151446552395158 -0.25411129852438
-0.4772946937868808 0.09567243358745069 -0.3701958604063989
-0.45062356133180237 0.07688240713605453 -0.17919455156313124
-0.42906047564501176 0.06831226388667035 -0.04341981816869208
2.5426105308561615 -0.40481818159492955 -0.263576642686004
-0.41037445617480045 0.0660251670074747 0.07225227105301915
2.554011183660809 -0.4109149885009684 0.46146523482767704
-0.3925186532261961 0.06922821624437794 0.1900537213777549
2.607312640721474 -0.4598497468209391 1.2925412810366754
-0.3653436432654897 0.07795664792950606 0.3276802726788961
1.8715377993092832 -0.3993467958096938 1.7094322609485968
