1.942191040134731 0.24535578692382123 -0.5604163643607856
1.6518055844450312 0.2086715727967515 -0.5846832355239358
1.437166634899154 0.18155636771029526 -0.6000252901974091
1.2648407976194591 0.15978655179654616 -0.6121952421755164
1.1144005426900965 0.1407815278980457 -0.6232728069270385
0.9832999810226623 0.12421967542866305 -0.6235347781457174
0.8857179092616381 0.11189219295560932 -0.6326925970554553
0.8042483221696003 0.1016001906560111 -0.6442352346356455
0.7240291352795583 0.09146615063673988 -0.6536488006215818
0.7492405126890341 0.09764180380443555 -0.6453229674320365
-3.7583751352660957 -0.4897953612573018 0.49393708780004103
4.68124737032441 0.6100650319251427 0.900546897531143
-3.738174866816678 -0.48716284123825465 1.1112956542778265
4.661530734907445 0.6074955394664961 1.0507865516086365
-3.7328726942182446 -0.4864718565840273 1.223140049835471
4.656269736938904 0.6068099207329118 1.205636287180769
-2.7719838129857983 -0.3612478169996848 2.030994277504905
4.629748516857602 0.6033536477151348 1.3564402111570086
4.623986642239971 0.6210790516089042 1.9325178767708482
4.70983156311039 0.6326094659817737 0.5057587475065617
4.718865964070682 0.6338229377355664 0.37471788953227925
4.7263012145516345 0.6348216167271968 0.24366030506345698
0.2170885366934363 0.029158635808560575 -0.248449876623206
0.6499920219887063 0.08990479047876677 -0.6561802343868659
-2.341417492972363 -0.3238572813323896 2.0187980545193245
1.752733338292236 0.2424323964195531 -0.5749194534934668
-2.4763763052944747 -0.3425243469803029 2.019009030762815
4.6176549848910815 0.6386990761050894 1.3741990142235812
-3.925160416086183 -0.5429154710608406 1.7704506486408849
1.9306699428071028 0.2670440110336325 2.158950223630061
-3.7481367772421286 -0.5184301349002983 0.7064141096497485
1.7169340286819739 0.23748075190559775 2.146160626241251
-1.461381747113401 -0.20213358831965908 -0.6591588592113444
1.5299889764538428 0.21162311799158598 2.125897783963576
-0.6820474541289078 -0.09433859399139334 -0.688540848461442
1.0455658505462084 0.14461928076825492 2.071574839536736
0.9443082849499463 0.13061366237394162 2.0678643413377378
0.8430892448242914 0.11661337269789847 2.054775376183399
-0.5350965992087406 -0.07401282786606209 -0.7435090657325633
4.3373165892283305 0.6172915626431962 2.232242802988566
4.62444422202089 0.6766943215919254 2.2217318543296014
-0.10065399787692501 -0.014728686419116867 -0.1400137082851508
4.6505651842975695 0.6805165986047989 2.0999918156085
-3.7294748035970198 -0.5457335629861828 1.2246846808731546
0.6583132678992533 0.09633089487700089 -0.6653239812301991
-3.0285960783708696 -0.4431740702742406 2.04519400974899
-2.7651674230863668 -0.40462658940577767 2.030406719218528
-3.0042081602091946 -0.45166249076953613 -0.6042899341908171
-0.12101643729183985 -0.018194007397770225 -0.12237646832622717
0.11106115983863013 0.017590359642835323 -0.12164291193051062
-0.6860843859470716 -0.10866509148363282 -0.6838099979179039
0.13848884874274167 0.021934478799308526 -0.11786313000133974
-0.6918678361376746 -0.10958110000521631 -0.6735101185875523
0.7647235540675628 0.12112031211398136 -0.6354154199007822
-1.0868487598903134 -0.1721399325526479 -0.6743238218731835
1.0012085647724829 0.15857585817962216 -0.6211892682820758
-2.0316773569127724 -0.3217860810946707 -0.6328165890853898
1.481591572372751 0.23466105197980824 -0.5871120875588988
-2.2338872596896824 -0.3538129833740713 -0.6378746615065222
1.6522818574915121 0.2616957372571787 -0.5801034429356707
-2.4407785580274073 -0.3865813458693093 -0.6241633549797063
1.8261076924845159 0.28922704484649087 -0.5687867895602366
-2.5995267806274573 -0.4117245942583338 -0.6100486663238085
2.1087589054625973 0.33399459902107564 -0.5392582743518545
-2.7578185303991387 -0.4367955444539138 -0.612626807879267
2.352776413314362 0.3726431754315656 -0.5324633440490393
-2.974425691140077 -0.47110274837815497 -0.5990250481878242
2.5600532428600142 0.40547260007139807 -0.5155738204304647
-3.296468988293585 -0.522109395758083 -0.5960125737598131
2.7337756476808814 0.43298752593078377 -0.4942757434219397
-3.5943790069382535 -0.5692937073281922 -0.6057261999270723
2.9691446591213224 0.4702663150775174 -0.5003614554646812
-3.7363695110004294 -0.5917827938454792 1.1475434641767832
3.120049576074877 0.4941673058914268 -0.4749255906170828
-3.9193788480294356 -0.6207686252649836 1.4994708264938286
3.352246271357036 0.5309436495188985 -0.46945157067411647
-3.915626654395651 -0.6201743361763072 1.642122923576249
3.6293567330022247 0.5748336348946456 -0.4349172298325608
-3.6004975631719183 -0.5702627914328553 2.0415098937551823
4.27777952482447 0.6775337158710855 -0.42657637165043627
-3.386849287296366 -0.5364242288320031 2.0461624940023913
4.462476967470742 0.7067869169539884 -0.3913100673581002
-3.183294600629117 -0.5041843337087737 2.0453619834269317
4.721305440216609 0.7477813197498971 0.13143453889350418
-2.847279685934996 -0.4509647995042471 2.0430049289392342
4.690340554241886 0.7428769636150775 0.6188693740717448
-2.665206481402338 -0.4221272369062466 2.026037513806905
4.663672341901588 0.7386531337291035 0.9971924766133842
-2.484690689135404 -0.3935363441783073 2.015425842132278
4.627295983940466 0.7328916846323861 1.2619107161781098
-1.7861472721893055 -0.2828979360429074 2.0031654149953186
4.6143432341142825 0.7308401706005023 1.4372522961611065
-1.5848074248431683 -0.25100883700596116 1.9867813140622395
4.58989915565319 0.7269686089141931 1.5910623440291367
-1.062495984743912 -0.16828283189073576 1.975097002907427
4.596189105074359 0.7279648390329346 1.6547425490170746
-0.8051423896027894 -0.12752202675880075 1.968015209584529
4.591850794129459 0.7272777180819728 1.7567442629005912
-0.5365466886127375 -0.08498064698391382 1.9261653461156705
4.589613507157154 0.726923366637019 1.7767729944924622
-0.5128143264730219 -0.08122181008883565 1.9276090070680605
4.613544728908188 0.7307136998003388 1.9348135629273382
4.597143596633059 0.7281160156442539 2.101563660634146
4.574903813228561 0.7245935799967935 2.2691593693555783
4.470829503441059 0.7081098286889376 2.3966895964381982
4.177741466295689 0.6616892439598512 2.368811639877976
3.8252378228293606 0.6058581516770768 2.31101460377085
3.5843036244548103 0.5676979235124828 2.3030222741779403
3.32774826015293 0.5270635457252719 2.25124688468783
3.166286575744919 0.5014905272064522 2.271901532060689
2.9676049311227293 0.47002244612020816 2.2559148638455384
2.0642930073116386 0.32695189262890817 2.1737545491316728
1.8800523346606086 0.29777103680605865 2.142066205460662
1.7373027333776208 0.2751617211003019 2.143297048903806
1.1233856264344584 0.17792680371145053 2.0882860883608565
-3.73650971755645 -0.6521253396639063 1.0216519328883251
-3.7370267563128947 -0.6522155773723971 0.8011478410595079
0.11328508727596642 0.020230149775209108 -0.1225448082986353
-0.8935711046282063 -0.15957155276220666 1.9689691720599858
4.7255289819730315 0.8630348344204337 0.24544595150423834
-2.17198804678714 -0.3966754518854913 1.9932540004939723
4.717107262892793 0.8614967554117816 0.3773849636366568
-3.9051920283977988 -0.7132147043146827 1.5178988790059795
4.7070773447450165 0.8596649671017452 0.5092504442081198
-3.751610482628565 -0.6851657336219571 0.40588015977840913
-3.756096790544796 -0.6859850789321674 0.19509323807222928
-3.764936032318997 -0.6875994111244155 -0.19555235198649948
-3.77116846880819 -0.6887376561365625 -0.40799610400885017
4.248127013137003 0.7930970037755226 2.3537268369243645
-3.7754801901905797 -0.7048569916564035 -0.5005256784537521
4.604631749499972 0.8596540623019961 2.204212635991483
-3.771255574151622 -0.7040682839948298 -0.4540696487356231
4.63253524951044 0.8648634598046406 2.039313697776288
-3.7692174052421317 -0.7036877714418137 -0.3017692369063264
4.648440451564811 0.8678328550357053 1.8722469131972186
-3.7671561995139866 -0.7033029580682725 -0.15056931173302832
4.6604940866507 0.8700831883806499 1.706871440264679
-3.7647091191724518 -0.7028461044758851 -0.10530242847556455
4.646227134843062 0.8674196435533281 1.3731764538564766
-3.7583186571276648 -0.7016530477982509 0.1502160843636028
4.656823983443096 0.8693980045694089 1.216327873922121
-3.7506035158590687 -0.700212682337212 0.300278980815705
4.668104109469682 0.8715039289276566 1.061473468823382
-3.7488099099800647 -0.6998778280722163 0.45136712840899085
4.67830236603097 0.8734078754663265 0.907853322438388
-3.7390667036904466 -0.698058836386806 0.7565970171073613
4.699755330722869 0.8774130010114506 0.6039753778077894
-3.734696019903367 -0.6972428588500554 0.9121129506264828
4.711193099916076 0.8795483562983704 0.4530334030024552
-3.72782775377407 -0.6959605993339361 1.0695214267916862
4.717952440035608 0.8808102800543509 0.30195699050135527
-3.7163857229392177 -0.6938244484269208 1.3610987448009155
4.727895025282376 0.882666494462397 0.15114724431371235
-3.9046146964730464 -0.7289655434252051 1.5726570855038597
4.309042109503144 0.8044694463280366 -0.3449884178539331
-3.9037354741723846 -0.7288013984808211 1.7184847596823498
0.739023166456887 0.1379707003169008 -0.6420909945592604
-3.8976554662555114 -0.7276663015199977 1.8657868634977435
0.12386201337115786 0.023124212478225385 -0.11375180192377173
-3.899298907217508 -0.727973120995689 1.885635215857021
-3.5800335610505507 -0.6683684084549983 2.0395559252766398
-3.2731599914173612 -0.611077158014192 2.0404510230676935
0.0816128859940987 0.015568490635875119 -0.1404882875510799
-2.903953142049438 -0.5539586886106043 -0.6243411888495083
0.0833739877634403 0.015904438765522194 -0.1337453811986622
-0.11307465708232847 -0.021570144450820502 -0.13478075082920618
0.08789929613933635 0.0167676875064095 -0.1316721625625426
0.1205157040812281 0.022989600081048046 -0.11612253596059355
4.017396375589229 0.7663593449995393 2.3541367240953543
3.7580537237142893 0.7168870882839764 2.34446520817198
3.5048888612052607 0.6685933079171184 2.3237904507953675
2.4031096283438473 0.4682054574704746 2.210265315240674
-2.5337432728429614 -0.49365722403258333 -0.6197358892975967
2.682802670784716 0.5226989384764099 2.207422852410936
-3.7674873138020075 -0.7340314817383413 -0.3020829756175422
4.594524459655599 0.8951657473799337 2.2251658981622366
-3.7528141239687844 -0.731172657705769 0.300906456500826
4.624993833205863 0.9011021918990181 2.1052940133298548
-3.7338754364490265 -0.7274827732537684 0.9132798255198663
-1.2989087339164131 -0.25307050115514834 1.980506859973159
-1.0891931521041234 -0.21221095036187834 1.98146455682558
2.2874774722203157 0.45500755932697934 2.1901677869605938
-2.4488659013886944 -0.48710971384055585 2.016496943637135
3.139947867195323 0.6245744637125302 2.194139952367158
-2.573257481731235 -0.5118527375685878 2.018675235831104
4.292474447432854 0.8538262542555592 2.229973283624704
-3.906086309687065 -0.7769688750491426 1.7794229706509244
4.626533766898261 0.9202747843356609 1.5327023928558825
-0.6601293345707958 -0.13130788871623814 -0.6730620328023282
4.685605407960028 0.9320248643042586 0.7566661173954933
4.658531624812581 0.9266395540044761 0.6189985763920991
4.5763320319431084 0.9102890383891653 -8.002749778569171e-15
0.08416292551029202 0.016741046758850017 -0.12842639651943458
3.591418910203892 0.7290506633733834 -0.4337422525702547
-2.998853097272352 -0.608761020251367 2.0446386285117817
4.493810168073146 0.9122342355550459 -0.1801634613447091
4.672177199660967 0.9484423766698508 1.1445685969416923
4.593075524618524 0.9323848990807593 1.941318012360786
2.8150099003003124 0.5714412288094993 2.228081278416008
2.63256328067175 0.534404939700334 2.2222652707727475
2.53992681881152 0.5155999281824964 2.2135477110602784
2.43793631418164 0.49489606519203866 2.1931678943144957
1.1767658926614433 0.2485197810418563 2.0894872462639302
-2.0703942961380526 -0.4372440944756189 2.0028092920608334
1.3353472745100146 0.282010393354887 2.0955989106931923
-3.2403409252454627 -0.6843237234057606 2.029481887025221
2.23740663745295 0.4725152310319179 2.130571025599554
-3.862613304251964 -0.8157406826697097 1.8576990069581483
2.415296325128754 0.510083541353021 2.142116580081555
-3.870220173458086 -0.8173471682768374 1.7117349139010707
2.5943683994891193 0.5479015585034829 2.1414764742863097
-3.8608912058367237 -0.8153769947656353 1.5623522180032319
2.815390638155772 0.5945789806665167 2.1604805924456714
-3.7339798045336026 -0.7885747277554702 1.3739671459247456
3.0180372547727936 0.6373756771926491 2.167897685530087
-3.74052138114953 -0.7899562354949425 1.0782049634303628
3.288632340965201 0.6945223297179417 2.1890299357205927
-3.7467166086572745 -0.7912645981806141 0.9193475893685714
3.575950625231437 0.755200734437571 2.2003840520717852
-3.752281221098802 -0.7924397820248904 0.7628380101001986
3.9500146632585147 0.8341988711152689 2.2401268721821816
-3.76042046658743 -0.79415869954221 0.45489215690292895
3.966247824485727 0.8376271330142263 2.2078722745667627
-3.7632936641213295 -0.794765486692031 0.3027104536474345
4.424659937292365 0.9344386386944105 2.128011717504129
-3.767133372919658 -0.7955763901994967 0.15127576802680093
4.44568084654262 0.9388780193705101 1.9662517324663722
-3.7759296293151947 -0.7974340610642282 -0.1516289969439428
4.4102335194624365 0.9313919407720195 1.7846496453015368
-3.77987040002535 -0.7982663077159466 -0.30404384713022153
4.384671456247971 0.9259935192230493 1.6133977262662789
-3.782761281245083 -0.7988768294622229 -0.457594690158702
4.401867809060638 0.9296251964006202 1.3070687762213595
-2.2729839134685323 -0.4800287533906187 -0.6257383838566439
4.410493868702005 0.9314469236164542 1.1574003035369615
4.421930823170509 0.9338622803480042 1.0102202910443914
4.427734707279706 0.9350879956895217 0.8632657773061865
4.447770393575216 0.9393193083084846 0.574277601056015
4.456407854892981 0.9411434434307169 0.43054622253076924
4.463535720254267 0.9426487687889122 0.28701597989479544
4.4701540627542 0.9440464886235883 0.1435788374364271
4.470671258338542 0.9441557145402961 0.12563632662003515
4.106538027611386 0.8672548531755012 -0.33032021952211454
2.2195586618878567 0.46874593842483386 -0.5446224303577741
0.7407510108334854 0.15643831977702868 -0.6466157994160904
0.12208767782940723 0.02578355062063493 -0.11264904544476183
2.349912701216375 0.5155870105674278 -0.5080800440837075
-3.6405733922949826 -0.7987668440249381 1.8990884403313726
3.0191284408494052 0.662417547056491 -0.4895574031775005
-1.1860654389624838 -0.26023091568273277 1.9815218002892763
0.11973411606683435 0.02676374584721854 -0.11612253596059355
-3.728961933304967 -0.8335217458090283 1.0291921099707066
3.8839474954486337 0.8681651234148251 2.2907942227717486
-3.7307915762818413 -0.8339307194686065 0.8073448887997111
3.6862623476136855 0.8239772575982761 2.3146896948676425
-2.8813024626978527 -0.6440474056497572 -0.6235150821969795
3.459266511773277 0.7732376767805709 2.3085137417245183
-2.223217553965063 -0.4969480005530226 -0.6424853247257505
4.444545727845939 1.0118156171995665 0.48512619994954587
4.452952367953038 1.0137294167798583 0.35942158852329464
4.460902476320424 1.015539285391211 0.23376282122146502
3.0572784046925694 0.7086390843609663 -0.4970627770377766
-1.545050073905338 -0.3581233779637534 -0.6569474220064643
2.702810105386927 0.6264777441737621 2.2407106395680065
-2.517557220305174 -0.5835384310061947 -0.6204357678503947
2.3720543741258298 0.5498126821407298 2.1982086026461936
-3.7605562626769444 -0.8716501390848302 -0.3038085421356838
-3.740167988552406 -0.8669243908882847 0.30216141032702887
-3.7228831488702925 -0.8629179801712041 0.9174805825492256
-3.4538888011073436 -0.8005684381718773 1.8065000208658504
2.247451617622434 0.5302397224885881 2.1855679040335327
2.7656104751076835 0.6524885872221646 2.186304952086847
4.4753944968397565 1.0558767616727092 -0.12643323066339157
4.483886520485092 1.0578802790012969 -0.23539538379553215
3.690474526597573 0.870691130118488 -0.40355262911719825
3.578892238412629 0.8443655972091668 -0.4792098539047844
2.337228535984272 0.5514207294142994 -0.44832460310919553
0.7035269598409959 0.16890187949803312 -0.6531752995015333
-0.7310853947380413 -0.17551807435030875 1.9663500581476028
0.7346994881779463 0.17638574141855792 -0.6453229674320365
-1.1040595431209579 -0.2650612450630439 1.9725838541388228
1.0430743920859449 0.25042000568024037 -0.6174606330201495
-1.2570992898401931 -0.30180283754533377 1.9850746642715653
1.2629622150040907 0.30321040134325716 -0.5987778352521248
-1.525931186768179 -0.36634366576095945 1.9906359114125014
1.3969080673752143 0.3353679553644449 -0.5950598170072611
-1.6512325662127212 -0.39642586544903236 1.9882813044138237
1.5642581131966142 0.37554514669724726 -0.593483275325186
-1.787866182155195 -0.4292286944131312 1.9890606432681242
1.8824300091797546 0.45193146065904743 -0.5706901220505655
-2.0948686890146835 -0.5029334752944433 2.0072488872120853
2.007529798463152 0.48196526283138946 -0.5560985467580047
-2.252080677832335 -0.5406767344823028 2.0097866278099787
2.1803297023515116 0.5234508493260702 -0.5383248065838924
-2.2880527807707596 -0.5493128723172621 2.0097101384811085
2.3098666910538124 0.5545499288286937 -0.5016794255261021
-2.4263418068570157 -0.5825131300944488 2.0152409011245784
2.332179749552422 0.5599068202243219 -0.44777446158070505
-2.611434449069109 -0.6269499419515888 2.016434697306614
3.5273543909175733 0.8468428650072906 -0.47275063496600117
-2.7894280360130774 -0.6696824214293162 2.016149222238471
3.6908932960856715 0.8861050824213684 -0.40397581588117787
-2.9937975145918463 -0.7187471922403582 2.005174285509936
3.8689153433507832 0.9288443946176781 -0.3131423902511705
-3.162290110810045 -0.7591986856546113 1.9929183653058384
4.481639457254904 1.0759464395422433 -0.23549741912036357
-3.2048941859343256 -0.7694270191422047 1.9843304460644389
4.476072536572772 1.0746099401329796 -0.12657062813460765
-3.3713717871188837 -0.8093947550492285 1.9238618462658956
4.45709283359952 1.070053316595452 0.14404989524081493
-3.359360152351739 -0.8065110166798087 1.625713488522932
4.446612875724999 1.0675373013137253 0.28770652363208804
-3.35382985584065 -0.8051833099560814 1.4925716516938308
4.439502724437326 1.065830305015709 0.4315811865960822
-3.2262389646613125 -0.7745514471318193 1.3743246336463262
4.428952823274269 1.063297497836064 0.5754053530394494
-3.362514621043713 -0.807268337608935 1.369143255602334
4.426721500664985 1.06276180467292 0.5932875374375355
-3.70174849561546 -0.8887111852540612 1.3705807179487866
4.40990998201613 1.0587257161374504 0.8651391844690349
-3.7145891350354723 -0.8917939500318128 1.0773908801187622
4.405859895252226 1.0577533763330054 0.9569077166917326
-3.717881496687449 -0.8925843761316625 0.9179473340419622
4.404080069898332 1.0573260780706635 1.012401255706459
-3.726222842317706 -0.8945869560396331 0.7622529156871058
4.389817684538076 1.0539019822918507 1.159140762909355
-3.7304146371099858 -0.8955933169316821 0.4540696487356092
4.3809284066571665 1.0517678554890837 1.2135450852375458
-3.7371201808151615 -0.897203175543378 0.3024751492915232
4.366251529173741 1.048244248955692 1.3045583844808488
-3.740929411861354 -0.8981176910059974 0.15115802516808927
4.338043160031156 1.0414720186962665 1.5864077584214082
-3.7525852413579237 -0.9009160080875834 -0.1516289969439428
4.331037351953349 1.0397900729865932 1.6035763343550142
-3.7535944244628983 -0.9011582915151104 -0.3038085421356838
4.316841330001352 1.0363819096524833 1.6975021263424783
-3.7574439848775283 -0.9020824892024587 -0.45735968687890854
4.312462889541136 1.0353307391000888 1.7559416525058544
-3.151833222457808 -0.7566882088751667 -0.6051465048734238
4.322727645058103 1.037795088866863 1.9237650740603054
-2.872732554311048 -0.6896820668080602 -0.6239281353849024
4.278550754420242 1.0271891557825072 2.0705424120487868
-2.528959652795002 -0.6071494952067156 -0.6244017656967432
3.9938052523355037 0.9588278089883587 2.237042878249751
-2.257993210256071 -0.5420962079296143 -0.6254785078528396
3.7173318749732283 0.8924524236325347 2.200520030097533
-2.1004576670934183 -0.504275270216112 -0.6367888508736178
3.623132053221429 0.8698370473207947 2.283347243856641
-1.7596856788033 -0.4224631541381551 -0.6515275859165202
3.4238856613653996 0.8220022208128084 2.2932370847505585
-1.6043909213572785 -0.38518018147886607 -0.653273295996591
3.1891808451953083 0.7656545797965661 2.2478299760159532
-1.4838541475134637 -0.3562418623909219 -0.6603670224862367
2.7776389471558103 0.6668521116057676 2.233801947463135
-1.3733696001199254 -0.3297168693551525 -0.6646222442328222
2.581591101149444 0.6197851880162295 2.231716538268623
-1.1514903000723018 -0.2764483623341534 -0.6816387546216576
2.3676630400693552 0.5684256045797065 2.1982086026461936
-1.0133804805908229 -0.24329112825626056 -0.6787381147904603
2.1922416384934946 0.5263106521732792 2.1847960307233016
2.048001666907815 0.49168169878523793 2.1734257013807654
1.9547617237382104 0.4692967689323787 2.174737489003592
1.8899884944265744 0.4537460924176293 2.1530153214854058
1.7850278658421708 0.4285472749548167 2.1493868314697906
1.7435457257350415 0.4185882942339096 2.133136925328848
1.6835576216193147 0.40418642463823706 2.143828134162269
1.6306068354107914 0.3914740655929783 2.127189320272107
1.6116967261818635 0.3869341500352278 2.1195878435090107
1.3704387840458012 0.32901324266897947 2.109286330807534
1.24773752141749 0.29955527579961105 2.0939793968393183
1.1350296958329278 0.27249652089465115 2.084331604058654
0.471292214982496 0.11314725013711704 2.018854464265144
1.901117452103137 0.46432138637516557 -0.576903877143775
-3.7398149977974686 -0.9133975823760822 0.10585196624837584
-3.7034300432909486 -0.904511065395779 1.3556203919337482
3.0333148759172204 0.7534793308735293 -0.4950300611939378
-3.185009039162883 -0.7911603568452349 1.6721610897898715
4.409491173712018 1.0953232997469844 0.8482402124322933
-3.869334976959856 -0.9611478031879941 1.2954299427224807
4.293921124225009 1.0666155502654338 1.9768190728709116
-3.885166660208469 -0.9650804137440147 0.6340503271919767
4.281706757816853 1.0635814858821644 2.097249070319064
-3.909339938321393 -0.9710850872324663 -6.908768656536828e-15
2.521931260985423 0.6264509807811293 2.2193904306234256
-3.7050107836527095 -0.9203294614449647 -0.6046492995229203
4.047251600747589 1.0222332863876704 2.1269380781882554
-3.007511663534194 -0.759621302292145 -0.33013492818811374
0.7305940431965995 0.18452955819553285 2.0425528600743257
-2.9973283818945777 -0.7570492631694097 -0.1579588054648569
-2.985714523005876 -0.7541158964527848 0.1573467566523171
-2.9843841280000714 -0.7537798723571425 0.3275962157450885
-2.9626176013174415 -0.7482821988001243 1.1683692478505834
-3.107318190742156 -0.7848299041719716 1.7948302657912552
-2.1478808617550347 -0.5425003258199945 1.9999515494610478
3.202020645668025 0.8221391668040415 2.1530218241166246
-2.8880668488751833 -0.7415295326158947 -0.629710908819768
3.3134446423282653 0.8507479866441506 2.0963419247458264
-1.1546187444157718 -0.29645570642855334 -1.3957344192824412
3.4938844537701037 0.897077055895396 2.0763335906086104
0.1159574603178161 0.029772815468687607 -0.11331128300266298
3.009899199989157 0.7854226008088991 -0.4926846293961422
-1.6543951168575215 -0.43170858195267064 -0.653761804930818
2.985777936117918 0.7791282419132209 2.2419353913180986
-2.9583165357657255 -0.7719622861607771 -0.48424116198491557
1.3647892431048232 0.35613694866567647 2.1109480798211178
-2.940066202269956 -0.7671999258797655 -5.21143479082526e-15
-2.931570307234354 -0.7649829519774215 0.47986312311510804
-2.924941434094226 -0.7632531708664226 0.9821950948162816
-2.9262654073044043 -0.7635986570149764 1.3512308674014644
-2.9332961642180004 -0.7654333082819531 1.5446366768779345
-2.4181993499548518 -0.6310206078405548 2.018381008719233
-2.839711844247296 -0.7529359524397878 1.96299875016904
2.1967631408171844 0.5917040045597977 2.119669331319138
-2.7704166875800893 -0.7462191156988613 1.9663909602475738
2.298847161801717 0.6192006075825728 2.1493125259593033
-2.8467336967890966 -0.7667753054518446 1.9200697618874984
2.3624776707431843 0.6363396546893255 2.123118248970069
-2.86616553396977 -0.772009322566444 1.8189867338038186
2.5603412724460117 0.6896347429529769 2.1414764742863097
-2.8665121954689097 -0.7721026967648073 1.7087882428424321
2.7599393287978264 0.743397011197239 2.1460756708695095
-2.8706844218230487 -0.7732264970488723 1.6192478916348785
2.9563407776793347 0.7962982647030241 2.151802797623727
-2.859025802358272 -0.77008621683533 1.3650039121152313
3.131447410956394 0.843463702892449 2.112103949695056
-2.850607276354065 -0.7678186644275966 1.2228428576697334
3.342144262275206 0.900215461130301 2.083847608075718
-2.856735398487442 -0.7694692904506653 1.0914668451593663
3.697305702315226 0.995879141220422 2.124677688429328
-2.856279035281535 -0.7693463678053185 0.7967661130820951
3.713304413421257 1.0001884366803377 2.094538952704668
-2.8435003720837306 -0.7659044008282829 0.7069944007922225
4.296745159089465 1.1573397559194303 2.0939557605664967
-2.8602451779397 -0.770414658896828 0.6255803508979301
4.326238185135852 1.1652837810598657 1.938853752883722
-2.872368771527539 -0.7736801811291939 0.31659535322122795
4.337130685936056 1.1682177051700242 1.7783927593304965
-2.8758374587427467 -0.7746144812718302 0.23439990677479566
4.345329488640568 1.1704260745216017 1.620171114182289
-2.880008024362711 -0.7757378342327208 0.15239944929795754
4.369164368614848 1.1768460629431743 1.3145999635484429
-2.8867548418375826 -0.7775551074943391 -0.1527564661045143
4.380698450887685 1.1799527987322778 1.164859422915104
-2.8902691838187526 -0.7785017048698202 -0.2355761884878539
4.38937133822298 1.182288864042205 1.0161089002407242
-2.896360603124321 -0.7801424448884354 -0.3192397568486905
4.399058209969989 1.1848980487548686 0.8690733452088752
-2.8727338688974724 -0.7737785210784719 -0.5554348916002446
4.418167381632124 1.1900451550524094 0.5780367780844362
-2.510378126014289 -0.6761770363505988 -0.6241684708002352
4.422947006726242 1.1913325598053095 0.4329925029825687
-2.239445538049389 -0.6032006219680504 -0.6246988808762525
4.431970181597425 1.1937629759962587 0.2887737290195452
4.441436418843806 1.1963127322183669 0.14455235764301086
4.4419502918047185 1.1964511452694406 0.12648818964406694
4.456878095972249 1.2004719890923787 -0.3632652488848546
2.199828602737894 0.5925296948950948 -0.5469549151838461
0.730304681386482 0.19670951159732253 -0.645969380382795
0.6979055853402298 0.18798272876011887 -0.6525084579059577
-2.788340109980143 -0.7628035356750991 0.6105040516143101
-2.779695190839355 -0.7604385534182302 0.7762298966799408
-2.6355040258972973 -0.7209923144041179 1.9851651347052532
2.2539759128592 0.6261420916831678 -0.49404014540638364
-0.7854357864056335 -0.2181897345828314 1.968015209584529
4.397529352295763 1.2216094285549703 0.23320162898830235
-2.187396242902021 -0.6076466261492607 2.0014755192776015
4.406978169873737 1.224234258025619 0.3599706817683681
-2.3329676257864946 -0.6480855543775903 2.0030836655614808
4.408232873704903 1.2245828078378895 0.486924920224142
-2.470820229778115 -0.686380248351402 1.989140906721364
4.2879134382757185 1.1911587315023968 1.8433695294813046
-2.7135022341775508 -0.753795972264695 1.3252298884763223
1.2383855626912543 0.34401668718372685 2.0973873550341136
-2.711614227172829 -0.7532714943196094 1.2178552208039357
-2.7095271264849328 -0.7526917092461233 1.1134015186240993
-2.713798107725236 -0.7538781643063067 1.0140254158003539
-2.7065687254441975 -0.751869881734518 0.8280835799530698
-2.7531511503088564 -0.7648102227443883 -0.11226783483570917
-2.760084569416172 -0.766736288376946 -0.3390481289679817
-2.0804037379242133 -0.5779246976765441 -0.636506348001682
2.898727873098287 0.8175258111841801 2.064157035152783
-0.08917478789780135 -0.02514989126433822 -0.1363353958910675
4.353372997996714 1.2277781659340656 1.4696752415308256
-2.6813112247049227 -0.7562079746627688 -0.441244394103564
4.323367893857178 1.2193158513687727 0.7114660279773024
-2.6762585218243746 -0.75478296507169 -4.769174070408676e-15
4.318609394490953 1.2179738157501498 0.58476036285089
-2.6557253797955127 -0.74899202010266 0.35959791563983196
4.356089943803241 1.2285444239002024 -7.762684747732195e-15
-2.653759793332743 -0.748437667387339 0.43671045021427624
-2.6303514877762635 -0.7418358424398822 0.8879924738558936
-2.647691505332426 -0.7467262331695917 1.4016924146498266
-2.056088924871024 -0.5798770494366522 2.0061151364164926
3.222883628620584 0.9363342502358925 2.1857564567454912
-2.5590982817488004 -0.7434867798645374 -0.5627996024492183
3.285087017371104 0.9544060052476544 2.0963419247458264
3.488111914052039 1.0133901903186886 2.0907968809078703
4.128417538447588 1.1994161707220947 1.2673383437932868
0.6645518053229111 0.19307014713598603 -0.6549922261576456
0.6911575461660775 0.20374646746859276 -0.6505079733344981
-2.5139880088604887 -0.7410990141177631 -0.2789418265146953
0.7232896645148835 0.2132187008865273 -0.6440301598513914
-2.5143616698123243 -0.741209165702434 -0.13393791866861524
2.852010782223414 0.8407448132248704 -0.23400781422180317
-2.495215766198068 -0.7355651410519941 0.1329180325830392
2.8624559905105955 0.8438239582075043 0.11725114048497112
-2.4949246811916828 -0.735479332046344 0.2768266376511581
2.8644354088031396 0.8444074713109722 0.23502725626828302
-2.484303559034367 -0.7323483293797168 0.483535677095202
4.32074581369431 1.2737134988299623 0.533151513494472
-2.480189855975335 -0.7311356500548046 0.5460731997964987
4.25061121371448 1.2530385064603076 0.8273232809322135
-2.4726508251891177 -0.728913217702949 0.6943510767252455
4.232390359220508 1.2476671772199641 0.8417217248385993
-2.4518798803540762 -0.7227901468349535 0.9773947288343569
4.056217356682171 1.1957331035349805 0.8930734014967098
-2.4649269462709182 -0.726636293934312 1.1481811032606897
4.058946243346013 1.196537552565399 0.9458828040133206
-2.4735902799265417 -0.7291901597477236 1.5803094121025858
4.06284374739349 1.1976864985416429 1.016901536765818
4.066527027285563 1.1987722933374472 1.0885287892759317
4.065981992914053 1.198611622549057 1.1417782672607641
4.061192571930969 1.1971997482058827 1.2300844103509645
4.056527869960365 1.195824639804656 1.246701676854127
4.061200086496635 1.197201963426157 1.5243288084295583
4.074792447995054 1.2012088583160718 1.6819642637302021
4.118918349806115 1.2142167414937075 1.8582489963153175
4.079121015792566 1.202484877659033 2.001154381231185
3.9093560424890823 1.1524398281585917 2.2198274202126376
2.4691956954551473 0.7278946793366189 2.198616372480477
1.1196458185326472 0.33006060862307696 2.084331604058654
4.119578312886334 1.2320151568730597 2.0440227927378
4.126092144994283 1.2339632057452505 1.9242064384788322
4.064628756165181 1.2155817548104872 1.0185352580676614
2.8027465938066154 0.8502038842230129 2.1279431115886336
3.9639163152364794 1.2024408683240242 2.1105978783241093
4.302374644767221 1.3051110801264558 0.712091626544852
2.9436781158458767 0.892954994049358 -0.4872119958420392
2.8029315828171772 0.8622943476829648 -5.029725634651456e-15
-2.3959141370858545 -0.7370794316236513 1.8212452770534506
3.9787987442847386 1.2240383207343488 1.3525837282224074
-2.40976241585564 -0.7413397184538857 1.2846246615149128
2.542549836887928 0.7821904631889498 2.1483850693573143
-2.408953619370544 -0.7410909001659906 1.1981083996920798
2.3116979821293535 0.7111711594247196 2.18347269765884
-2.4131903031094857 -0.742394274270234 0.8203586426125616
-2.4217609860276466 -0.745030960617278 0.6083046886849546
-2.43821495467339 -0.7500928623230334 0.40403654871691885
-2.4352888238591337 -0.7491926669428886 0.20052603867278473
-2.455235805464354 -0.7553291597481214 -4.405802319814836e-15
-2.4523986967963065 -0.7544563511561397 -0.07054960065047029
-2.461949905823076 -0.7573946867215923 -0.20272135986040085
-2.457379277440493 -0.755988577830522 -0.3350602289079182
-2.4580259040618415 -0.7561875061540203 -0.40731942072227484
-2.4412649142501675 -0.751031152404689 -0.6132037398522696
2.195443290748896 0.6943275411508313 2.179384092514465
2.545360148152465 0.8049917119048708 2.054028982259433
3.807634863418942 1.2041967849764124 2.034798233223406
3.763239756660711 1.1901564563355136 0.6251360998463658
2.662610886873517 0.8420732514086932 -0.07678479253480866
2.664905250887601 0.8427988634666845 -0.14281134244504626
2.662872036708321 0.8421558422564893 -0.29723905105173876
3.5986175764244175 1.1380932971074904 -0.491870090296458
2.166890799045615 0.6852975737444285 -0.3599562479405721
2.153829761115673 0.6811669098420687 -0.42173570049096837
0.10022063669704386 0.032563658831872 -0.11399750919875656
-0.5790502597169606 -0.18814483449082287 -0.7016368847032926
0.11007490466098445 0.03576550458531324 -0.11393570136543296
-0.5906415803310463 -0.19191108286368985 -0.6988767129173287
0.6464261710397089 0.21003659513122325 -0.653511923457119
-0.6067885981051931 -0.19715756697393305 -0.6902010511397775
0.9640752963871483 0.31324705244776174 -0.6211892682820758
-1.048156561646068 -0.34056671161457247 -0.6753659283812946
1.4222213503446337 0.4621077291299328 -0.5852929841560234
-1.3740523814443415 -0.44645668238700287 -0.6660454067097255
1.5883095733891692 0.5160730641094267 -0.5791220006017916
-1.656490315208023 -0.5382263300301491 -0.6425607000776672
1.795033104012231 0.5832416108836658 -0.5725394124722252
-1.9508769687947995 -0.6338783520885877 -0.6310541081234413
1.9699485233097416 0.6400750757882645 -0.5579172993055644
-2.104786580541302 -0.6838866163845865 -0.6335523232561727
2.0384095308472174 0.6623194055611399 -0.5592893612150734
-2.1868589315599603 -0.7105535397466898 0.9524424815230986
2.4135638786977873 0.7842144423052012 -0.37135173612794076
-2.189465808819759 -0.71140056551406 1.1054721649121297
3.464179584084384 1.1255801781569352 -0.47468839437376487
-2.19767536294191 -0.7140680113456371 1.6105188214643846
2.5554402644261764 0.8303128744586921 0.31802136006503595
-2.190130314166287 -0.7116164763893991 1.7718248213356242
2.675173325105629 0.8692165041636961 0.3890634261052214
-2.1511616560302373 -0.6989547918252296 1.9318153971355023
2.4535112682780285 0.7971941359929108 0.38785173194309497
-1.9754238182872388 -0.6418541069691459 1.981439134445039
3.7371525424242646 1.2142744688605274 0.8298610660377645
-1.717991142524335 -0.558209160159838 2.0009400210205155
3.7101705160017633 1.20550747703158 1.0507727941911
-1.5260293824688043 -0.49583700339426007 1.9867813140622395
3.681242779566505 1.19610828569633 1.376387142768366
3.6600378232866397 1.1892183777432443 1.4714821718760054
3.605128886738889 1.1713773827596772 1.8570236232099793
3.5913979390531967 1.166915927408652 2.114784400766296
3.4188172779111015 1.1108410714146881 2.1450318259445016
3.2747530403255665 1.0640317631003708 2.1851713735979574
3.0438474427924125 0.9890059864914206 2.138499451412186
2.8727683828087507 0.9334190302897178 2.1406886117853285
2.700922863109493 0.8775830362300492 2.1322710198409736
1.8134810559349845 0.5892357138185261 2.1458016528387946
1.3703870545124375 0.445265745473689 2.1024278196248463
1.2233676077217317 0.39749623148212293 2.099091337301623
0.22449675853504256 0.07294341858847825 1.9943752061966387
3.5660146409874804 1.1897124888851554 1.915427830552126
-2.137038240464157 -0.7129698949304794 1.6367793033016633
3.7525111941083824 1.251932446097818 0.6265436046268634
1.858226627466747 0.6199513037512212 -0.577468771407355
0.10771707866622242 0.0364078420620446 -0.11370356194948365
-2.1160103944548623 -0.7152010915713407 1.138081020478833
2.4600551169111173 0.8314865132757285 -4.453792619979143e-15
-2.13168042689364 -0.7204974853577518 0.7311182744205669
2.7853842119915235 0.9414461451051191 2.136169222569941
-2.1530181884128594 -0.7277095436587064 0.3599562479405643
-2.157139434084179 -0.7291025043976924 -3.905380666370344e-15
-2.1679762292736684 -0.7327652877984585 -0.36245703511170524
2.1913524165737033 0.7502676270336591 2.0910404286387845
-2.133341219976371 -0.7304059550893102 -0.5413569801155254
2.260718676140554 0.7740170059869516 2.040868869328036
-2.120291501577155 -0.7259380378420488 -0.17638002594888186
2.390182266281268 0.8183423001876915 2.0403618830192993
-2.1127530580014713 -0.7233570517212043 0.1757529278010462
2.123490841536424 0.7270334167419191 -0.474013772850009
-2.1011711711077896 -0.7193916855251632 0.5331935038077483
-1.9628304721603198 -0.6720270776526501 1.963648936154458
0.10318951741822142 0.03578300567300787 -0.10921767256264008
-2.014239253899013 -0.6984772916123464 1.8208211612221077
2.261921947547886 0.7843661634056128 0.3791817834568789
-2.0368239365108103 -0.7063089769059762 1.5662888880403374
3.348926606630203 1.1613065237804365 1.806046162541066
1.8383111008981317 0.6374707256899677 2.155240907695241
1.637020162002583 0.5676691122253755 2.1453831285395832
3.3047251887484386 1.1605368830796132 1.6650196905332526
3.2633143799169697 1.1459944421012518 1.5453352375779712
3.4171840804446094 1.2000296348787696 1.5001862670244175
2.0724140035354783 0.7369346727482616 2.081819513322772
-1.9377133802931343 -0.6890361546246032 1.8566294820057911
2.1243423562656276 0.7554000004097545 2.035448941328851
-1.9554588409920017 -0.6953463056130533 1.6761402794684268
2.252875578113203 0.8011054374594618 2.042167159567008
-1.970536398075851 -0.7007077703476452 1.3620744929821866
2.3789103852347346 0.8459224572163957 2.039105827415365
-1.9649277590676384 -0.6987133809326781 1.277971248874972
2.504875526529792 0.8907147043347803 2.045495273050979
-1.95566769809579 -0.6954205736121928 1.1947464502653289
2.8761120157373483 1.0227235791154319 2.0396402020093074
-1.9673905547982995 -0.6995891323813389 0.9329471853992404
3.1412840235051336 1.117016730210233 2.0430627274026203
-1.9661193569551965 -0.6991371040873265 0.7978859466706195
3.2374476624143544 1.151211789522201 1.9242736418692952
-1.9843312849728854 -0.7056131273099716 0.5672710692831964
3.2466188772572537 1.1544730038343154 1.6214570451463162
3.2592914967597526 1.1589792910385155 1.4969388571659923
-1.9895209538156151 -0.7074585341175711 0.44593810874696604
-1.99671357280453 -0.7100161747780551 0.22554143683968353
4.308304053150368 1.5320001853355663 1.8104133831089266
-1.9978538355615556 -0.7104216435503479 0.10834269752596935
3.703894073329946 1.3170765890247478 1.415281933818927
-1.3934631291697677 -0.4955049007243032 -0.6607877125087885
3.698271535538962 1.3150772573082352 1.1570896493932317
3.7029205988325433 1.316730428890263 1.0585731039357227
3.713364876791345 1.320444334773224 0.9461860549478116
3.7207979052989657 1.3230874632318463 0.8339925134925052
2.3681131103815427 0.8420830283199805 0.4692307213455915
2.271137748572376 0.8075993265125394 0.18970676009591728
2.2786462368180813 0.8102692878806557 -0.19033393956982922
1.9177305863690266 0.6819304249412715 -0.48864843563048793
0.6904491442746228 0.2485769875248727 -0.6521000386777326
-0.07663156458892062 -0.027589060878400098 -0.13771872432063123
0.759782377018511 0.27353848725841656 -0.6417573026935326
-0.09457631546164112 -0.034049568724363974 -0.1306443547321696
0.8446101006325145 0.3040783469561419 -0.6309002590124317
-0.09648738551669322 -0.03473759628030067 -0.12697828098072464
0.9340222526575918 0.33626870244113527 -0.6191104839194638
1.05565710756094 0.38005994479492883 -0.6110928813351905
-1.7178410001598534 -0.6184608155537263 1.9751173427911597
1.201775681794607 0.4326658684978158 -0.6071840387264286
1.3838800705344274 0.4982274826201127 -0.595749381820622
1.5903314480739634 0.5725545520714814 -0.5787047348771168
1.8912569033917186 0.6808943824163006 -0.5583924832652125
2.0237685279058995 0.7286015027841125 -0.4719288035268895
1.876777229870256 0.6756813791789801 2.157857016410336
2.2102995804649974 0.8055756163520066 -0.2784397438142423
-1.4935930357223206 -0.544361561195229 -0.6584757659434969
2.126797068899221 0.7751419195734959 -0.4502679560457278
2.200203900690427 0.8116980725777152 -0.09214138245246516
-1.5901476373646903 -0.5866364349040158 1.984481842856366
3.0990128498772957 1.1432862001333683 1.683053184210175
-1.140204783600479 -0.42064375256401754 1.9832256263177535
1.7180218579072446 0.633811725482395 2.1440670680727245
1.3264350403429654 0.4893477215034797 2.1159333380826792
2.1263244417357736 0.7939428260315917 -0.35948735369970797
-0.6803427470596577 -0.25403143220688634 1.9685105480982914
-1.9370528855457627 -0.7232712054362848 -0.4112868609444952
1.5122350092695995 0.5782225768281293 -0.5972846292895975
-1.877543059205878 -0.7179028253843699 -0.48258532316365804
1.897503028407737 0.7255347772665517 -0.487715638625871
-1.8616926263135998 -0.7118422077590438 -0.15686375101438033
2.115414602987464 0.8088560807688577 -0.3587058656763695
-1.8514616433686772 -0.707930259361053 0.1560017019636216
2.1193652120072732 0.8103666471249281 -0.17857490126237774
-1.849969018081224 -0.707359534814498 0.41827875949730936
2.11569304478358 0.8089625465839327 0.11573477644521224
-1.8476039699969717 -0.7064552281497162 0.4748900721970943
2.11378318093544 0.8082322854876791 0.17810456672925137
-1.8455250735720397 -0.7056603352657301 0.5321961048801209
2.113052033078069 0.8079527216662227 0.24076649487996643
-1.834052158340271 -0.7012735180260948 0.7507890072468395
2.3283483521373713 0.890274048460666 0.465379490025768
-1.8268229723191993 -0.6985093454313251 0.8738526890454402
2.2818451486474944 0.8724929483089995 0.5159261310933589
-1.8174169452820106 -0.6949128295737897 1.1199807169302314
2.308578974685574 0.8827149717944095 0.5933745833870022
-1.8213964016363624 -0.696434426080605 1.1949624422030538
3.660952737945015 1.3998125376048431 1.055712986610092
-1.824438978604319 -0.6975977946601088 1.2720993397665847
3.6402873034304886 1.3919108419536932 1.1488918820039393
-1.8227015706323513 -0.6969334742942961 1.5383587737658728
3.6286083176336805 1.3874452309734056 1.3814113826984464
-1.8143608260501203 -0.6937442829348576 1.5687748923251943
3.6094127887664857 1.3801055727211287 1.4775520053226665
-1.8131461496391683 -0.6932798357291998 1.657914687014972
3.592546965209419 1.3736567073677164 1.593152080960347
-1.8100823267341295 -0.6921083434913947 1.749481354949048
4.230669981630448 1.6176512800542193 2.023722274095431
-1.796189309284792 -0.6867961689284251 1.7776163780625616
3.1071329057803645 1.188052375665836 1.5813274988096648
-1.46637194235922 -0.5606862411609904 1.9914206651620368
2.9511699025630853 1.1284179081013628 1.7694307646477534
2.9500877114736492 1.128004118368604 1.935462271281884
2.9148811832053423 1.1145424478136383 2.085181723451701
2.5527543514782987 0.976078579105195 2.102793577225447
2.4287765078715906 0.9286740502056227 2.100025281582527
2.295850597899873 0.8778481126232136 2.0992926721366554
2.15584995963082 0.8243170613505588 2.083672799152057
2.0490524824329315 0.7834816673241153 2.0763230483724024
1.566344464482796 0.5989120255132594 2.127189320272107
-1.8009148161090618 -0.6967213971428053 1.323413057167807
-1.798684153943557 -0.6958584190349003 1.0504134305170498
-1.8147940200762789 -0.7020908562048179 0.6919364814265558
-1.8276100563272366 -0.7070490066974059 0.053881203956161854
-1.8384555940800764 -0.7112448288142171 -0.3680174208929634
2.2152762760906874 0.8670424212282662 2.0317808593400026
-1.8016237371461503 -0.7051419383022289 -0.6286229049270428
2.904277809860676 1.1367124233483379 1.5891105278602942
2.843283901541382 1.1128398678029587 0.9920791721752401
1.9417615740653609 0.759990830397318 0.33026190696961694
2.0562043930231155 0.8047828863193115 -3.787145586587348e-15
0.70322060983946 0.278424735799257 -0.645969380382795
-0.0920827443361268 -0.03645813760963275 -0.12871896673592667
0.8110890631984 0.321132877749752 -0.6337982379181127
-0.09487681450742047 -0.03756438824899418 -0.12634993788840324
0.9440843295957863 0.37378942875399174 -0.6222308587360791
1.1154296251120972 0.44162983042462184 -0.6112649542558496
-1.7736497528540451 -0.7022376149520807 -0.3021355430054479
1.3331461972584362 0.5278299193167874 -0.5939139609483888
-1.7679002471924166 -0.6999612246239009 -3.261180587540993e-15
1.6425159669261997 0.6503180762035549 -0.5739936394729456
-1.762643506634126 -0.6978799338018905 0.30026066428558357
1.7363810964181625 0.687481910018848 -0.5266966027975635
-1.752028068963906 -0.693676984702604 0.6122637392958283
1.764201181708117 0.6984966609922825 -0.45553661218645647
-1.7390516857714202 -0.6885392711438069 0.9530151658333332
1.775149082282326 0.7028312414671445 2.0653839792372675
-1.7353355801564307 -0.687067960847182 1.3560195579048397
-1.7033110620167455 -0.6743885571474297 1.831957559552075
-1.6654001486367571 -0.6593785647011878 1.9376912172307714
1.1946104991359465 0.47841485072564116 2.0999433292256544
-1.71460094465333 -0.686659422115982 0.8691256748096061
1.9832577006009906 0.7942504585969872 2.022046266044709
-1.7169715532992655 -0.6876087979856018 0.8003673069871746
2.448853503569198 0.9807111893009546 2.029647033658012
-1.7204953801846425 -0.6890200120294847 0.7337874827129378
2.2412102192754357 0.8975546868832764 0.5796113672705339
-1.7244672334867086 -0.6906106506568754 0.6687822439553727
1.759837085713393 0.704775487300659 -0.05212431532317063
1.757282667627486 0.7037524998514912 -0.09672148163052598
1.7524594543071956 0.7018209105323671 -0.2009111011090335
1.7494176063335043 0.7006027182886891 -0.24558882258126147
1.7479175492072279 0.7000019788789262 -0.3515202280651632
1.732466238764386 0.7017210706744382 -0.3947508967856827
-1.682427771147166 -0.6814534046815384 1.6003118608948435
1.7339326161378354 0.7023150146587339 -0.37211866773692565
-1.6903681374934043 -0.6846695841656498 1.5087491906428694
1.7400207370344356 0.7047809574969649 -0.22219729215227005
-1.7012618243123367 -0.6890819815948922 1.4237735872598267
1.750314631801759 0.7089504141339311 -3.2389126007818404e-15
-1.7313914871892588 -0.7012857514692957 -0.07339491041422189
1.7524292993564117 0.7098069426753644 0.05198706461271983
-1.7381822505889999 -0.7040362938215448 -0.22196252097906544
1.7535810349542373 0.7102734436199465 0.09667051844842305
-1.7534717557557677 -0.7102291809876224 -0.5576982268578915
1.757053723498317 0.7116800272916771 0.20175666406544504
1.7576678888534378 0.7119287898712433 0.24713759456214834
1.7616795761811364 0.7135536905266301 0.3010418602156138
2.739224726751246 1.1095002402151823 0.9602651265754769
2.748068274515901 1.1130822458364868 1.3247266407084903
2.725071859681437 1.1037677388762688 1.397645211843237
2.7305367585860574 1.105981250819343 1.5010714449507154
2.7140465269921665 1.0993020193798966 1.5948641069097504
2.7491276337435124 1.1135113304990305 1.7072922334029625
2.734104117763852 1.1074261800455008 1.9211608285035828
2.7341919328770703 1.107461748828251 2.021772477078522
1.7514511018061547 0.7174298458434177 0.3533531580092286
0.7877413915746722 0.32629316803288455 2.0584674562632905
-0.053508176945210435 -0.02216381258856577 -0.13982360462932925
0.8788007573602973 0.36401119232238305 2.0633276716815985
-0.09150889167523701 -0.037904224009614 -0.12769257044401114
1.0734660801553766 0.4446442091478414 2.0747419362482504
1.106564927160953 0.4583542004764633 2.080827356818162
-0.5651465873994761 -0.23409138122973724 -0.6938490902095932
1.1787620673723356 0.48825923511656993 2.0820516102747018
-0.6001016922608992 -0.24857025973751257 -0.6916955868874911
1.2513392733291546 0.5183216981430299 2.079689553817634
-0.9605293999162742 -0.3978643045034156 -0.6771058019973651
1.2887617768058799 0.5338226066210437 2.0876837661160432
-1.0900738861749448 -0.4515233876424126 -0.6791506114930415
1.518996431953276 0.6291889233113878 2.0855941931486757
-1.6973838174145834 -0.7030793977257453 -0.4410811001082429
1.631249245439474 0.6756855610719087 2.0673122458429174
-1.6878052762287101 -0.6991118360588074 -0.1437775720236305
1.7250315913601735 0.7145314806634274 2.019883108486805
-1.6822867002523667 -0.6968259670444195 0.1433074659835008
1.9844497320582712 0.8219859928661915 2.0170620437819062
-1.6767487218047916 -0.694532061263304 0.43571887703351103
