0.3464235879822824 1.3492307940731676 -0.10963102669487168		110 144 0
0.34787483903307675 1.3548830437339583 -0.27824455820359867		114 140 0
-0.13951775211873732 -0.5523821745138664 -0.136779860078401		0 255 0
0.2988093632406194 1.1830535062769798 0.7946838149386699		118 136 0
-0.13755014360673548 -0.544591969669349 0.11862354136268848		0 255 0
0.37593591901550905 1.488414895381358 2.1129622060038993		241 0 13
-0.136911848120897 -0.5420648142135344 0.15059177612262548		0 255 0
-0.13613251695414286 -0.5389792667615392 0.23026351823274943		0 255 0
-0.13515926694349512 -0.535125950971519 0.32641107388709145		2 252 0
0.34189870892354157 1.3763966672215877 -0.15093868721345324		114 140 0
0.03714470182836176 0.1547188179857534 -0.2596523800914859		0 255 0
0.33905592589836525 1.4122695701922638 -0.4096190183843514		126 128 0
0.3430017655103303 1.4287051750207955 -0.35274822710481996		126 128 0
0.3317602139216611 1.3818807427730517 0.05583702366398143		113 141 0
0.32611676391349625 1.358374081751526 0.1099441236278106		110 144 0
0.3264766962589178 1.3598733078671583 0.16552508374954814		111 143 0
0.30309638624552265 1.2624873079437202 0.7271171693241206		123 131 0
0.291828935833324 1.2155549993322836 0.7660593422240086		120 134 0
0.2905875344915462 1.2103841906087869 0.8317337289796756		124 130 0
0.2775687694183245 1.1561571314424346 1.2862632956196791		160 94 0
0.25935967282787414 1.0803107856006775 1.3008232649462668		154 100 0
0.25344264729649374 1.055664600515199 1.377155065978567		161 93 0
-0.12269227258964774 -0.5293307181176062 0.3329738685000472		1 253 0
-0.1265667857269905 -0.5460465126665027 -0.04411411061654827		0 255 0
0.3029242294971684 1.3306382775540042 0.5652704534040839		121 133 0
0.3381664160303463 1.4854446542627484 -0.04188859261676359		128 126 0
-0.11649130645682369 -0.5211521469267141 0.4820946123673849		13 241 0
-0.11638605093597289 -0.530457621571709 0.34464619374659416		2 252 0
0.29883011158402145 1.3619906249080493 0.4530641257849295		120 134 0
-0.12002994224394405 -0.5470655389376445 -0.05960796147982364		0 255 0
0.2884926645686241 1.3148752058968158 0.5147185399885075		116 138 0
0.2868217212069396 1.3072594767411991 0.6819259202539628		125 129 0
0.2482073265757282 1.175286389672968 1.299461436628117		163 91 0
0.2851565389352461 1.3502445868961606 0.6560230970477237		128 126 0
0.29892102530743897 1.4154207995296004 0.039776637466423626		117 137 0
0.3247993041432632 1.5379570248840393 -0.0803156375675737		135 119 0
0.3137580357667569 1.4856755204391041 -0.1616048976973856		128 126 0
0.12422320691869035 0.5882092458238601 -0.665926781253136		39 215 0
0.11182849312947432 0.5295190426726128 -0.6701163865862932		34 220 0
-0.11227380997452491 -0.5421497218017932 0.028289056966298555		0 255 0
0.26406544650582464 1.3008281670361141 0.9020729016033806		139 115 0
0.26696511934130535 1.342124287484645 0.7876699956193052		136 118 0
0.27629005181585525 1.389003888775357 0.4601564997199622		123 131 0
0.29327768716841474 1.4744064988611132 0.23809803511423597		128 126 0
0.29951199525082567 1.505748482089897 0.12082662531428869		130 124 0
0.30316414608235687 1.5241090841964542 -2.6652488392302176e-15		132 122 0
0.3094663384288847 1.5557923446671273 -0.42726662127362725		145 109 0
0.31295989102429955 1.5733556195978753 -0.5212295088440823		151 103 0
0.15700500152120064 0.789317444608817 -0.6499564609522198		58 196 0
0.30760415764662147 1.6125174646972809 -0.3265334718597255		149 105 0
-0.10328693536783944 -0.5414490767287988 -0.015156064523850541		0 255 0
0.29634701011596026 1.5535054307418794 -0.20610513397491537		138 116 0
0.2793015512975147 1.4641500063912827 0.43940004805098426		132 122 0
0.25643602917966546 1.344284741771512 0.8684924271281039		142 112 0
-0.09706008178350888 -0.5198904463879749 0.4271279249577238		8 246 0
0.2490851033431905 1.3948303885498563 0.868275185911913		148 106 0
0.2509987458864597 1.405546431927593 0.8443878594929201		147 107 0
0.2556021408637336 1.4313245901498959 0.7408336272187622		143 111 0
0.2669872514500539 1.4950790981861324 0.4934655993380754		138 116 0
0.27889152733746847 1.5617408356348368 0.29617913209741153		141 113 0
0.28584955761971853 1.6378441149914382 -0.0849510764883136		148 106 0
0.2871753129865718 1.645440350730266 -0.17776780304577902		150 104 0
0.28945577515907617 1.6978463361983682 -0.13555136622268016		157 97 0
-0.0907546264069655 -0.5323348959040083 0.12964627410227075		0 255 0
0.256468003025342 1.504351602759981 0.6321134539761586		146 108 0
-0.09139598892965055 -0.5360969041372775 0.04280049745035553		0 255 0
0.12251768281520532 0.7735462054489866 1.3606324578787123		134 120 0
-0.07141594436425355 -0.4509025269017695 -0.7009733761878271		30 224 0
0.1942193256499305 1.226252561501426 2.080634640910142		254 0 0
-0.07520966733116319 -0.47485515103035353 -0.701496323211944		32 222 0
0.30739493283557373 1.9408152227940556 2.1090570467006984		221 0 33
-0.08499702350807357 -0.5366500859169876 0.014939587680313804		0 255 0
0.2110211053554622 1.3323348235664643 1.3920007223441648		187 67 0
-0.08359550758474141 -0.5278012626332078 0.20432723331568217		0 255 0
0.2368367890601964 1.495328635659603 0.8323110036062512		157 97 0
-0.08340289867507786 -0.5265851778380795 0.23821000603214193		0 255 0
0.2747986206821453 1.735010207562524 -0.42173130987044005		168 86 0
-0.08319869836362144 -0.5252959078123244 0.25282243932496423		0 255 0
0.2763568629635265 1.7448485621268257 -0.4982322546131536		172 82 0
-0.07132643178487152 -0.4503373667181138 1.6166798682071328		150 104 0
0.25561373757664996 1.6138816227963382 -0.6028140051146403		159 95 0
0.023059724441324772 0.1455933701194048 -0.2632162982909003		0 255 0
0.2647730059049102 1.7611230536045341 -0.04896779969244345		165 89 0
0.2621558168242473 1.743714964702704 0.09009688994110507		162 92 0
0.25718566673613835 1.7106562853629121 0.18410759401461665		159 95 0
0.24782787897693384 1.6484134759150635 0.3520388541388748		153 101 0
0.2444340988438479 1.6258399344363328 0.44284588618892795		153 101 0
0.25877512111872386 1.768436760109106 -0.28307571811230453		169 85 0
0.22904602547481315 1.5652718447408673 0.7068082981089798		158 96 0
0.2174857599909388 1.4862704386168042 0.9782720109943728		166 88 0
0.19988384123853237 1.3659811309135026 1.380528159799718		189 65 0
0.2036684076734078 1.4310488215990813 1.3049365693073582		188 66 0
0.2326325537338735 1.634561519331362 0.6312936990533051		163 91 0
0.2501388977383814 1.7575675036386182 -0.09070833474241956		164 90 0
0.2514370748230153 1.766688971265406 -0.18991965725965448		166 88 0
0.2497430037343272 1.8055874343330898 -0.28869958272260354		174 80 0
0.2040000488343922 1.5187978058235 1.3088247419350258		198 56 0
0.2775628575385103 2.129839162968665 2.1478491567146865		210 0 44
0.2132505423127609 1.6363477468486871 1.0112345215559724		186 68 0
0.2283721033312415 1.807751341297605 2.1334275873478283		227 0 27
-0.06741955963262 -0.5336807673868491 -0.02748529607494774		0 255 0
0.19825452605806623 1.5693461686953838 1.2775072390004736		200 54 0
-0.06778340796469774 -0.5365609235037653 -0.10757687936298405		0 255 0
0.29341350687934614 2.3226070648682873 -0.46566719468380546		251 3 0
-0.06476747674605572 -0.5293983199976071 0.09957204798366041		0 255 0
-0.06445920954056457 -0.5268785963817365 0.15647669149178997		0 255 0
0.46487982770042857 3.927749832384596 -6.783600786054629e-15		145 0 109
0.2121577462315838 1.7925117472233751 0.2858876121487908		171 83 0
0.20428914541449503 1.726030274595706 0.5647357224798938		171 83 0
0.1927872908097802 1.6855332307914854 0.8064755349047117		178 76 0
0.19626902421809164 1.7159739166676942 0.7154138574619667		177 77 0
0.198985622774466 1.7397250525556254 0.6226664142535584		175 79 0
0.5044890036512271 4.410731519963308 0.5785588163680134		108 0 146
0.6043038176824861 5.283409305248231 0.14621904510282185		48 0 206
0.1846333859941333 1.672388288831495 0.9684858925950366		187 67 0
0.17905559273460028 1.6824125447947336 1.036806213247089		193 61 0
-0.04554266390262747 -0.42792044584009825 -0.7022463654563575		28 226 0
0.18613006422908615 1.7488845237390462 0.8360619126692257		188 66 0
0.18729442606090513 1.7598249077986272 0.7907269388721171		187 67 0
0.1888401503683259 1.7743485868743958 0.7391099308395895		186 68 0
0.19032635707345877 1.7883130364997126 0.6876462472000572		185 69 0
0.1898967077871952 1.7842760369397863 0.6380581982656716		182 72 0
0.17476989903619408 1.64214401851623 0.4868218409667395		156 98 0
0.5506773055958895 5.174183017234845 1.4015507872568125		43 0 211
0.551356502724613 5.180564776957071 1.2507676037757953		46 0 208
0.5591346767611839 5.25364876933546 1.1157777653740804		43 0 211
0.2748816736318534 2.582797716561 -0.13271405663544988		241 0 13
0.3449007349177099 3.2406992391159704 -0.34684856154580446		193 0 61
0.1725828111724617 1.6844242436058547 1.1507263535874441		202 52 0
0.16606501248445504 1.6860863671750923 1.2309407678904922		209 45 0
0.4288041427450245 4.353721524202857 2.2290654761261397		77 0 177
0.16306797665078102 1.7250790017757636 1.099648704188458		203 51 0
-0.04801023157765106 -0.5078951984690887 0.4357172076426468		6 248 0
0.41502189765411107 4.390473075246855 -7.563776242197471e-15		113 0 141
0.306404618131904 3.2414222807120194 -0.42430862363511834		193 0 61
0.22247793244486472 2.456495630549266 1.4587134011406826		223 0 31
-0.04693553178990216 -0.5182398429020741 0.2860708322853497		0 255 0
0.3771001640445246 4.35403344356911 2.226795957998694		78 0 176
0.14849146223089676 1.714496185054607 1.250317606481541		214 40 0
0.2839142433770767 3.4349618825087926 -0.2712592267910491		180 0 74
-0.043154502506449526 -0.5221086107026207 0.1411109051193431		0 255 0
-0.04333146768673778 -0.5242496397739032 0.11109320008464017		0 255 0
0.16538220532968084 2.101380160639054 -0.5944830919655095		223 31 0
-0.04032775080671124 -0.5124126582995385 0.349312095595432		0 255 0
0.18316922560553475 2.3273856819105494 -0.560483650456314		253 1 0
-0.04090908683785833 -0.519799232931809 0.18540820925081933		0 255 0
0.4109437298750054 5.221535166839206 0.41221444945305147		53 0 201
-0.04136983569993435 -0.5256536023053069 0.06871555193414848		0 255 0
0.41091699094759404 5.221195416553091 1.1060676510573648		46 0 208
-0.041408637797799346 -0.5261466297049725 0.05616982077440815		0 255 0
0.4091633534585284 5.198913339583991 1.4046712916843576		43 0 211
-0.04182787123592404 -0.5314734956020357 -0.22082425740942502		0 255 0
0.4010751418644133 5.096142867119661 1.9546013937587994		37 0 217
0.4007086257507332 5.091485838340135 2.281900426230475		29 0 225
0.3320797764042934 4.219473627736162 2.326848152961922		83 0 171
0.3048455612889829 3.8734301146519954 2.2978236073879645		106 0 148
0.28194508140292884 3.582451928663135 2.2805232184502064		124 0 130
0.2592534809114626 3.2941278070270763 2.2456094102951822		142 0 112
0.21420409874591495 2.721721133993438 2.2049105816005152		177 0 77
0.18795798669721372 2.3882326607740514 2.1627086149661547		197 0 57
0.3886002322645596 5.198554534298068 1.4041512074605564		43 0 211
0.3885142882672048 5.1974048063255935 1.1006961101938362		48 0 206
0.3909999814880198 5.23065751873042 0.5582409302669491		52 0 202
0.3934402187174497 5.263302137185458 0.2696801939233906		51 0 203
0.3601297241989048 4.817686288450709 -0.13283601854337504		83 0 171
0.25362122970373285 3.58202863288794 -0.38218208358650246		170 0 84
0.3380714064051364 4.7747637653145185 -0.2445786368651019		86 0 168
0.3728154175581695 5.265472066496257 0.9854895135812257		45 0 209
0.35121597311362496 5.253147565053723 -9.029916625831258e-15		52 0 202
0.34063737870871846 5.094923219654014 1.9524588502851576		38 0 216
0.31026144431168445 4.6405894819273765 2.369777225056954		55 0 199
0.14490468012760283 2.3031939363742002 -0.4590395681487967		246 8 0
-0.03127890732244519 -0.49716399510375564 0.5832551687976599		20 234 0
0.28291763593866204 5.1408416753383746 2.1326285378328373		30 0 224
0.16861487190667432 3.300009000194639 2.2456094102951822		142 0 112
-0.02685660016025758 -0.525618062281837 -0.06858845114827086		0 255 0
0.17652447573706073 3.454810077543831 2.1953492746183585		135 0 119
-0.027492472862909102 -0.5380629054798304 -0.6308125503527062		29 225 0
0.18992401435804143 3.7170562100923665 2.20112857411463		119 0 135
-0.026979530807182076 -0.5280239724881156 -0.6546562375745716		31 223 0
0.20574206220441285 4.026635665737458 2.216549439839078		99 0 155
-0.021959547888499853 -0.429776477322653 -0.7022463654563575		28 226 0
0.25014395649807347 4.89563760570792 2.2598640301146267		43 0 211
-0.005817199416623593 -0.11385004308167798 -0.2752168742669085		0 255 0
0.2645658281785895 5.17789210560575 2.1475509924716216		28 0 226
0.2665580375037195 5.2168821936617995 1.927120128610725		31 0 223
0.26700094339631913 5.225550429240848 1.4093520524291574		41 0 213
0.2676540729536863 5.2383330111877 1.107720434555807		45 0 209
0.12755456489955752 2.4964062032287986 -0.3959076930978484		246 0 8
0.10781624069755293 2.49437284116729 -0.39543872785662776		246 0 8
-0.022740957571740307 -0.5261213578037435 -0.12642850039237846		0 255 0
0.222124732897902 5.13894657713326 2.2982153250740898		26 0 228
-0.02219612710798071 -0.5135164821092277 0.21290409705679603		0 255 0
0.1507180611634291 3.486924010771791 2.273050155439228		130 0 124
-0.02203518598454976 -0.5097930433701671 0.3017722709428571		0 255 0
0.17087899343465632 4.3491608053219935 2.2177178943801006		79 0 175
0.16804757690648922 4.7527938560036675 -0.2429970662984696		88 0 166
0.15045983986099032 4.255369911489611 -0.4531729835039968		122 0 132
0.12971075005187885 4.127462991402017 2.312631482949174		90 0 164
0.09086608580195535 3.3047186031522724 2.2467332526204182		142 0 112
0.09505776452480226 3.4571662246336383 2.1948135949679095		135 0 119
0.10225102287047057 3.718778623389554 2.20011074233613		119 0 135
0.1106016410135495 4.022483167078174 2.2122146025143823		100 0 154
0.13723827989346543 4.991233996994665 2.2309165922948715		38 0 216
0.14296723907784215 5.199591139554692 1.9888821860569843		31 0 223
0.14415905347439442 5.242936367568314 1.4127326048941315		40 0 214
0.14470364663494412 5.262742735730145 1.1118523967551333		44 0 210
0.11867079176976023 5.035612756826867 0.13849695470753112		68 0 186
-0.011948308998566325 -0.5070081383836486 0.31078125027874814		0 255 0
0.1200793598041406 5.095383177644029 0.6642200089814138		61 0 193
-0.012304234371451173 -0.5221112848398964 -0.04110245806962142		0 255 0
0.12368129287351404 5.248225674461308 1.2603373388574597		43 0 211
-0.01238465630470722 -0.5255238660403204 -0.3221308530865207		0 255 0
0.12315728412347804 5.225990168090963 1.5409983927259367		39 0 215
0.12204155326925271 5.178645843182245 1.8419983958100743		36 0 218
0.11640834077549175 4.939609124268842 2.3487926255073894		38 0 216
0.07931190679502174 4.038803135432749 2.3252085615400495		95 0 159
-0.009762972442512395 -0.49716020337118483 0.44891136825993705		6 248 0
0.06859023884393374 4.366231080388332 2.224980344134813		78 0 176
-0.0061229361857818125 -0.5197069205054017 -0.014290781338226031		0 255 0
-0.003911914529889174 -0.49807018609779036 0.40226332997829106		2 252 0
-1.0629461145442941e-15 0.6197486624962599 1.679902257672778		166 88 0
2.220555017451762e-15 -0.43156342647876894 1.5302084854443536		137 117 0
-1.3253319987533694e-15 0.7727322414109714 1.342466715819791		131 123 0
2.4493714832606938e-15 -0.4760337581045017 0.7768164912930882		41 213 0
-2.109194406966712e-15 1.2297616923155337 2.0608993619566265		252 2 0
2.5911335063068803e-15 -0.5035851152785211 0.3364848164032346		0 255 0
-2.824166278586615e-15 1.646624649991285 2.0887334109553284		237 0 17
2.612823555154256e-15 -0.5078005621949445 0.24139301778323738		0 255 0
-7.94104476713272e-15 4.630010690018234 2.245716369071767		61 0 193
2.613592481169324e-15 -0.507950002466932 0.22695108502460148		0 255 0
-8.928976887178157e-15 5.206022589076491 1.556930891859148		40 0 214
2.626485270204666e-15 -0.5104557076483984 0.19517932915442868		0 255 0
-8.175063074577702e-15 4.766454608533185 -0.43168445048758075		86 0 168
2.6641624781888253e-15 -0.5177782485672254 0.014236759134595461		0 255 0
-7.177596122434396e-15 4.1848834441848775 -0.4953135962068083		127 0 127
2.0606921972212315e-15 -0.4004941911195753 -0.7151338356416072		28 226 0
-6.2542620773618145e-15 3.6465353269651044 -0.5043769514911368		165 0 89
-6.057135365343571e-15 3.5316009813346416 -0.530952454214309		172 0 82
-5.007083680900535e-15 2.9193703912030675 -0.5213334048062211		215 0 39
-2.810544855476036e-15 1.638682705767992 -0.6045419669608482		160 94 0
-2.2991352837863454e-16 0.13405063507244894 -0.23936463238472205		0 255 0
-0.03975962132349268 5.062248124402277 1.9356756183559876		41 0 213
0.0040682960945219206 -0.5179808959052583 -0.055129306580740715		0 255 0
0.003950811213709952 -0.5030225638654028 0.31923767217079907		0 255 0
-0.05468649355514189 4.641718988475011 2.365238089379834		56 0 198
-0.05754805237784398 4.884604407899121 -8.378286100009486e-15		79 0 175
0.014222485982532417 -0.5172591467401294 -0.1459373016269311		0 255 0
-0.13258062528354814 4.821839247560271 0.2464663232306306		83 0 171
-0.133017115204595 4.837713997192557 0.2854027477615768		82 0 172
-0.1412989292428183 5.1389161968736605 0.547130637146549		59 0 195
-0.14130299575358193 5.139064092247955 0.6084781994112564		58 0 196
-0.1415071473469987 5.146488903855863 0.9193936533053755		55 0 199
-0.1414842377035124 5.145655700528653 1.2358295279278775		50 0 204
-0.14155336106595734 5.148169655650282 1.5622704127687368		44 0 210
-0.14045582287790082 5.108253169364681 1.885246328598834		39 0 215
-0.13970962992554073 5.081114796346394 2.105462097891058		35 0 219
-0.13915077820876245 5.060789857195105 2.214471513078246		34 0 220
-0.18200085557101248 4.6322310991791635 2.362060696165284		57 0 197
0.020269372843160615 -0.5158899882660439 -0.1390635557268913		0 255 0
-0.20280151001857816 5.1616431072326 0.9643878789638454		53 0 201
-0.1907603345918989 4.855174727690437 0.38240535867387204		80 0 174
-0.18432411167025664 4.691361915463033 -8.052477925616969e-15		93 0 161
0.02409080191097626 -0.5108442208247249 0.026130735031100645		0 255 0
0.024093998117895463 -0.5109119962287679 0.04025433348386584		0 255 0
0.02395083642493261 -0.5078762598608457 0.12206581054621642		0 255 0
-0.1553363140717391 3.040130616577437 -0.2395755907414078		209 0 45
0.023295783482517717 -0.4559283193088304 -0.7009733761878271		30 224 0
-0.24305825994594413 4.756961449030149 0.13096738033973898		88 0 166
-0.24680760208389785 4.830340876717307 0.2471295657493674		82 0 172
-0.2505892586732851 4.904352739606422 0.38648444852615005		76 0 178
-0.24873494471891738 4.868061440568539 0.5187733012843307		78 0 176
-0.2474857194042626 4.8436125011896145 0.6320480654275051		79 0 175
-0.25986667649506245 5.0859236886231525 1.0754913035209936		56 0 198
-0.2618774111481525 5.125276341074073 1.382307725926727		49 0 205
-0.25861205623096045 5.061369163173852 1.8696735004927498		42 0 212
-0.2580420178353158 5.050212781682634 1.9335330813722418		42 0 212
-0.25867366270792225 5.062574880831763 2.0997227226928183		36 0 218
-0.2564228805175657 5.018524190630694 2.245192030629369		35 0 219
-0.2760282259917332 5.0156555388988995 2.2443762905468074		35 0 219
-0.19127963777267448 3.4757053240700926 2.2670486541766963		131 0 123
-0.302267098994257 5.125509272883237 1.5135750045681748		46 0 208
-0.2962324615572776 5.023180603158206 1.2080542027470786		59 0 195
-0.28974212032728486 4.6053191246985135 2.351166787659773		58 0 196
-0.30842778701941287 4.902319291874054 2.2644685603279586		42 0 212
-0.19159627382692915 3.0453355662595336 -0.08389968254028969		209 0 45
-0.1880344117694341 2.9887213900590184 -0.15301147863546768		213 0 41
-0.19028028090224497 3.024418457703932 -0.32251884813066184		210 0 44
-0.20502009948983332 3.0664916144733674 0.08450406599508443		208 0 46
-0.3271067602138907 4.8925453637446275 0.6390250629852686		75 0 179
-0.3389609708112193 5.069849137781241 1.8068246125192993		43 0 211
-0.32810321835841183 4.907449417307919 2.3380610545208227		39 0 215
-0.2678590520812975 4.006375663225231 2.3112432960064373		97 0 157
-0.04703950793943408 0.6643641958239576 -0.6660274018386949		45 209 0
0.036005872797520294 -0.5085302498670435 -0.7016840899537706		34 220 0
-0.29900553187038126 3.799225505193781 -0.4966500302989671		153 0 101
0.03972217371567193 -0.5047180717971947 0.09451887069058666		0 255 0
-0.23352097646293643 2.967165337129431 -0.23424306967206307		214 0 40
0.03949908030100448 -0.5018834011951379 0.14840779716771996		0 255 0
-0.23675730102191592 3.008286739568534 0.15418454186115824		211 0 43
-0.39141103120292164 4.973348698461465 0.7901367781367498		67 0 187
-0.39426159093046187 5.009568493972286 1.0612362140999678		61 0 193
-0.3948472427372704 5.017009905733705 1.3555236112560574		56 0 198
-0.39024868179843614 4.958579648953102 1.6161221585457985		55 0 199
-0.39389437437416713 5.004902565225491 1.91960660929152		44 0 210
-0.3923600188731897 4.985406730091996 2.0714085427899707		42 0 212
-0.39483550618342433 5.016860778677639 2.2484549918606067		35 0 219
-0.33159859200951625 4.213359600300075 2.3234765443912937		84 0 170
-0.30315761923619267 3.851982777346263 2.2851004662655003		107 0 147
-0.2924789478207806 3.7162973920317053 2.284391988923966		116 0 138
-0.2800906906837593 3.558889660524339 2.2655239105348803		126 0 128
-0.2576316524361384 3.2735205223724964 2.231561408805307		144 0 110
-0.21341089305967573 2.711642500146058 2.196745716309721		178 0 76
-0.18743407997189013 2.38157579465932 2.156680365737565		197 0 57
-0.4140070639704317 5.0089015151628455 1.9217491413766592		44 0 210
0.04151159866388297 -0.5022317915309725 0.13573877394450928		0 255 0
0.04166725448825087 -0.5041150074525635 0.1068264909304481		0 255 0
-0.05837959771782827 0.6740562458506725 -0.6765796331548877		47 207 0
0.04395859844541166 -0.5075500517181736 -0.026030494109687226		0 255 0
0.008033938493515047 -0.09276059842872003 -0.1281519692062052		0 255 0
0.04677433453887997 -0.4948207734732085 0.2732426829172568		0 255 0
-0.31445945176541185 2.9546718893252057 -0.23385097739118596		214 0 40
-0.31192914213880035 2.930897012522917 0.08104265709361133		217 0 37
-0.31385886395405616 2.94902874546891 0.15153241209568002		215 0 39
-0.3162520937919848 2.97151561583367 0.2351840939112004		213 0 41
-0.5108096385599233 4.799585038312984 0.5136944355902928		81 0 173
-0.5401296094312903 5.075076499113751 0.6651244493768934		61 0 193
-0.5354264946443169 5.030885869843983 1.0684670483627703		59 0 195
-0.5340233578514992 5.017701947989062 1.3591641602160442		55 0 199
-0.5318771723594856 4.997536314846444 1.854100713368587		46 0 208
-0.5302204986316541 4.9819701511775625 1.9156786357859243		45 0 209
-0.5367655107234278 5.043467311254289 2.100870597349408		36 0 218
-0.5286161448211244 4.966895587261957 2.2317323308748653		38 0 216
-0.3308051928689306 2.7949589623410063 -0.5598324063508962		222 0 32
0.059997635394494445 -0.506917461938229 -0.19517932915443043		0 255 0
-0.2790829404263861 2.3579598579344707 -0.5700473846379893		253 0 1
0.059914539536758335 -0.5062153885811007 -0.22775475475999052		0 255 0
-0.24888466206926718 2.102815892359119 -0.5971948993658497		224 30 0
-0.3694706505267531 2.9246613501257914 -0.31373942289695883		215 0 39
-0.37157358361615556 2.941307779604581 -0.15148141006808788		215 0 39
-0.372794287135072 2.9509706429379676 -0.08178437502195485		215 0 39
-0.6213284882547843 4.918321422121387 2.285398280034551		38 0 216
-0.6440726833474983 4.942200253149704 2.226837900776022		38 0 216
-0.6517388614569075 5.001025581986964 2.0890092352066856		38 0 216
-0.6492576641084306 4.981986466556662 1.9210349639303135		44 0 210
-0.6426472948066946 4.931262736640568 1.6158131936266087		55 0 199
-0.64123691881627 4.92044041680442 1.3365408032022768		61 0 193
-0.6401513133803342 4.912110177688522 1.0461548156110827		67 0 187
-0.6420047616799289 4.926332349956173 0.7868522502703931		69 0 185
-0.621689310499389 4.770444620879572 0.5120014846970233		83 0 171
-0.3871199640991979 2.9705100589371103 0.1530624811940472		213 0 41
-0.3825671511200304 2.9355746952119506 -0.2329883767812657		215 0 39
-0.341877992368641 2.5453108841672143 2.1934228824542474		186 0 68
-0.5948838062747843 4.300880142534797 2.2122710630892186		80 0 174
-0.7042570145037746 4.948367703274764 1.4734297169222144		56 0 198
-0.7091390056613583 4.982670361074889 1.208287607945835		59 0 195
-0.7287092431245078 4.979907679693045 0.939616592403071		63 0 191
-0.4334897565492095 2.8833332202845026 1.4856423431535295		194 0 60
-0.18721143064674303 1.1820064538103408 2.0790953858315158		252 2 0
0.08060663663030777 -0.5089302741174467 -0.5574204393614304		19 235 0
-0.19389893875223113 1.2242297182407675 2.077202397102143		254 0 0
0.07938812612214576 -0.5012369015508916 -0.12183634086132078		0 255 0
-0.30333759878004396 1.915198223755369 2.0976756338601628		223 0 31
0.07932126141736308 -0.5008147344197917 -0.10085999838980683		0 255 0
-0.4334841657822431 2.7369113082952503 2.1320527593241327		178 0 76
0.07884808123160957 -0.49782719230527644 0.013858812630917167		0 255 0
-0.494273231312696 3.120718362863823 2.1472745219212768		155 0 99
0.07769613978214412 -0.4905541202338972 0.18990778021055552		0 255 0
-0.5350823075916623 3.3783767300326333 2.1707080858734553		138 0 116
0.07756111274843792 -0.4897015930953127 0.2053694804715075		0 255 0
-0.5580851091284424 3.5236107030772463 2.1861870057542134		129 0 125
0.07749207658933961 -0.48926571594123835 0.22132789537331105		0 255 0
-0.5755034351243021 3.633585685216708 2.1756828501296694		123 0 131
0.07735022251565411 -0.4883700845686437 0.2350502150077609		0 255 0
-0.6092888415873594 3.846898346446744 2.18122103868967		109 0 145
0.07703470322988089 -0.4863779742001839 0.29122863992267195		0 255 0
-0.4551739611981268 2.8738552869552763 1.5996091568525144		190 0 64
0.07670196232689767 -0.48427713081997936 0.333216850624292		0 255 0
-0.45217079151493283 2.854894019819185 1.574305469374166		192 0 62
0.07580589973508643 -0.4786196142736877 0.41387525946577236		1 253 0
-0.6572193373930204 4.149519586938859 2.2033644592230877		89 0 165
0.07184450544302812 -0.45360835506198055 0.820072452442838		45 209 0
-0.797724174579246 5.03663221554255 2.0654755061851504		35 0 219
0.06547702153741364 -0.41340564390823964 1.4840975484230816		130 124 0
-0.7928818470681431 5.006058962884771 1.9837570508282683		40 0 214
-0.7840009335843131 4.949987081924543 1.8489097936132741		47 0 207
-0.7930951806835722 5.007405898322318 1.2171570169141535		56 0 198
-0.7613617292958684 4.80704877155734 0.5760437700667288		78 0 176
-0.7544673190569118 4.763519178468337 0.4177081527088451		82 0 172
-0.663202071361914 4.187293082596859 -0.5017764970360532		123 0 131
-0.6068677834955502 3.831612387252468 -0.505564048572123		148 0 106
-0.479186922381608 3.025467156999312 -0.5346104893629949		205 0 49
-0.426258994762689 2.6912933738267553 -0.5642873783632772		228 0 26
-0.12220582631641112 0.7715772210073463 -0.656663024721892		56 198 0
-0.1168136598646478 0.7375324219051461 -0.6479756905222264		52 202 0
-0.09840691580586622 0.6213168137237793 -0.7249293040743406		48 206 0
-0.0962128968617123 0.6074643232919021 -0.7316742269651084		47 207 0
-0.08168315452027065 0.515727140575788 -0.7429524740796943		40 214 0
-0.07869010553773959 0.4968297730288361 -0.7464643621249272		39 215 0
0.07975907287255359 -0.47918992690902246 0.3923270373596963		0 254 0
0.0827555347991514 -0.4971925731269199 -0.013858812630918897		0 255 0
0.08457565770328682 -0.473607999485992 0.4343263990905147		3 251 0
-0.9206095080119377 5.0407778894716015 1.664938858568764		43 0 211
0.08809258864065242 -0.48234910587122737 0.3004730202394489		0 255 0
0.09066154235722641 -0.4964153576108454 -0.03971495266905774		0 255 0
0.09070414587612555 -0.49664863227747813 -0.06579433089402766		0 255 0
-0.9309862530754803 4.986713897192474 2.1012532222775855		36 0 218
-0.9364167410658566 5.015801641335513 2.0202085490927857		36 0 218
-0.9479452231494484 5.077552544348171 1.5006531955423792		44 0 210
-0.9601031056257167 5.142674753515662 0.9979676378122126		48 0 206
-0.5517802135294309 2.955543167166356 0.1536235104848319		212 0 42
-0.5526254844184202 2.9600707572087335 -0.23698773446957191		212 0 42
-0.5650464676230365 2.962077315139448 -0.3209321868604077		211 0 43
-0.5635693620625701 2.9543340566228005 -0.15367451325139997		212 0 42
-0.5625936323206696 2.949219102190206 -0.08255357138628201		213 0 41
-0.5369617805057668 2.814852229452598 1.3210643332638323		202 0 52
0.0978166402058059 -0.491757458293697 0.05336203811110326		0 255 0
0.09773414504959901 -0.49134272713698907 0.06528676267828153		0 255 0
0.09683744836853327 -0.4868347284998092 0.1765062483879502		0 255 0
0.020206219385570684 -0.09567845944854078 -0.1144960309167795		0 255 0
-1.0287160197488414 4.871072717833185 2.224390686973255		39 0 215
-1.0573755662905449 5.006778522530233 2.119619243671308		33 0 221
-1.0609092400370177 5.023510819344635 1.9631715748582645		36 0 218
-1.063288528178637 5.034776985450743 1.898396747947916		37 0 217
-1.0670572961659341 5.052622476888943 1.8363035785881652		37 0 217
-1.0662082740676668 5.048602272770106 1.3898489154185723		47 0 207
-1.0621857865843405 5.029555394271373 1.0856145221642626		53 0 201
-1.0631953529812035 5.034335791619323 0.6705511006775086		58 0 196
-0.6250931310443805 2.9598781765628615 0.23808560945181603		211 0 43
-0.6227027585045796 2.948559524728389 0.15398053021172134		212 0 42
-0.6220408303197924 2.945425228907012 0.08277334313133498		212 0 42
-0.6226224435101999 2.9481792252381065 -0.2371445734395491		211 0 43
-0.6067121973019567 2.714274342074789 1.4171207096078655		204 0 50
-1.1595043127793527 5.09328957982067 1.5398675283076368		39 0 215
-1.1614083976726142 5.101653546766767 1.2561359888872		44 0 210
0.1158046293247697 -0.4908445943706443 -0.05367375526335349		0 255 0
0.11206735502693721 -0.4750039419073748 0.30972271971833415		0 255 0
-0.5569941832283825 2.3200477433428612 2.154001148667159		198 0 56
0.11502383030048116 -0.4791087339055016 0.22714827659146633		0 255 0
-0.6166419755615847 2.5684986790347475 2.1333117938483026		185 0 69
0.1153823721442171 -0.4806021681647827 0.18234161388362077		0 255 0
-0.7389494135133555 3.0779458222156024 2.1512078653105067		154 0 100
-0.7984972106784035 3.3259802480565654 2.1707080858734553		138 0 116
-0.8336199986299114 3.472277188635915 2.188276450351493		129 0 125
-0.8588171972101202 3.5772310740889797 2.1756828501296694		123 0 131
-0.6545087004740331 2.7262249396066442 1.5413422526066491		199 0 55
-0.7428589771548185 3.0942303267525415 1.3180911292719317		181 0 73
-1.1991763499033332 4.994928974550177 2.0338270872991244		34 0 220
-1.2001081200661576 4.998810076595166 1.9656712131691552		35 0 219
-1.2064075657602766 5.0250491562965784 1.8376435350958087		37 0 217
-1.2150009451901247 5.060843157660024 1.512090022701303		41 0 213
-1.2173786814161245 5.070747141815517 0.9947826746598026		49 0 205
-1.2208379433641465 5.085156004812294 0.6815336549018441		52 0 202
-0.7129563270042883 2.9696768249554455 0.24035979511369165		208 0 46
-0.7135301285118596 2.9720668802430095 0.15617366957470544		209 0 45
-0.7131889384764823 2.970645721467095 -0.24043821568966234		208 0 46
-0.7471105295161242 3.111939316825615 -0.41707498735965604		197 0 57
-0.6848454571501222 2.852586625214846 -0.5596224132986553		214 0 40
-0.6586262283770628 2.7433756776344747 -0.5611972760602031		222 0 32
-0.6059490149182908 2.52395929252565 -0.5802027929896348		237 0 17
-0.5565651348033466 2.3182606280367017 -0.5723800408960869		252 0 2
-0.5349675546034318 2.228300232195488 -0.5883874494915384		248 6 0
-0.49678816025175787 2.069271609680271 -0.6001779146260635		226 28 0
-0.4804432932625542 2.001190338967983 -0.5979201193974332		216 38 0
-0.731064921599945 2.9430802028497394 -5.201149191403653e-15		211 0 43
0.12178153370631818 -0.4821604948671793 0.1339496742719956		0 255 0
0.12198791170049152 -0.482977591784683 0.10520263890616588		0 255 0
-1.0890911694234673 4.241730050479218 -0.46608111262461394		113 0 141
0.12624171037369825 -0.4916789994720747 -0.2102660030534249		0 255 0
-0.8015830492882956 3.121959853848452 -0.1646914874917138		197 0 57
-0.7528782311047706 2.932267111227511 -0.08324036005456613		211 0 43
-0.7216779544787826 2.8107500567666106 1.337803067871282		199 0 55
-1.331078513895932 5.100963672259912 0.9842050620319329		45 0 209
-0.7674522914477651 2.941033318470155 -5.213149059370842e-15		210 0 44
-0.1545678461888036 0.5738493311629201 -0.735868688047279		46 208 0
0.13861381640306575 -0.5146183232421832 -0.6240153774432015		28 226 0
-0.028445978389214616 0.10560867654833199 -0.12115128456269103		0 255 0
-1.244540698229283 4.620487798034937 -0.37660052928964977		85 0 169
-1.3594710280879774 5.047178694919044 0.2670781633618024		54 0 200
-1.3543757578295899 5.028261969985849 0.5542200535866235		54 0 200
-1.3509494574384986 5.015541470630573 1.096977356116127		49 0 205
-1.347794065976449 5.003826749071714 1.3958298682121264		45 0 209
-1.3362272101538246 4.9608835843635575 1.8269238914735135		39 0 215
-1.3383439040001583 4.968742032145197 1.898396747947916		37 0 217
-1.3380209605087552 4.9675430705816215 1.967099578352797		35 0 219
-1.332583102032834 4.947354450979883 2.122297625816443		32 0 222
-0.7820478863440217 2.903434754261332 1.3434834316850688		192 0 62
-0.7750073836326901 2.8772961499424663 1.4165275926860976		192 0 62
-0.11938706148380569 0.4432369802080543 1.912014568178367		191 63 0
0.1321242952652617 -0.4829650817820831 0.03940685701605399		0 255 0
0.13139038938070485 -0.4802823736938868 0.11954249076103626		0 255 0
-0.8156244566443811 2.89198617843156 1.5310224327175543		187 0 67
-0.9354819216457294 3.3169686925555517 -0.5458500406524917		178 0 76
-0.03144959151381417 0.1098586509730306 -0.11427160627207474		0 255 0
0.1374768164863374 -0.4802293725380115 0.09325703555512407		0 255 0
0.13647869534862409 -0.47674276948789934 0.14618446380154487		0 255 0
0.13536466388596138 -0.47285127240515096 0.2703943082904492		0 255 0
-1.4724810487462978 5.068313013502285 0.14511980652687323		51 0 203
0.13638396102174005 -0.46943667293239477 0.2737674657116589		0 255 0
-1.411882762783922 4.859732345112333 2.2610989801471835		32 0 222
-1.3817647504468151 4.7560654666836095 2.3543730484021164		37 0 217
-1.423759156338855 4.829737158404134 2.2024508724309046		36 0 218
-1.4712347217714534 4.990785817136338 2.1552035451262728		26 0 228
-1.4783761975591418 5.01501143902195 1.9288504568705087		30 0 224
-1.485465230527613 5.039059162116507 1.5936162679839996		36 0 218
-1.4918227769779375 5.060625505125229 1.2666393721047358		41 0 213
-1.4989094301085986 5.084665155231423 0.9466376178384954		44 0 210
-1.5039258590015059 5.101682101474541 0.629513896686089		46 0 208
-1.503107206496053 5.098905033170676 0.5657536464631893		46 0 208
-1.501072039118454 5.092001250699182 0.31306707948095996		48 0 206
-1.4901448369258254 5.054933524579798 0.26927203171249126		51 0 203
-1.3569985071617716 4.60326880762009 -0.3776987375576481		84 0 170
-0.7692904706127311 2.6096202823226853 -0.5745704081437812		229 0 25
-0.033433432335697635 0.10867707026900504 -0.11370356194948365		0 255 0
0.14778051062984737 -0.48036805724434045 -0.025679763575229282		0 255 0
-1.5239784129772849 4.953769251466931 -8.889300168792794e-15		58 0 196
-1.3510640951273147 4.3917024770235 2.3411807200990427		60 0 194
0.14937383605095833 -0.4788481773215624 0.025629673802820635		0 255 0
-1.5820556932427265 5.002413632568687 1.5466527186699779		38 0 216
-1.569493304662239 4.962691728870184 1.2496005645100667		46 0 208
-0.18542543042491746 0.5706807945923997 1.6265047926259306		158 96 0
0.028664940004764584 -0.08822161394677848 -0.12056229944368524		0 255 0
-0.3651921043823613 1.123945727563972 2.053116102023331		248 6 0
0.1678184466250593 -0.5164920704122583 -0.6724358037564707		34 220 0
-0.3790679497812714 1.166651188512586 2.0557510777793095		252 2 0
0.1554514222491775 -0.47843028308676266 0.013831830906577781		0 255 0
-0.5055848536265372 1.5560301806515422 2.075391778119246		238 0 16
0.15291139038447588 -0.4706128688328701 0.18920527048574073		0 255 0
-1.4146286502035645 4.353779307947929 2.2204090883681076		65 0 189
0.1525207043134679 -0.4694104607439252 0.22052495119577656		0 255 0
-1.552288912386514 4.777454030591619 2.1972419343499254		37 0 217
0.15224632921581777 -0.4685660210228765 0.2342049085375842		0 255 0
-1.6041947517203672 4.937203777792681 1.9849541695219333		31 0 223
0.12825347850262955 -0.3947236193729951 1.471610107861813		129 125 0
-1.6062650305748905 4.943575440940609 1.8483631978810622		34 0 220
-1.652510016537346 5.085902872914159 0.6969093287704303		43 0 211
-1.6554941925983668 5.0950872224491945 0.42162800417909396		44 0 210
-1.4986130322557907 4.6122566579699 -0.0571358080842439		82 0 172
-1.4975311964157039 4.608927109614939 -0.4388988653644983		81 0 173
-1.3140622763376981 4.044267834707542 -0.5033040979926092		122 0 132
-1.1225506776468546 3.454855740238624 -0.5170026984985818		165 0 89
-0.95022592401671 2.92449468294335 -0.536672658855153		204 0 50
-0.8432317448741337 2.5952004592226654 -0.5650980453753015		228 0 26
-0.513617929736023 1.5807534467465825 -0.6131819981477604		163 91 0
-0.03324503136478327 0.10231768572426767 -0.1259637212755505		0 255 0
-0.16382887947784197 0.5042134452828193 -0.7543433567315774		42 212 0
-0.026944357499922827 0.08292620549727645 -0.1293918314297306		0 255 0
-0.17365184965284036 0.5071955481855959 -0.7378771652604926		41 213 0
-1.2179847562505324 3.5123728947970454 2.2781235219882943		116 0 138
0.1673302869904562 -0.4764868935405669 -0.013885796331221906		0 255 0
0.1688741276758409 -0.4808831081501937 -0.3123282973051479		0 255 0
-1.8042126383035764 5.073822246728884 1.1372640697677485		35 0 219
0.16198414470659162 -0.455533200234327 0.3904646467325135		0 255 0
-1.8176636034747375 5.111649166281773 0.5773931290326456		39 0 215
-1.8191909191923863 5.115944296634741 0.27743531364706164		40 0 214
-1.8365876398969592 5.164867503720788 -0.28008839673703373		36 0 218
-1.4793987402115847 4.109188080484849 -0.4648114528081461		114 0 140
-0.1829760370414487 0.502040838499186 -0.7354636403981102		40 214 0
-0.734564608234153 1.9911244968382869 -0.5985508118950982		225 29 0
-0.8198088956266739 2.222189248583945 -0.5686477979639892		253 0 1
-0.9687068240159379 2.6257947441672975 -0.5567127182024417		223 0 31
0.1722551037621831 -0.4613307474217063 0.29122863992267195		0 255 0
0.17343219307957622 -0.4644832084095955 0.2053694804715075		0 255 0
0.1778518666537991 -0.4763199045005929 -0.12206581054621814		0 255 0
-1.905824319143423 5.043617712909835 1.0065912927219618		37 0 217
-1.5003615891142725 3.9239203250556716 2.309508472494849		86 0 168
-1.7364676035230506 4.541412265350825 2.2414459391285817		46 0 208
-1.884664916718908 4.928995134431842 2.185813833892571		21 0 233
-1.8947639153512044 4.955407211549447 1.9572279051778068		25 0 229
-1.906989876580627 4.987381968907635 1.4382168497253858		33 0 221
-1.9134671344003253 5.00432204774846 1.1314792830575695		37 0 217
-1.9177036017420452 5.015401750420948 0.571467564906428		43 0 211
-1.9128262411792794 5.002645909173267 0.27365978602626134		45 0 209
-1.8399951573322755 4.812169578483008 -0.14165722331196168		60 0 194
-1.9673898245405081 5.145346945585022 -0.28146596215770797		34 0 220
-1.9126211393496588 5.0021095029870555 -0.42147111103777524		45 0 209
-1.570798833306174 4.108136007549034 -0.46809141069137605		112 0 142
-1.3911659972611463 3.6383392988632366 -0.5076310810143208		147 0 107
-0.038100693054719796 0.09964536879698521 -0.11816995246704144		0 255 0
-0.03662530393155209 0.09578675937258539 -0.12697828098072464		0 255 0
-1.8959019898555838 4.843992170498956 -0.40939039681758244		56 0 198
-1.6081074328518392 4.0616157410409635 -0.46491725772972264		114 0 140
0.17737510145334207 -0.4479983671576003 0.434989122172659		3 251 0
-2.000700962387804 5.053193807791319 -9.321440831982522e-15		40 0 214
0.1748443273063456 -0.4416063613111804 0.5561063593039471		15 239 0
-2.023597960755747 5.052960555639647 0.57929777867265		37 0 217
0.18470777921203307 -0.4560216372217953 0.30150340410037185		0 255 0
0.19091465285776205 -0.4713456733508039 -0.04002313752915434		0 255 0
0.19994338584277718 -0.49363654607651963 -0.7330502048532355		40 214 0
-2.040754410501756 4.982064213661322 0.27508836211812004		43 0 211
-2.02086083459919 4.93349831466049 1.2799436965840278		37 0 217
-2.021825878949665 4.935854263469595 1.572379981110941		31 0 223
-1.1288296449438882 2.7252358384323236 -0.4671983065251038		214 0 40
0.18825962486004497 -0.4544989395843844 0.33432622924955396		0 255 0
-1.9655370526949012 4.745226209962843 -0.26243534587611983		61 0 193
-2.063878750426267 4.982644070372699 0.42445208389016537		42 0 212
-2.064663139180043 4.984537752340239 0.7031113121022304		40 0 214
-2.0622701551853044 4.978760577925599 1.1380904686034135		35 0 219
-2.0426110621134983 4.9312993288076905 1.4376967617103422		34 0 220
-2.0224278771694433 4.882572809983867 1.7171546921736989		31 0 223
-2.01513876470416 4.864975335812519 1.8724825075077374		29 0 225
-2.015566883959 4.8660089071238675 2.0138787083831557		26 0 228
-1.9768102028763204 4.772442002021494 2.3080042805734067		24 0 230
-1.747454490240509 4.218728329968375 2.326655557331282		62 0 192
-1.5273118473112195 3.68725697575183 2.29727806671989		99 0 155
-1.4644875963408859 3.5355858170133203 2.2632167396645744		110 0 144
-1.3519263127758572 3.263838839632506 2.2419536734131302		129 0 125
-1.31447532870556 3.1734241659657756 2.2370412765724352		135 0 119
-1.2801232503076079 3.0904909124017372 2.2351399026423753		140 0 114
-1.244888319806836 3.0054262653175003 2.210770461840898		147 0 107
-1.032576559476167 2.4928603340758966 2.1791599307098535		180 0 74
-0.9096649689675789 2.1961255052972164 2.145963515350682		199 0 55
0.20265924675442404 -0.4785960505681389 -0.7153544926017512		37 217 0
-0.9897401284463584 2.312022320076112 2.1479802768211953		191 0 63
-1.8385746017874396 4.248695222221894 2.2006983760458887		62 0 192
0.1930492920823218 -0.4461105924807601 0.41515937915814893		2 252 0
-1.9797443233909702 4.57491920090419 2.227245769824114		38 0 216
-2.1790575110502197 5.0355048020053905 0.15086335710263765		36 0 218
-1.1557559416185208 2.670794398244864 -0.3097200118128297		218 0 36
0.20157479856818303 -0.46083827986829756 0.13548313692199915		0 255 0
0.20194190161089082 -0.46167754715735126 0.10642044364006807		0 255 0
0.20427508478175985 -0.4670116470880886 -0.0664289938315742		0 255 0
0.20585151000563173 -0.47061565460128174 -0.1448691184228312		0 255 0
-1.5938441733831568 3.5672583442996637 -0.5091813586503122		146 0 108
-1.7657802301590593 3.9520765990967552 -0.4606850699243809		117 0 137
-1.1787830110537971 2.638290243502657 -0.2274207639808446		220 0 34
-1.2057256470146824 2.6985918366909596 -0.15102239263082218		216 0 38
-1.7905734268951667 4.007567430268168 -0.12069007726691422		114 0 140
-2.244683735874894 5.0239332808280155 0.21619739981644698		35 0 219
-2.2423369813813805 5.018680898136651 0.43261056922795904		35 0 219
-2.2393504213242346 5.011996536225666 0.6497271822672165		34 0 220
-2.2246731566720586 4.979146653108905 1.151726075426432		30 0 224
-2.208097602830618 4.942048118798141 1.4579802357568017		28 0 226
-2.183717479292107 4.887481806369238 1.9748773539244937		21 0 233
-2.179421297656945 4.877866318203838 2.212980566803933		15 0 239
-2.068217828268406 4.628976551741094 2.337304237420503		30 0 224
-1.6761877793268747 3.751555479683323 2.258934707177982		93 0 161
-1.224284960268779 2.6284812816176024 -0.22820492598881414		219 0 35
-1.2119953882979881 2.5756213055008765 -0.3029506055355654		223 0 31
0.21958869051795443 -0.46664972095258606 -0.1025857930294616		0 255 0
-1.2651122707295985 2.6613227185099557 -0.1505633766630436		216 0 38
-2.4138954998382456 5.07793267242884 0.22090787704462145		27 0 227
-2.4074550992026857 5.064384479968548 0.441318234810994		27 0 227
-2.401997070853127 5.052902831121228 0.662184302788943		26 0 228
-2.385463462358992 5.018122306955563 1.1734191843434405		23 0 231
-2.444326204692381 5.039486113865371 0.8871105417095809		23 0 231
-2.451785306850377 5.054864602086362 0.5979211182814216		25 0 229
-2.1239805953137565 4.3790271100702975 -8.347419843226094e-15		80 0 174
0.2265973159379782 -0.4625426700975208 -0.05481728512759526		0 255 0
0.21910685442515537 -0.447252735818899 0.3160651462063224		0 255 0
-2.5070871855099193 5.067137990498403 0.2888640328939793		24 0 230
0.22409070205522494 -0.4484758936793363 0.27561699882430507		0 255 0
-2.517650459981929 5.038609498998058 0.8921157312587477		21 0 233
-0.5417246435789794 1.0631944765791328 2.073033505641153		251 3 0
0.19223562915348114 -0.37728366530900864 1.5013885235923992		133 121 0
-0.5608570464588148 1.1007439314666545 2.070337936370975		254 0 0
0.2137560613636272 -0.41951989164765213 0.7683380810178884		39 215 0
-0.8757000871615859 1.7186581907350953 2.0866670507688476		224 0 30
-1.2529845745864434 2.4591206893192425 2.1235187993541476		179 0 75
0.22851689963140723 -0.44848966790205924 0.23927817361378786		0 255 0
0.2289715286798684 -0.4493819276486769 0.22534400847762412		0 255 0
-1.8724943114223154 3.67497700709605 2.183822577730715		95 0 159
0.22965506701649305 -0.450723447169052 0.19342162331470822		0 255 0
-2.0778849565789486 4.0780788450129375 2.219972756833033		65 0 189
0.2303973211494923 -0.45218020292823086 0.18046090570237577		0 255 0
-2.281367879307514 4.477436566850909 2.198043309193494		37 0 217
0.23229873093531858 -0.4559119297491638 0.06668292073862678		0 255 0
-2.517061509592641 4.940011361729144 2.1199363440712506		5 0 249
0.2325039419562562 -0.4563146790547014 0.05450532684065639		0 255 0
-2.5219296878193243 4.949565699459504 1.975325552011486		7 0 247
0.23328282228474745 -0.4578433177699296 0.014128736684013139		0 255 0
-2.5522248949980972 5.0090233913350195 1.3030536253011897		16 0 238
0.23998817729547686 -0.4710033179571286 -0.5855480759355042		23 231 0
-2.5528096062615324 5.010170951803324 1.2337350395790116		17 0 237
0.22226302038456866 -0.4362157387920534 -0.6965967118782802		32 222 0
-1.155079868245997 2.266971884117087 0.3315734829497562		244 0 10
0.21979276724405838 -0.4313675940272309 -0.7184358971337367		34 220 0
-1.331203335342282 2.612633650906245 -0.20761282745987525		217 0 37
-1.3327230228512388 2.6156162055764085 -0.2542483224887182		217 0 37
-1.2228685445332172 2.400014652352673 -0.590994239636639		230 0 24
-0.760533087284438 1.492630226888696 -0.6180205732205046		165 89 0
-0.26546407516870246 0.5210025827603016 -0.6738472627768999		38 216 0
-0.2612070001855226 0.5126476026755898 -0.6844708456355546		38 216 0
-0.03738663723885666 0.07337540701048978 -0.13438485406479078		0 255 0
-1.3574949150989402 2.61328895600187 -0.46641653907122155		214 0 40
0.23560792968780175 -0.4535645723245427 0.09542055439098286		0 255 0
0.2342446481228966 -0.4509401435934577 0.1497979696848128		0 255 0
-0.8721105038756789 1.6628882677637953 -0.610103169933768		192 62 0
0.23703611536484978 -0.45196632023675276 0.12252479497795854		0 255 0
-2.1229214113772787 4.047859867156317 2.3289251119306416		62 0 192
0.23892437748324935 -0.45556674576676914 0.04048557762608501		0 255 0
-1.1162915081266087 2.088434520902799 -0.06511160254455424		248 6 0
-1.33932608624283 2.5057028678372086 -0.44999974757976535		222 0 32
-1.390623356826083 2.5772772657067007 -0.2304790123224847		217 0 37
-0.45834845945008895 0.8415440147591104 -0.31136049997205534		54 200 0
-1.2153260908430805 2.2313817721928046 0.4743657656722026		242 0 12
-1.2138521814980483 2.2286756224021023 0.5359550835499439		242 0 12
-2.7146500224123575 4.984193644433032 1.3625714552308676		12 0 242
-2.702638122968423 4.962139371369565 1.521951719136252		11 0 243
-2.6943706031619885 4.946959912015966 1.6605886551833051		9 0 245
-2.683435466301247 4.926882613214158 2.019817272380017		3 0 251
-2.664660759782311 4.892411586696852 2.2057173213335264		1 0 253
-2.5740263299394885 4.726003561551876 2.3287901985746258		10 0 244
-2.3958344913178187 4.398837030980571 2.3570428220730184		33 0 221
