-1.7358783827768696 0.06820284741159814 0.4170690731916127
5.485589432784618 -0.21552939581421296 1.3179896260827324
-1.6806563495631421 0.06603316781744989 0.6966877747033358
5.260030498860433 -0.20666716116379738 2.180457024468626
-1.6791084291502558 0.06597234985878823 0.7508012601285836
4.850621975154035 -0.19058145645752367 2.1689207368198824
-1.6327263942498729 0.08342460635981416 1.0018412332168787
3.4471086455719315 -0.17613096894195143 2.1151465356808763
-1.7001141119319518 0.08686780041909595 0.6509085893273941
5.426088999716879 -0.2772475170787172 2.0774416914621616
-1.76152483577049 0.10388255557971443 0.2794828574527896
6.828535031575001 -0.4026997834721443 1.0834127592679086
-1.716101697193113 0.10120381292332406 0.55856400988669
5.454155473987629 -0.3216483796659431 1.7752415005933926
-1.8213125870604172 0.11458727537978404 -0.1148138342549699
3.1699009937929787 -0.19943326625147595 -0.19982758033502698
-1.7100649815657054 0.10758816929731932 0.594171309177694
5.444354964877596 -0.3425297810259905 1.891670522454416
-1.691525091878334 0.10642173830671905 0.7020379456708659
5.060098122738809 -0.31835438966289326 2.100105347557013
-1.8055174375035439 0.1207136399527208 -3.1036005985441537e-15
6.885296251700645 -0.4603384910227075 -1.1835504395614561e-14
-1.7242015362832992 0.1220800162997763 -0.4438079898994114
2.306168069183999 -0.16328545680505288 -0.5936056740565326
-1.7905322991470571 0.12677648619681603 0.11293275990049062
6.884784108813044 -0.4874688593747991 0.4342382827149653
-1.764113992591743 0.12490596977108694 0.2801076933209149
7.667580046486797 -0.5428937843731864 1.2174656338503
-1.7554455107433955 0.12429220833828962 0.33570747051152894
7.6432862140142195 -0.5411736887800521 1.4616849486918813
-1.7420670626134849 0.13022228788515208 0.41940017297943594
6.8231947827021235 -0.5100446787372571 1.6426744604450243
-1.7860454286108196 0.13350974079700026 0.1409570007155033
6.860255169437441 -0.512815001679556 0.5414201550175901
-1.8364074210401788 0.14452839846125146 -0.19604929478777283
-1.8194901597229889 0.14319698112079055 -0.07170901804588181
6.901981050075864 -0.5431976891120982 -0.2720181150897658
-1.793292405072479 0.14113517311482293 0.09899602425962603
6.865019983171584 -0.5402887900606728 0.3789731573470886
-1.7212614773960035 0.13546621616252394 0.6601816649310511
5.422936059040616 -0.42679432384723126 2.0799413704931258
-1.5981361402500738 0.12577604197578307 1.3691578668990305
2.4124927443657653 -0.18986729668357802 2.0668348187585304
-1.7467348614451672 0.15128363420500088 0.5696732272398441
4.547060159360492 -0.39381808941951557 1.4829602892871128
-1.7571369189155286 0.15218455001773248 0.49741904961505445
4.031163412806895 -0.34913658885761056 1.1411617683606248
-1.7128873482646587 0.16191552608588367 0.7687264107386949
4.584717158650406 -0.4333833695776291 2.0575744045234656
-1.8606741908454651 0.1832604122468197 -0.14714678666113884
4.274108827172853 -0.4209629764894667 -0.33800725718279595
-1.8200935958721034 0.17926357249882474 0.1150646506982696
4.6343567454276515 -0.45644429951487614 0.2929797903433056
-1.7855323693599299 0.17585958879789604 0.34225657480280725
4.572021030257368 -0.4503047674484828 0.8763796639000347
-1.66632240374684 0.1773431532075451 1.026890477500769
3.2686348739135265 -0.3478738651779075 2.014334092190886
-1.7345115271211315 0.18460037673551513 0.6669583669113277
5.306073758244122 -0.5647141569500006 2.040303701171312
-1.7231510820321383 0.19023765053828307 0.7180891203807123
4.997248945737579 -0.5517014198609129 2.0825046260808437
-1.816022591054612 0.20771235415772216 0.14385592344268947
4.604638372692542 -0.5266676092842478 0.36475565253769915
-1.7722708347098366 0.20270813209921196 0.42825868539674394
4.577219247655114 -0.5235314748338711 1.1060577533537017
-1.7494658031438506 0.20009974670987532 0.572142023449497
4.54774392032359 -0.5201601568449002 1.487285664017143
-1.8806713775440713 0.22259212609348195 -0.2999481873385249
3.3950198180774356 -0.4018270754044208 -0.5414715471134092
-1.8626497303478666 0.22045912358543698 -0.14761692607204582
4.36399658460268 -0.5165130333933678 -0.34585126269964017
-1.810580590282401 0.21429633473810172 0.1940412507959234
4.616509178303425 -0.5463998683653692 0.494754677077996
-1.795450217658908 0.21250553712664016 0.28635626865689207
4.607977670831285 -0.545390097913348 0.7349261365731723
-1.781510883281526 0.2108557081812764 0.37886124515031344
4.586103524517508 -0.5428011220866295 0.9752940091426724
-1.7687300250906253 0.2305027386640895 0.7062114313796328
4.562816523349814 -0.5946310006242898 1.8218230834366074
-1.774082024722748 0.23120021682923247 0.6840792565878236
4.569891646832438 -0.595553038083934 1.762132774520723
-1.8297099960926646 0.2384497119840605 0.3519873080855327
4.535169864707549 -0.5910280592813185 0.8724454890654673
-1.8185061991675309 0.23698962150216388 0.11537817336706666
4.519777740567106 -0.5890221416353806 0.2867648732627268
-1.8246549267604775 0.23779093008480132 0.07229710795128903
4.528194543693421 -0.5901190281832938 0.17941768876324943
-0.7978925725678491 0.11036191543058838 -0.5852219153992367
0.9064343695942326 -0.12537506511508262 -0.664832931393816
-1.8609209546260348 0.25739655697820657 -0.14785199724553058
4.5070314921003645 -0.623397993007222 -0.35808807789445024
-1.839785018314095 0.2544731027489015 0.29416751412137965
4.544538557776286 -0.6285858488069743 0.7266368608626077
-1.7548800668384854 0.24272932495656888 0.7915418029511014
4.35917771554886 -0.6029473376873515 1.966214930326278
-1.709555823708206 0.23646022249932808 0.9933994407089857
3.4933739421005656 -0.4831921649862579 2.029951682269471
-1.7940065727906276 0.26251674848301304 0.589115755645639
4.270431248342579 -0.6248916491935 1.4023239211920624
-1.8823773222842999 0.275448028763664 -3.2628935257968207e-15
3.7542339255431374 -0.549356562080552 -6.507550545241525e-15
-1.8626823117420521 0.2800417572846052 0.1482437846934321
4.072611107668352 -0.612289687907963 0.3241235933682254
-1.8405612384508663 0.27671600270024366 0.2947924377622542
4.014403406233972 -0.6035385514986976 0.642964624899331
-1.8177772135300063 0.27329057779733223 0.44131424411442555
3.996362540531906 -0.6008262286821366 0.9702243490868414
-1.92517814880368 0.304918263623291 -0.3718251576719764
2.2353270455584333 -0.35404102305305607 -0.4317267114628745
-1.9015495786221555 0.30117586575942124 -0.09079260942370478
1.414001990410356 -0.2239559138689146 -0.06751384864374249
-1.8940689283792258 0.2999910471574313 -0.05272822938196657
1.4170088564298677 -0.22443215466054586 -0.03944754433094878
-1.8907806611981084 0.2994702368003125 -0.015035574814641519
1.416515235643833 -0.22435397280861719 -0.011264194329186059
-1.884789524425341 0.29852133395564995 0.022482477395411097
1.419416852222172 -0.22481354372641377 0.016931337362181213
-1.8835707447563423 0.2983282982198967 0.03744964591632003
1.419241734185962 -0.22478580775425794 0.028217735151648736
-1.8576599416906379 0.2942244301779759 0.20017124100224976
2.239304605294736 -0.3546710066257477 0.2412951755938481
-1.8287994820636062 0.2896533824324397 0.3910362802213267
6.792302733828763 -1.075795067012239 1.4523389913564995
-1.8028123300981789 0.28553742191276693 0.5536940338611073
3.622040086387308 -0.5736747919154636 1.1124297037225188
-1.7984616082522604 0.2848483352681934 0.5680125610738124
3.61329902739434 -0.5722903441790186 1.1411971348503174
-1.7945859668267046 0.2842344939701082 0.6061822829035972
3.110942489214914 -0.49272488503610207 1.0508263493382137
-1.7892721055397316 0.28339286102420874 0.6281996646432791
3.110625756969617 -0.492674719576698 1.0921167615082272
-1.77637299128638 0.28134984203250946 0.7202654109538787
3.927128797388568 -0.62199609665673 1.592331706795172
-1.7565703204920657 0.27821340710182096 0.8198841438125241
2.185800258187527 -0.34619675055424304 1.020228425997346
-1.6516183945123233 0.2615906550445377 1.4281988685410387
2.324848751606655 -0.3682198683624006 2.0103592740344083
-1.800687169483941 0.29971652388010606 0.5931279145084464
2.224301355783995 -0.3702252571769178 0.7326620896469023
-1.8874433915169229 0.3141567185643099 -3.2817359973367317e-15
2.895732264716668 -0.48198200285786164 -5.034868253257966e-15
-1.7446527551904123 0.29743552456448674 0.9017709645655883
3.7180642238139496 -0.6338707685437591 1.9217820574613877
-1.8084674738853488 0.3156281007747024 0.5177502273298378
2.2470009943824514 -0.392164452243142 0.643298976869318
-1.7343715423238624 0.30269629055881847 0.9410538288849783
3.6550776572488783 -0.6379131700184651 1.9832110596194872
-0.7953227924059596 0.14202663030849944 -0.5869770797593378
0.9008133395879129 -0.16086485183151913 -0.664832931393816
-1.7431390228518042 0.3112851334562571 0.9022244247970552
2.029673141877311 -0.362453634827244 1.0505304849181683
-1.7811662582306957 0.32529871948971395 0.7086660028806342
2.844818506568857 -0.5195561127947298 1.131857371907329
-1.7880576843141152 0.3265573173718798 0.6705602404229789
3.6244892948890484 -0.6619492823779144 1.3592617477123559
-1.7648047498655857 0.32947728611664345 0.802135221010197
2.7620702342198284 -0.5156601062545878 1.2554101624785132
-1.8678559769318799 0.35631258387467785 0.1496542415449752
3.4433795656714903 -0.6568597822627489 0.2758865585014138
-1.8237710383985932 0.3479029320852751 0.44574404016765673
3.422563545221552 -0.6528889139923331 0.8365015510484097
-1.9030959956329072 0.37078621829649744 -0.07617881416361832
3.4213004595661904 -0.6665828008516766 -0.13695084877760855
-1.8010924383115643 0.35091254226609164 0.5962142369461269
3.3562088173677207 -0.6539007901129317 1.1110032092270705
-1.7305170798384595 0.3371621217233489 1.0148262610232262
3.3127179682125516 -0.6454273302739364 1.9426755324595935
-1.8361441405961996 0.36523177785627153 0.3953700082178582
3.3685625568607853 -0.6700487528516292 0.7253398991628021
-1.8641572271330624 0.37080392721693 0.20228514549534768
2.217807402768462 -0.44114932087679015 0.2406607589852475
-1.892317115912689 0.37640527735923335 -3.309143714802287e-15
3.4114899878625855 -0.6785875497777241 -5.965760472446772e-15
-1.9099767835307986 0.39553717695771806 -0.12271523140044059
1.9558552920200365 -0.4050381593190338 -0.12566290690838894
-1.8014841848184135 0.3730694398702681 0.5977574130732466
6.229150844925051 -1.2899951252238144 2.0669185586443257
-1.7513543603698096 0.36268805229804213 0.9112937403131371
2.6955628484338017 -0.558224230040437 1.4025999569154446
-1.894958900364555 0.4079739770244615 -3.3245608043753357e-15
3.418000460926053 -0.7358762457840894 -5.996621013545718e-15
-1.9274843723129615 0.4149765279203338 -0.24907724858864777
3.4375859726129914 -0.7400928961259211 -0.4442186241011714
-1.8053145333487601 0.3960984265080984 0.6005351548390454
2.6341814102740906 -0.5779575206825565 0.8762564704770376
-1.8828544893528936 0.42863808674657405 0.11387871844154455
3.732064503411577 -0.8496168967931799 0.22572255327906723
-1.8278404776141444 0.41611396400140344 0.4891721142484862
3.6909835061337475 -0.840264671130292 0.9877920023461038
-1.8160929181299688 0.4134395930132508 0.565001075792968
2.8882990934116637 -0.6575308949005986 0.8985730183176982
-1.7984430732211412 0.4094215471175779 0.6640455625472891
3.663352486113995 -0.8339743775239106 1.3526327292047975
-1.780158921805643 0.40525909923600134 0.7900533371881888
3.2101141571131784 -0.7307931644871614 1.4246825783452222
-1.771177944598364 0.4032145499046477 0.8635066388358024
2.1107709813054347 -0.4805240341742415 1.0290692479419472
-1.7229624724044745 0.39223813729834256 0.989593129692494
1.7875478648162613 -0.4069412166874809 1.0266881109430155
-1.9111671980757248 0.44298477077728204 -0.07708069705693021
3.651529700177807 -0.8463791388049903 -0.1472725436566625
-1.7746937199364627 0.41135191704707486 0.8139513503642436
3.0590599405928365 -0.7090520222102356 1.4030172877266076
-1.5856022895676831 0.3806694300739944 1.90925460961205
1.650601488393747 -0.39627435706935216 1.9875214113165218
-1.6703254238894931 0.40100965502735225 1.4671295903509094
2.221540140169034 -0.5333446000984335 1.9512887903033704
-1.785314272328577 0.42861603506865864 0.7605144597585944
3.6680895614458886 -0.880630390106631 1.5625457066058455
-1.7931720750903828 0.43050252660480925 0.70512515463776
3.6512613288579683 -0.8765902889094117 1.435777550241003
-1.840343806300482 0.4418274572973904 0.3997038561104652
3.6925040077027727 -0.8864917800676119 0.8019741124073234
-1.8665106548435966 0.4481095618246586 0.20429340654225892
2.9331381302139783 -0.704184162512324 0.3210379640348834
-1.8741699726262773 0.44994840133332487 0.15169162746705378
3.7235531904429457 -0.8939460293303241 0.30137706380330637
-1.905152249486616 0.45738658791543146 -0.1541992719540729
1.9322627325251502 -0.4638952390413791 -0.15639354107245518
-1.7194314126227919 0.4127989598658446 -0.4245287222552389
1.7024363214902478 -0.40871879947628464 -0.4203326233180296
-1.8103395576142183 0.44969068307244464 0.6060907322299158
2.863614407779056 -0.7113255155222394 0.9587207802729792
-1.7714601674235633 0.4400329923598157 0.8589184133935818
2.1329136434271243 -0.5298185023981334 1.0341744263899721
-1.790875049435363 0.4598185595663899 0.7658658169602401
3.6743806854684333 -0.9434206114063224 1.5713450061110887
-1.7437236854255942 0.44771214695686806 1.0362540915977385
2.659761936637939 -0.682910794295755 1.580634140921403
-1.819086525531218 0.47468422530039506 0.0738654105906474
3.7438391385455225 -0.976941644164388 0.15202147411500608
-1.8265487638845521 0.476631470130173 0.5323899462173989
2.1996167133650166 -0.5739822382756355 0.6411292415959329
-1.7950830822447814 0.46842061127157 0.7345228783193503
3.6616981277405283 -0.955507236547096 1.4983156350407776
-1.806061186882136 0.4788684466927112 -3.2046549370840617e-15
3.7544550961714283 -0.9954757309108014 -6.6618634780458116e-15
-1.7748329332518242 0.4780559790524541 -0.07221869520369521
2.1362389991334996 -0.5754016657498455 -0.08692445935066458
-1.8038189835601306 0.4858634489271609 0.036684922580008196
3.7497939851580817 -1.0100170000425475 0.07626092379014973
-1.7331978469544624 0.46684145763473894 1.0999587613842106
2.569081204121114 -0.6919888668344302 1.630444778215075
-1.793222858431051 0.4905702614141706 0.7700705153532391
3.6760357348088784 -1.0056495783077477 1.5786140130055883
-1.8110838785822843 0.495456483605416 0.6511060263833429
1.9057559791662915 -0.5213558395687609 0.6851417637390689
-1.8395639092699054 0.5032477383475812 0.4578682534962077
3.6992617287585254 -1.0120034912471862 0.9207478459632639
-1.8831222874451787 0.5151639621832048 0.15365071622005913
3.734010368317881 -1.0215096433198485 0.30467132766165145
-1.7833929207337413 0.495416728861431 0.8269902992423869
1.5742904494197418 -0.4373292142532589 0.7300258483275871
-1.7220656612812966 0.48567274621285533 -0.28338814693256603
1.588234462976453 -0.4479284446620538 -0.26136449467463996
-1.7987314110835826 0.5072947238668548 0.19890292586614702
1.577026362050439 -0.4447674332796435 0.17438687935677682
-1.8497951556103343 0.5216961892661279 0.40589526775479706
1.5676881972614756 -0.44213379843074374 0.343993343616218
-1.642127038978111 0.4631277230494683 1.706185365076138
1.8570329992045602 -0.523737472275301 1.9294746694372522
-1.74786229474933 0.5152526658388649 1.1166615821006594
1.4766623638231493 -0.43530558545111586 0.9433993377903592
-1.7570476280517768 0.5179604120296956 1.0833248101689779
1.4766783148995686 -0.43531028767203606 0.9104603823079057
-1.7695073787414408 0.521633424358998 1.0141830244936558
1.477362161201146 -0.43551187885629034 0.8467416654600985
-1.7158220697926234 0.5278557926571951 -0.07053287865103369
1.4898462423978454 -0.45833655077842395 -0.06124361381856227
-1.7536335837535943 0.5546014781697226 1.0586795805830413
1.4103142557656578 -0.44602383198961404 0.8514155514679416
-1.7108034573334432 0.5484555865117401 -3.0813356061833033e-15
1.4284654481782055 -0.45794264199901463 -2.5728153802860847e-15
-1.8242521409797265 0.5848253775952754 0.622449519118963
1.4100717934955667 -0.4520459373694922 0.4811278496365938
-1.6393191063458523 0.5326470660626883 -0.44256634596888
1.417689212695843 -0.4606351483417907 -0.382733009182611
-1.705612652757557 0.5541871450249812 -0.35672690821185443
1.4169302912659743 -0.4603885598213331 -0.2963493271100168
-1.7016941993004584 0.552913962317998 -0.3413209667468159
1.4163031536026256 -0.4601847904422617 -0.2840780451581348
-1.6961928247118627 0.5511264573578082 -0.23242532004113362
1.4128111134807153 -0.45905015782661746 -0.1935941895428115
-1.6942211740277495 0.5504858292164487 -0.22504436297741748
1.4125816351572267 -0.4589755957994575 -0.1876340227066184
-1.7014736047620254 0.5528422868075797 -0.11255655563086675
1.4105799008781283 -0.4583251929055539 -0.09331324014701807
-1.6999847733200604 0.5523585361477145 -0.10541260847117558
1.4109175289142613 -0.4584348949044939 -0.08748813483199118
-1.7016254284810939 0.5528916173242604 -0.07029765742254598
1.4103825338794895 -0.45826106448030973 -0.05826581252367796
-1.6999766661475308 0.5523559019676789 -0.06320041230401806
1.409640798282033 -0.4580200599752991 -0.05240653088132326
-1.7035595809913004 0.5535200615703448 -0.03517521075850927
1.4083520189615433 -0.4576013101899743 -0.02907974551751075
-1.7036778171882083 0.5535584788395279 -0.02814081956320979
1.4084497661659776 -0.45763307018194677 -0.023264334567046376
-1.7084257012208133 0.5551011598771509 0.028219243632895637
1.4065518924099116 -0.45701641361763734 0.023232986079442918
-1.7134887844355204 0.5567462553372755 0.05661972078350662
1.405082720949532 -0.4565390508730168 0.04642889528109769
-1.7170605768535978 0.5579068010447642 0.0638355446689962
1.4048984851549804 -0.4564791890346159 0.0522302248467279
-1.7213781072719159 0.5593096517167604 0.11387328616243556
1.4048967651930577 -0.4564786301851105 0.09293728710483581
-1.7232518370996621 0.5599184634432143 0.14260231494624456
1.4033350985822004 -0.45597121394429363 0.11612860604283473
-1.7275276061083358 0.5613077450106746 0.171703190199347
1.4033168694618718 -0.45596529094405386 0.1394790928348575
-1.7281416021106262 0.5615072444052269 0.22955003274878052
1.401282440791965 -0.4553042649986202 0.18613314428703576
-1.8621743810285092 0.6050571342164773 0.37350962367097323
1.3976569379058086 -0.45412626770215875 0.28033804042024923
-1.8547328935743055 0.6026392483733366 0.4359172281678061
1.3950763628869678 -0.4532877880509308 0.3278843133148687
-1.8489158215199857 0.6007491670884819 0.46672874689221033
1.3955435293238172 -0.45343957962768217 0.3522822808338419
-1.845395943889218 0.599605489517916 0.4982008302052499
1.393786044836808 -0.45286853830202906 0.37627988018807174
-1.8373778964254854 0.5970002679716191 0.5448615840457771
1.3931896369267034 -0.45267475362504694 0.41314065763435004
-1.8362420733834954 0.5966312166938413 0.552718951369235
1.3925484140054365 -0.45246640766825136 0.4191647224931152
-1.8359881319379816 0.5965487061165039 0.5608540100717881
1.3937066314334776 -0.4528427353231421 0.42574673523516693
-1.8301072198624289 0.594637881951343 0.591988473836976
1.391710748700193 -0.4521942337117268 0.4501794830400555
-1.8205070818607103 0.5915186080280307 0.6553752369838066
1.3883519141858323 -0.45110288222162415 0.4998011124716281
-1.8159515145822782 0.590038414491754 0.6959100273098434
1.3867781733726967 -0.45059154283467084 0.5314419623843767
-1.7434198865703663 0.5664714599508456 1.1633461153810278
1.3728930782523412 -0.44608000194600006 0.9161016469533648
-1.7342494525425245 0.5634918053121953 1.2184222674023804
1.3701447211124582 -0.4451870065789697 0.9626151735667372
-1.7066356669657639 0.5545195424907539 1.4146405116622969
1.3679253591331173 -0.44446589215881144 1.1338815116880607
-1.6057805079020997 0.5217497148442669 1.9768829493679192
1.3447223657821914 -0.43692678260753465 1.6554932031287148
-1.8343578737783006 0.6119880850838325 0.628314232389318
1.3497249835357308 -0.4503023209764679 0.46231513985881667
-1.7023290588139115 0.5679399400620997 -3.077910263383347e-15
1.3642839760632157 -0.45515956834624804 -2.4667050300017413e-15
-1.6927310591024813 0.5795513790085348 -0.07029765742254598
1.351128986297552 -0.46259484813986407 -0.05611121867331833
-1.8553262319397494 0.6515441978782578 0.4720918674235229
1.3020812264032011 -0.4572583805610488 0.3313174508760783
-1.845637459386747 0.6562946567745518 0.5524533392039619
1.284303154240453 -0.45668844307417034 0.3844295435713961
-1.6963964528314388 0.6107403034523726 -0.11343437115713552
1.2793138413568481 -0.46058132365048554 -0.08554495670202446
-1.733712588323468 0.6318766013709656 1.2540453029012215
1.2253936279551036 -0.446612412108435 0.8863632494173673
-1.616747880496287 0.5892471237055488 -0.44182136448512754
1.2679491297844012 -0.4621223795889937 -0.3465023961850558
-1.686273601180692 0.6296333720788878 0.14166212876300846
1.2397787508883715 -0.4629178058691219 0.10415255088084041
-1.8567351246349033 0.6932815628274298 0.47582281533209897
1.2356008610785172 -0.4613578343156855 0.31664563918924693
-1.6944953007089596 0.6479121520089101 -0.07127776058796476
1.233385902694553 -0.47160102134123644 -0.051881516017218306
-1.682195623178778 0.643209211532025 0.21315908509494033
1.223931428806034 -0.4679859812047075 0.155090228501629
-1.8124058041862263 0.6929967550883325 0.7245120415763416
1.2139654496271817 -0.464175360417536 0.48528457825560845
-1.7918019360604072 0.6851186001406486 0.8123024840978228
1.2087042608401763 -0.46216367696955735 0.5479587078574268
-1.7079234813096038 0.6530465902023282 1.1908583177760463
1.1998746407553373 -0.4587875577509349 0.836618684542236
-1.7091687016089216 0.6922845966173835 0.7301105304861581
1.2084506328607987 -0.4894728987925699 0.5162173469440301
-1.522397485554891 0.616634465741486 0.06453550678392232
1.2294311227677392 -0.49797087209291674 0.05211645533874723
-1.5906272006922446 0.6588593592062729 -0.41333939227256367
1.2445151573515434 -0.5154950567538865 -0.3233989325656
-1.5678858981630748 0.6494396032726615 -0.3237329332063932
1.24272320533903 -0.5147528059271815 -0.25659420044494236
-1.6174569294921504 0.6699725967499859 1.0261163680801055
1.1932674635775384 -0.49426756695235063 0.7570101271622665
-1.4739459935627537 0.6241354989401307 -0.06288948261085012
1.2370595287499502 -0.5238270395027962 -0.052782146741928125
-1.3659059757937562 0.5847227097198769 0.3567088701290619
1.2196296840445333 -0.5221041465133693 0.3185085461820104
-1.4186819018143342 0.607315247579443 0.12145308362484108
1.2303075319270993 -0.5266751640347198 0.10532639019946356
-1.4365361317405263 0.641841583211291 -0.1987670100011278
1.2322601365635455 -0.5505714611033246 -0.17050226407570637
-1.3440852090491777 0.6132433295553021 0.4166624167970457
1.2156472898612878 -0.5546431034136414 0.3768470438899455
-1.365085393540744 0.6358247739797426 -0.05916692602561371
1.1861575912783489 -0.5524843983735702 -0.05141165438438295
-1.4722818255521672 0.7069796626080878 0.7067609092241387
1.2146153358368355 -0.5832499766180812 0.5830695076275026
-1.3569594564268508 0.65160264972891 0.5419409750886235
1.2181401586733318 -0.5849425724353018 0.4864994766493394
-1.2260218321052765 0.588727298108745 0.41256591674882304
1.2234398387545722 -0.5874874425618897 0.4116970558314408
-1.237937213799005 0.5944489828999835 0.35834879854790913
1.1857275313158575 -0.5693782504721243 0.34323553045817373
-1.2933330847087294 0.6210497012175855 0.08460969575260922
1.1398416311410018 -0.5473441550556973 0.07456830321379844
-1.2599561576818339 0.635759766515332 -2.420501921530767e-15
1.0943415593429517 -0.5521924949642434 -2.1023396973384845e-15
-1.1652540176284567 0.5879741272438732 0.42408312875254256
1.2237043358708204 -0.6174675032252058 0.44535556674614946
-1.2476331538200092 0.6357008435042873 -0.010997775096535652
1.0823605938756182 -0.551490268109522 -0.009540912205122489
-1.2422520161461816 0.632959016912239 0.016425933466254122
1.080542557350504 -0.550563932231866 0.014287696798881127
-1.2420987555073464 0.6328809267163467 0.02737542996483361
1.0804092473292881 -0.5504960073833837 0.02381184873785708
-1.2333866924474528 0.6284419088697304 0.05438781177526937
1.0780093868340612 -0.5492732173858292 0.04753624470097179
-1.1633263928437654 0.5927444032224476 0.3960590564064619
1.2288256440207066 -0.6261179386199208 0.4183585346750273
-1.1605189405833278 0.591313934847514 0.40630114324537625
1.226708817189186 -0.6250393614770884 0.4294744165076911
-1.2973749973956068 0.661045578710825 0.49214719241261395
1.2257751926205154 -0.6245636559990775 0.46498646943884697
-1.2774424700005547 0.6508894487303012 0.567644837350297
1.2220497548107758 -0.6226654506245064 0.5430305086875894
-1.3015809352045042 0.6631886110634491 1.0181198039857102
1.2030535194581937 -0.6129863852677803 0.9410499034565559
-1.2738678407674051 0.6490680841635047 1.1270808961112357
1.1956150955392224 -0.6091963189769364 1.0578451627075136
-1.2031650314821551 0.6130432034819191 1.5810493153862002
1.1661713840832715 -0.5941939986625588 1.532436881211982
-1.3643999326426273 0.7155667255654181 0.7249779893682143
1.2180212333100737 -0.6387976463035513 0.6471992292044622
-1.2743684872052645 0.6683492601667229 0.46755772397935996
1.2273010458101545 -0.6436644928092401 0.45028897793519795
-1.2188923863756813 0.6392545271137278 -2.3606151422848885e-15
1.059931590130248 -0.5558867009058265 -2.0527575604007227e-15
-1.2333303756792093 0.6530148197272321 -0.08779994102270208
1.0635660608883746 -0.5631292419409811 -0.07571453623553273
-1.242011227724917 0.6955597081528734 0.5442993685459633
1.228998136357169 -0.6882720268244966 0.5385965075281349
-1.1339483497663998 0.640904113062472 0.051176732229250205
0.9847936244199497 -0.5566023219121597 0.04444516333428667
-1.0763406386198384 0.608344412238751 0.34869027195109314
-1.2416802961445035 0.701793877182836 0.5647055835700406
1.227947158978848 -0.6940319503750241 0.5584598701915966
-1.1226198490092323 0.6461870092977358 0.025436659083605657
0.9705987650121222 -0.5586827221563716 0.02199211951790363
-1.2419335416941937 0.7148647173503841 0.765943544853321
1.215992254739935 -0.6999327502654366 0.7499446523033225
-1.132615925328499 0.6578756787214868 1.1824723070918022
1.1947879137779713 -0.6939880431903095 1.2473810312005573
-1.0250764008542022 0.6281676263470958 0.2538992036640717
0.9934752950510496 -0.608802443804826 0.24607198650090317
-1.011631739360628 0.619928727187559 0.3195787807815205
0.9509058547565488 -0.5827158572416804 0.3003952148567137
-1.1336325053230256 0.7256853733809184 0.739975054806604
1.2095113997405529 -0.7742586134464157 0.7895047646478656
-1.113497320892793 0.7127960033577967 0.781889105923419
1.2053973973941634 -0.7716250692292101 0.8464206205500859
-0.9098286724411512 0.6235559769047697 0.3110783349420369
0.869488821407685 -0.5959088429098832 0.2972857890799336
-0.8867357416073948 0.6128607858672641 0.38329803247883126
1.1364026232945472 -0.7854161866887623 0.4912183745103131
-0.9348502703961068 0.6680538690407571 -1.97070790384609e-15
0.807630877070627 -0.5771415479777294 -1.7025234983981434e-15
-0.8960353697631538 0.6403163314206527 0.35783740979585316
1.1105510305251332 -0.7936114864631254 0.4435055999120555
-0.9411902572286321 0.683814748820902 -0.123815544229739
0.7969618794705872 -0.5790266986344568 -0.1048419998816838
-0.9299738323412785 0.6756655391280619 -0.05873457580727571
0.7939855283785058 -0.5768642529877844 -0.05014593054626227
-0.9351892024199607 0.6794547272895111 -0.009079055074934256
0.790971258271638 -0.5746742575642498 -0.007678950524616277
-0.9174186748026762 0.6665436832304601 0.013360144792364564
0.7893306755482615 -0.573482304445006 0.011494830445486508
-0.9164995346730324 0.6658758888370776 0.02224642914148261
0.7892332932763757 -0.5734115520830072 0.019157262901650707
-0.9106517203823914 0.6616272030590494 0.05751424464295399
0.7875529941330198 -0.5721907432955882 0.04973966946972582
-0.8995052411172547 0.6535288118353979 0.11833179329158462
0.7841518699942651 -0.5697196819657573 0.10315681637843296
-0.8682954798195125 0.6308535929636925 0.3026940765357023
0.8287391803872176 -0.6021142591756123 0.2889044648123778
-0.8648627416987328 0.6283595627314408 0.3242864442823706
0.8748902921140502 -0.6356450045598828 0.3280463457236766
-0.862775570914947 0.6268431443938102 0.33267249143695
0.888170310397579 -0.6452935026155548 0.34246429771644377
-1.0112918492696175 0.7347465367195597 0.4225024525129399
1.0915686250324794 -0.7930710283224236 0.45604087632614027
-0.9905833313335527 0.7197009177470469 0.7770458497914903
1.0723863345321438 -0.7791342784893767 0.8412147915910366
-0.9777448450924546 0.7103732114976775 0.8423187747412538
1.0711476174583514 -0.7782342978551 0.9227844598037377
-0.961926385137043 0.6988804276125211 0.937337067162779
1.0646635107931013 -0.7735233186066729 1.0374479670602406
-0.8909556853607288 0.6473171959827286 1.2894353083844305
1.0431171879153 -0.7578689987138156 1.5096509904823017
-1.002684541165316 0.7466976697517765 0.4062059833327996
1.0681193551507961 -0.7954268773117219 0.4327148321959511
-0.8983780756508083 0.6690208017617617 -1.92114769320516e-15
0.772997023750805 -0.5756497209869884 -1.6530250339841689e-15
-0.8886844755469696 0.6672431781560023 0.04366284606028525
0.7669559817264835 -0.5758468397211072 0.03768208164605031
-1.0189060293604297 0.7650162864095554 0.5044656428946328
1.0589616339162735 -0.7950908850125594 0.52429737979826
-0.8411441321895691 0.6684772241081588 0.06336205277377358
0.726790564284563 -0.5775977271056425 0.05474797995654388
-0.8077596933955075 0.6419458175163174 0.2692393825184232
0.6848765876398758 -0.5442876941558318 0.22828045403250613
-0.8011000819313566 0.636653266079733 0.3104066325315581
1.0094486742971913 -0.8022328419712064 0.39113660174220877
-0.8045306019159023 0.6393795818070355 0.36997873040094653
1.0057333874078607 -0.799280215219736 0.4625056659235669
-0.9616629227160716 0.7642563699892743 0.5315614959757714
1.0039493435989781 -0.7978623932229936 0.554935416933951
-0.954115271113374 0.7582580719582662 0.5793451007287322
1.0013736807637488 -0.795815452780277 0.6080407195162036
-0.9387674507602224 0.7460607945201193 0.6715399945447488
0.9973755179819949 -0.7926380178370857 0.7134648196018096
-0.7837047111733336 0.6431698347324517 0.2859309171372548
0.6659901620267075 -0.5465640008758557 0.2429833266506521
-0.8657068415390424 0.727702625621953 0.7685782674363171
0.9377176912677478 -0.7882340687230383 0.8325098103853243
-0.8734395970344397 0.7459878897461037 0.43920079540509704
0.9442647502345103 -0.8064782851392706 0.47481455018078234
-0.7777692928351674 0.6642777307570913 1.1975850798765373
0.9049774931092961 -0.7729237976437886 1.3934563287026678
-0.8899570250978042 0.7722653675301424 0.5264671837755887
0.9284710509493815 -0.8056861367252172 0.549250722928741
-0.8663369389414315 0.7517689008444167 0.6602422494424053
0.9185738090519857 -0.7970977476953233 0.7000523822849032
-0.8661562689093255 0.7696856243059793 0.5452543971081675
0.9032560163570121 -0.8026532807218594 0.568609074726474
-0.4971184505541307 0.4779701694536038 -0.501041678137811
0.6003784183809994 -0.5772527132114637 -0.6051165671441605
-0.6607977103067059 0.6403575304144886 0.36432076429277493
0.841073436070626 -0.8150568623632594 0.4637130430027913
-0.6785196658654791 0.6575313001154521 0.2664744873384354
0.5781775209639283 -0.5602929969200167 0.22706719678190565
-0.7101580532971288 0.6881910305080173 0.03885414862721315
0.6152406122707642 -0.5962096310859494 0.03366102810449173
-0.7045656331625268 0.6935843629770553 -1.6956952884402853e-15
0.6046371424154663 -0.595213344954277 -1.4551949532477305e-15
-0.6619875254876391 0.6516698722632521 0.3018259327545419
0.638385058174083 -0.6284352699979072 0.2910646473255218
-0.6967219750075548 0.6967219750075512 -0.027092048338016945
0.5962057223123947 -0.5962057223123874 -0.0231834717831521
-0.6962600772844059 0.6962600772844023 -0.007733664062468316
0.5950076978451352 -0.595007697845128 -0.006609009764949185
-0.6920112206688542 0.6920112206688507 0.011530001596247359
0.5942823220754703 -0.594282322075463 0.009901683552947238
-0.692629409817101 0.6926294098170973 0.019235418187137716
0.5935066651541211 -0.593506665154114 0.0164826222208896
-0.6555257830133947 0.6555257830133914 0.28121859044052566
0.5593220076335761 -0.5593220076335692 0.2399474599855131
-0.6538085611256779 0.6538085611256744 0.29242046918358156
0.5914490727294947 -0.5914490727294875 0.26452975018861363
-0.6509560138030839 0.6509560138030805 0.31115516416605216
0.6163023798075294 -0.616302379807522 0.29459082349448806
-0.7611527597898601 0.7611527597898562 0.6309080380915782
0.8061697741288472 -0.8061697741288374 0.6682219620471194
-0.739421817976783 0.7394218179767792 0.7288125617741671
0.8030672088142793 -0.8030672088142696 0.7915447657931296
-0.7277360857197469 0.7277360857197431 0.8113355527046787
0.797532745292071 -0.7975327452920612 0.8891501787514863
-0.6450305503035637 0.6552430855463696 0.29875087952800244
0.6224620764639357 -0.63231729322879 0.2882981166223986
-0.6838099979179039 0.694636514119087 -1.6717986355411875e-15
0.585456031187215 -0.5947253446310447 -1.4313399878450571e-15
-0.4790844905454048 0.49827741320488944 -0.5022097872490079
0.5839523649858603 -0.6073464693644753 -0.6121396095482846
-0.6712469932162846 0.7735436577962145 0.6056976833217619
0.7100520459668309 -0.8182625209702606 0.6407133046798
-0.6776606055466217 0.7809346914869939 0.5684268742083706
0.7120117708465402 -0.8205209039009028 0.5972408931391239
-0.6318096619447165 0.7280961581517726 0.271877795264586
0.5389563297945625 -0.6210921686875599 0.23192152243670439
-0.6610897494211869 0.7864612532572696 0.5491593942884312
0.6933310707592399 -0.8248169379557426 0.5759418765649515
-0.6494140708929446 0.8041094960008383 0.46181087359170236
0.6728518754514318 -0.8331303658211879 0.4784779485495062
-0.6321940270849108 0.7827875053507881 0.5791713335316698
0.6658455385880597 -0.8244550656444125 0.6100004618651075
-0.6517861880478798 0.8201418204638335 0.041160167592981335
0.4861117869884453 -0.6116739096968112 0.030697862256476884
-0.650539273536966 0.8185728293503419 0.061661792346409144
0.48564309288055707 -0.6110841524329523 0.046031999551472184
-0.6365498792067706 0.8009699903464722 0.2669762645746194
0.5754250560121169 -0.7240566947141408 0.24133981800168314
-0.6330954773640287 0.7966233204294475 0.3086719972546482
0.45844919154259295 -0.5768660972519591 0.22352146343301396
-0.6288840109661871 0.7913240370422174 0.36390543984706747
0.5117992293295694 -0.6439963892323265 0.29615401316440854
-0.6468172900951166 0.813889461810939 0.4116106621397336
0.6618035413047937 -0.8327466446945471 0.42114735956243105
-0.6412985623739854 0.8069452529847154 0.4460409315102067
0.6623507852091935 -0.8334352410781809 0.4606833362101555
-0.6436929403650964 0.8165206022779776 0.3975556622408291
0.5567513456732298 -0.7062357151693048 0.34385906082339646
-0.6472260507969615 0.8835131233715594 -1.8784309429219367e-15
0.4650116291962247 -0.6347764840573986 -1.3495937501668104e-15
-0.6093902141176122 0.8318643088672821 0.3350542322825513
0.42663725857133383 -0.5823925294769752 0.23457321076403304
-0.6687177757354831 0.9204110564200106 -0.2263007371512243
0.45648924609113384 -0.6283035452093451 -0.15448049482221696
-0.6598389763367131 0.9081904374520533 -0.14629646143214267
0.4545877920391628 -0.6256864182296054 -0.10078911336035255
-0.6488858092135694 0.8931146962518592 -0.052060982896984395
0.45093170285775586 -0.6206542431806867 -0.03617885818559929
-0.6474457018193314 0.8911325584708931 -0.03894645592083483
0.4505681265965644 -0.6201538233880703 -0.02710348007951235
-0.6463600897297244 0.8896383416181133 -0.034558002366389014
0.4494614860340972 -0.6186306633254304 -0.024030708802676683
-0.6454284736200594 0.8883560820479507 -0.01724983851792335
0.4496279013131569 -0.6188597143068183 -0.012016836888684244
-0.6419157699897601 0.8835212602792332 0.01715595736321273
0.4490448400081902 -0.618057199268136 0.012001253886431315
-0.638668376334193 0.879051606363058 0.03841846458634673
0.44823702618923755 -0.6169453389326226 0.02696325503977917
-0.638574773485573 0.8789227730945127 0.04268509814560834
0.4464233915267321 -0.6144490849728104 0.02984086918717644
-0.6073718110462057 0.8359755797278269 0.3046133832338546
0.47051209654673326 -0.6476043430499027 0.23597453647820082
-0.6050434167315193 0.8327708198893645 0.3211031382759194
0.42705503350950824 -0.5877908271686909 0.22664276262554492
-0.6032019989269816 0.830236325715165 0.34686019078798197
0.4442439916964831 -0.6114493984489777 0.25545431876943925
-0.5999251864602553 0.8257261802791884 0.3629366967560162
0.5111731218127055 -0.7035694430938078 0.30924436661145915
-0.5969118283882662 0.8215786487089969 0.4020756062181281
0.6110673443557365 -0.841062044961558 0.4116106621397336
-0.5712274857056135 0.786227183801408 0.6167422273739247
0.6043689881215771 -0.8318425485439856 0.6525244061556223
-0.5673986067653929 0.7809571840524154 0.64500364163128
0.6024733687216582 -0.8292334522738429 0.6848756979271352
-0.5552268341773944 0.7642041763222077 0.7446691476763648
0.5989489545745328 -0.8243825123614866 0.8033091703240021
-0.5951418295425867 0.8328198159690203 0.33259187731817713
0.41700422186093045 -0.5835405311292615 0.23304061336929977
-0.6309811863070255 0.882972107445404 -1.8613463204979452e-15
0.4413477572724135 -0.6176059885967838 -1.3019421844683855e-15
-0.5624088403970668 0.813737853157494 0.4654718064307
0.5818849582474407 -0.841917449901054 0.48159101208128885
-0.5067964649401377 0.7520642919298404 0.8187164612539843
0.5543639553378452 -0.8226524144990336 0.8955605004359499
-0.5314431974809087 0.8672364784223343 0.19402581875847233
0.3809471468759063 -0.6216492443363387 0.13908086965203204
-0.5274888790095281 0.8607836171533676 0.22566135460383058
0.3810048694324215 -0.6217434389875734 0.16299504760786127
-0.5250367406715335 0.8567820910694378 0.25800362278017336
0.4983355881622886 -0.8132097702989382 0.2448826475299831
-0.5210428928953791 0.8502647238377846 0.2897174540138542
0.4336882653410902 -0.7077149274848074 0.24114532946049358
-0.5367428979755902 0.8915269792194945 0.04088651118067608
0.3779398621146922 -0.6277560166488954 0.028789654145881572
-0.5023011851094328 0.8343194850048121 0.38557686183037926
0.5137633969268955 -0.8533581553166777 0.3943754945894245
-0.5164560636801765 0.8972384462798683 0.02032989929303968
0.3637755475235243 -0.6319867845655445 0.014319747150850316
-0.4580540079466067 0.7957766309755014 0.624001666181534
0.4856006953195235 -0.8436334550439577 0.6615281991236576
-0.4791216039840489 0.8477073888308434 0.34625376751357584
0.34272486061761076 -0.6063813325588203 0.247681952186324
-0.4631046478845911 0.8346038625051754 0.4264592334551226
0.4763396248910394 -0.8584558427869602 0.4386469283416823
-0.4517477510201418 0.8141365447349069 0.5359306447436557
0.47227365744132943 -0.8511281855201863 0.5602815402100133
-0.5074839635429313 0.9231099027880176 -0.11211214974949046
0.3512913434610631 -0.6389965815839587 -0.07760644775620461
-0.44012715053884344 0.8554764629918812 0.31259096696075334
0.32898361883020477 -0.6394464469519061 0.23365363258885102
-0.4673314857231102 0.9083536109092263 -1.752035564982364e-15
0.3282241016003918 -0.6379701710335803 -1.2305190573634603e-15
-0.4637464917126788 0.9101537365264559 -0.008022924099878165
0.3257062283685125 -0.6392344655044929 -0.005634794862614586
-0.46237278053543385 0.9074576765384651 0.011999046268006523
0.3252438001310725 -0.6383268989876509 0.00844040906048945
-0.4614119793781902 0.9055719980935572 0.019958495813643097
0.32520367375418807 -0.6382481465388296 0.014066769939417533
-0.4386014552345626 0.8608038237731951 0.2930640551885713
0.3396968357855447 -0.6666925785995581 0.22697811656095981
-0.4378654196893698 0.8593592726797745 0.3050254328732947
0.33674103941250555 -0.6608915015856975 0.23458025387314127
-0.436346627253209 0.8563784746888836 0.32485924486504913
0.3072887263813839 -0.6030880826193927 0.2287758799379242
-0.43190868025978574 0.847668513296716 0.36376501134878975
0.4403526357047168 -0.8642407089609467 0.3708767358605668
-0.40865994752298673 0.8020403061877931 0.6273702212734523
0.43426656904165395 -0.8522961305908151 0.6666812227689589
-0.40254991256463546 0.7900486873895293 0.6990119022221906
0.43133096870840926 -0.846534690536825 0.7489890607684376
-0.4257959121020512 0.8605870010748716 0.3119757279311024
0.31848070462423056 -0.6436894923197084 0.23334711967206667
-0.4503571050647778 0.9102282559433499 -1.7417906300229769e-15
0.31728388279987835 -0.6412705651403573 -1.2271197409856408e-15
-0.43453860850179926 0.9049246104729468 0.05920005981166704
0.3078855020660983 -0.6411701114154869 0.04194527202151373
-0.4191050473927493 0.872784291979798 0.25264706395136266
0.3770184800925418 -0.7851392133259205 0.22727622261614688
-0.4161376425339735 0.8666046853041071 0.291619241263735
0.328829184312385 -0.6847852312869619 0.23043557571632373
-0.41118107031313567 0.8562826469432646 0.3419812216481777
0.2905904178501143 -0.6051531797987391 0.24168541129569868
-0.40582044937399747 0.8451191790250331 0.40569488056166153
0.4168961133770407 -0.8681841972710203 0.41676711753687007
-0.4036431887370529 0.8405850439787177 0.4432707525040203
0.41610095567175975 -0.866528285085917 0.45695155742716054
-0.3978414940178261 0.82850304198589 0.5147056003753895
0.4147692418781796 -0.8637549973680041 0.5366057961982881
-0.41387594695427654 0.8706400892301991 0.271877795264586
0.3526404543690213 -0.7418235317065623 0.23165180281796474
-0.37918006249657166 0.8310735543386246 0.5021944120398598
0.3940326807368204 -0.8636270017717081 0.5218655462110566
-0.376003015893327 0.8241102150863615 0.5357089558981003
0.3937961865568675 -0.8631086621274247 0.5610597123425239
-0.3990921242821364 0.9124004060505413 0.03912768041654384
0.283328399728618 -0.6477425417077061 0.027778005134661287
-0.3746907796521264 0.8566142970446391 0.3701834217552162
0.38210954250753976 -0.8735749981705859 0.3775129403026329
-0.34449130109551956 0.8316755712243519 0.5276158523946789
0.359616691978309 -0.8681914950297676 0.5507815926558859
-0.37284183786109937 0.94169098820079 -0.10779168187655701
0.2953102020594186 -0.7458684293545068 -0.08537663996589671
0.2905858232745715 -0.7339360106322418 0.08401078269525604
-0.3435965692058548 0.9093019357212246 0.4574138031625189
0.33181175435046495 -0.8781143281589814 0.4417252385326962
-0.3274421081241308 0.8984198870005119 0.5111158112103483
0.3190202964491804 -0.8753125257124423 0.49796991152516584
-0.3321110258656136 0.9954613335024565 -1.7998521727187534e-15
0.2201590395892661 -0.6598992326765747 -1.1931363155306738e-15
-0.3131589247978618 0.9386547768625346 0.32151313766717604
0.22788092022242337 -0.6830446057402798 0.23396015209365756
-0.33041805744203684 1.0169222157747766 -0.11379856932294286
0.21558844413720815 -0.6635130053262988 -0.07425035028443312
-0.32693337379173404 1.006197462271976 -0.05405771007533871
0.2146894011333766 -0.6607460354741939 -0.035498417515824304
-0.32427252649059096 0.9980082163383106 -0.008241885987553408
0.2146567892850745 -0.6606456665255576 -0.00545583310090617
-0.32179850499016444 0.9903939610958306 0.012268822722856875
0.21434248702242176 -0.6596783436260943 0.008171976980858526
-0.32114352475713914 0.9883781392154732 0.020408097106748277
0.2140100627323269 -0.6586552468611122 0.013599957045266483
-0.3041356737753907 0.9360333562462165 0.29855493285429435
0.24854508147743173 -0.7649431055089579 0.24398440074662212
-0.3036143975146987 0.9344290328803645 0.31072927144389306
0.2379829373611049 -0.7324361684448671 0.24355980924360765
-0.30254506703663797 0.9311379720722373 0.33091624223811855
0.203071464638732 -0.6249897035886792 0.22211449898107752
-0.28705407457974247 0.8834615996131443 0.589514681985234
0.2847148996830078 -0.8762623595428788 0.5847107858991838
-0.2839709295087525 0.8739726547854357 0.6404719430866839
0.284476103194775 -0.8755274195223097 0.6416113187715141
-0.27908109559958477 0.8589232934636688 0.7119666551352385
0.27956475705648387 -0.860411850367122 0.7132005288555063
-0.25796729326786577 0.7939416916201651 1.0589383673809167
0.2728537188220587 -0.8397573984756784 1.1200461418309222
-0.2946645118970152 0.9317205314855332 0.3175132700168761
0.2208225587562375 -0.6982344446020751 0.23794549358115627
-0.31253067653699645 0.9882128192972031 -1.777650217752767e-15
0.2088707109468298 -0.6604430528884121 -1.1880403834624819e-15
-0.2897477630881654 0.9828948468713703 0.040261070267812976
0.1945933111504163 -0.6601078149037499 0.027039156024439338
-0.27274966468443607 0.9252331650362139 0.38191126028384886
0.2628038172528434 -0.8914944328227374 0.3679848228981729
-0.2779556053308285 0.9855562352084007 0.03218056411897634
0.1933050794905392 -0.6854081109916856 0.02238007216175786
-0.2737551353480075 0.9706624920962671 0.12740664153825898
0.19320979737829613 -0.6850702661055815 0.08992054656787668
-0.2615192663489714 0.9272773731998875 0.3683874950100945
0.23981817340417927 -0.8503311017364125 0.33781838482359416
-0.26640589276299576 0.9890598022124714 0.02011486884318692
0.18939621690343525 -0.7031533082376266 0.01430028451284128
-0.25520712180639704 0.9474831911530076 0.27674162582056244
0.2293027712335301 -0.8513105742926164 0.24865145324771262
-0.2600021794617394 1.012641630724792 -0.11126901814152279
0.19336248696564362 -0.7530971645208914 -0.08275028353458842
-0.21187406148555316 0.8251949871158208 0.3143049718164453
0.1630027942354311 -0.634853968182033 0.24180679923229614
-0.19719123440175668 0.8213606033174757 0.33060909907784447
0.2155742956125464 -0.8979315639523211 0.3614299787362601
-0.2068632135187054 0.8616472957096212 0.11194439998950938
0.19972655433631703 -0.8319209708579922 0.10808238403938886
-0.21026039424461268 0.8757975718061982 0.02830512021643448
0.2007508858421159 -0.8361876186435924 0.02702495625831497
-0.19857846666055684 0.8722844959451632 0.05275747067889652
0.2038667957203847 -0.8955142424827175 0.054162451138288194
-0.19141048146602152 0.8407980892994443 0.22501688962242208
0.2070052087386055 -0.909300173372928 0.2433496214483379
-0.18972433105596093 0.8333914309378326 0.259274759752584
0.17832458525505343 -0.7833164067568472 0.24369601802071933
-0.1875785782930845 0.8239659030915126 0.3042358747881869
0.14446107011980946 -0.6345660425939018 0.23430308748830844
-0.18519624878627514 0.8135011778472861 0.36104041751107335
0.20505978610310294 -0.9007546244443508 0.3997644189587988
-0.19262890306554628 0.9684108917062929 -0.5030968599866102
0.18501046591833953 -0.9301104217678413 -0.48319947311594486
-0.17416364407232823 0.8755797659373568 0.02805527694625301
0.18114433614920566 -0.9106740748977918 0.0291797667933526
-0.17114384116062686 0.860398191500924 0.11082300165004369
0.1805747623123987 -0.9078106338543306 0.11692992891821731
-0.16773778574737758 0.843274794609527 0.20641864259031234
0.17943420378690922 -0.9020766589360567 0.2208122911300893
-0.15684480596525174 0.8222092666139158 0.30879868642196145
0.17065887810795033 -0.8946251687886679 0.3359960635078675
-0.13224076296673806 0.7577054069651084 0.522719711571904
0.15347248859239607 -0.8793577095142479 0.60664422354714
-0.14352194821039713 0.8418495495526092 0.20502630636082086
0.1544098385693468 -0.9057141062183309 0.22058005247555473
-0.142389542205471 0.8767155857349157 -1.5233791417084135e-15
0.14940388876966024 -0.9199040591390513 -1.598423341465554e-15
-0.13451110330513244 0.8282067551831613 0.2726267297177867
0.14679364249109367 -0.9038323479755759 0.29752094594692796
-0.14366649070532928 0.9070745232988094 -0.17519060657082405
0.14687674341431114 -0.9273432612026086 -0.17910527112879002
-0.14217091610811466 0.8976318369203362 -0.11481078329147648
0.14664771783251623 -0.9258972505886516 -0.11842604530630291
-0.14053410157400625 0.8872973966763673 -0.05651987390403722
0.1462791058038953 -0.9235699258346189 -0.05883039434722149
-0.13940786265455324 0.8801866039927849 -0.00699928437325611
0.14578579474932837 -0.9204552824166411 -0.007319502756886595
