0.49883660042349864 1.6679960707580321 -0.233844294379171
-0.5235071940421095 -1.7504889214914896 -0.2454093590752315
0.49955507714253367 1.670398493401567 -0.15790376228225278
-0.5323247538497793 -1.779972834861882 -0.16826188989942384
0.4865552650981445 1.6269300803135434 -0.07339950801088956
-0.5408660504990425 -1.8085329871002194 -0.08159258537345232
0.4266397586750268 1.4265862619040828 0.7150154919050699
-0.543231434703785 -1.8164422935865399 0.9104141927824594
0.3672806554472191 1.2459052651418399 1.4387970636702392
-0.5077487518052257 -1.7224071942287351 1.9890713064918844
0.37657948996547463 1.2774491722715804 1.331798971316616
-0.5170053174738586 -1.7538077151454659 1.8284244583793976
0.38461546946323966 1.30470916818573 1.2279743185839316
-0.5217405422451196 -1.7698707486503495 1.665777998308784
0.41457811853350407 1.4063497574206407 0.8439445144297848
-0.5298140427424194 -1.7972580249158614 1.2203002384612034
0.4277208205293008 1.4509329974358682 0.6758552630833833
-0.5310810154487753 -1.801555904322871 1.0811060441183826
0.43441184565381574 1.4736305811724213 0.5874344717405305
-0.5349725300413695 -1.814756867805105 0.8453270981432808
0.45935881245867743 1.5582567569062058 0.2573040244005279
-0.5385925142926149 -1.8270367343634604 0.7283130335470187
-0.5472057440021697 -1.8562549033191427 0.30651037116983715
0.4851496491020824 1.669896045272525 -0.2754215241394657
-0.5090890578114741 -1.7522960305223874 -0.2890120285249541
0.45334257031620767 1.5604153619936472 0.3431681978175254
-0.5367534954090238 -1.8475176493040126 0.40630803668690707
1.043858632233971 3.6463717213435634 -0.13410602408766348
-0.5375387427306971 -1.8777121825635141 -0.06905837759507887
1.1448215740859005 3.999052060140642 -0.2945219580818589
-0.5389992674096329 -1.8828140380477174 -0.13866538090787509
0.4777338457543285 1.668803736152694 -0.1847416109694529
-0.538954222633113 -1.8826566891556125 -0.20841577839396702
0.47808745278711867 1.6700389442977615 -0.24722927014482415
-0.5169970156818439 -1.8059565153634476 -0.2673502391851935
0.4004467922919723 1.419877222993312 1.0718432899299546
-0.5015702940445239 -1.7784341139749529 1.3425123248530022
1.0145945384822976 3.597480872600076 1.2144901373656727
-0.5163891485963512 -1.8309778088028272 0.6181282317476956
0.44636636201465585 1.6068222239892527 -0.4774090608231387
-0.47797171191674165 -1.7205946381793047 -0.5112124154165318
0.4499311877873569 1.6196548246591878 -0.4669691373254474
-0.4800618195080537 -1.7281185728080048 -0.49824075281598545
0.4869183532911622 1.7528006093586443 -0.4518855397777039
-0.4819893690287228 -1.7350573335911244 -0.4473111861947456
0.4910236941651406 1.7675789473220755 -0.41763308867018867
-0.4850290371265303 -1.745999480376253 -0.4125344199820972
0.4877497126194111 1.7557933228747833 -0.38484545623926597
-0.4932420149872577 -1.7755644218117714 -0.3891790059182784
0.48502861351252596 1.7459979554575658 -0.3162647365928035
-0.5258465907826892 -1.8929338327937797 -0.3428802526055879
0.5811125277432261 2.0918792357066747 0.09384291832171619
-0.5178060027692128 -1.8639894574701497 0.08361965041964733
1.0050056122097721 3.617802528048842 0.23623206274819258
-0.517533560860626 -1.8630087256079018 0.1216490924410936
1.0300693243953671 3.7080264633241486 0.3485425859597036
-0.5164430987856099 -1.8590832983229135 0.1747478629726593
1.0255986459750102 3.6919329893228467 0.48406117353481215
-0.5152635065380808 -1.854837021721737 0.24319363001632338
1.0242842426557255 3.6872014220623135 0.5140072600545987
-0.5150013331503811 -1.853893254310606 0.2584384423319397
1.0177192100934165 3.663568726769775 0.6944233533236926
-0.5130119860908571 -1.8467320357724448 0.35004498307913917
1.0162280282154093 3.6582007949866147 0.7242648260330761
-0.5127855086553469 -1.8459167660577482 0.36546178309089894
0.5293416092883477 1.9055151424220136 0.45022383619310075
-0.5116154516312941 -1.8417048141958352 0.43514710963074155
0.5299728353889132 1.9077874196656948 0.5083856362203251
-0.510292425646254 -1.8369422072061807 0.4895068617624736
1.003251204988338 3.611487042041778 1.0412422219895698
-0.5094247492141207 -1.8338187599820421 0.5287155950282291
0.9911937004750486 3.5680826373497245 1.3661820307638417
-0.49628720902299583 -1.7865264607765778 0.6840425506540351
0.5878020905998274 2.115960213086433 0.869492426028939
-0.4943216027159507 -1.77945070380529 0.7312136116178297
0.7778248148669452 2.800000863097066 1.2037174602176746
-0.505018642535569 -1.8179577302655334 0.7815381383268
0.5141420602858872 1.8508000581098016 0.8855405618862058
-0.4905894893358691 -1.7660159039818977 0.8449744255515494
0.503797058882366 1.8135602936988982 0.8857130373773685
-0.4900076395281783 -1.7639213706980685 0.8614702033144679
1.001317753249353 3.604527034551093 2.0566447467217026
-0.4881515524444646 -1.757239859209815 1.0026331029096962
0.6472699235739069 2.33003153155217 1.3542934349723763
-0.5004927670120843 -1.8016655586482075 1.0471891925289476
0.5645768242803367 2.0323542847369276 1.2925900629344866
-0.4982224654708582 -1.7934929648283362 1.1406727664020921
0.3868288697669016 1.3925001472259098 0.9171716117993846
-0.49675200279938847 -1.7881996177011024 1.1777994629683048
0.35084365134644474 1.2824683940608739 1.8300271994002757
-0.38865744096743476 -1.4206923290315725 2.0272668052852563
0.361280193089661 1.3206179654657018 1.6952845812341732
-0.4316845936725641 -1.5779731098551388 2.025652802471306
0.6321747052056041 2.310841526815483 1.9348557000570603
-0.4834376282066052 -1.7671503425966546 1.4796258737581258
0.17626777916690525 0.6544126069852059 -0.6118445961568946
-0.19144103391235243 -0.7107449057260801 -0.6645126105041159
0.9887862760782781 3.670972696983235 0.6021471234199233
-0.49793297187043556 -1.8486283526445397 0.3032292356007419
0.7077580662693705 2.6276260099900743 1.215860629864412
-0.477125430799263 -1.77137817531948 0.8196558322164534
0.9377896511144688 3.4816423812117225 1.9455459130056474
-0.4722531348971857 -1.7532892660568138 0.9797401319277165
0.9640904978516082 3.5792870316436796 2.133688322379731
-0.48263456657303677 -1.7918314193609624 1.0681484165319615
0.5498417931839119 2.041345292982859 1.2615067963689395
-0.4826738230124353 -1.7919771630071868 1.1074027396748094
0.48221691499288905 1.7902808440903577 1.2283571736990258
-0.47961754841380005 -1.7806304231934305 1.2217357747285302
0.6130257542859788 2.275922371674611 2.1278789398584497
-0.4741108114927698 -1.7601860851442122 1.6456900935748375
0.36863878614476525 1.3686101351990676 1.5700308096276663
-0.4630224056510758 -1.7190192161425775 1.9720101892225734
0.3119002851660223 1.1579625028443556 2.0834253176247493
-0.29893641822385725 -1.1098327879167305 1.996829537222561
0.9396860820443549 3.6010682448829043 1.209238422689293
-0.478182052267714 -1.8324909101004914 0.6153502980320325
0.7437292160370108 2.850121667052764 0.6220693982260715
-0.48132939945260395 -1.844552184838616 0.4025931527357144
0.9666829730286436 3.7045258236336545 0.4074671173087409
-0.48542197097880624 -1.8602357515578936 0.20461050490355862
0.48791121121232184 1.869775026566919 -3.3142827249753006e-15
-0.4881633911765763 -1.8707414314958077 -3.315995732751975e-15
0.1762381003301209 0.6864020820271539 -0.6052580555274079
-0.1931749941790699 -0.7523669283300647 -0.6634247710020328
0.5092420314164019 1.9833667632890095 -0.3243236588955139
-0.4856480693003988 -1.8914743479182472 -0.5590418087692866
0.6219904873349601 2.4224930063821906 1.8171327600630043
-0.48593359266369346 -1.8925863879973543 -0.30947909055068884
0.45733949599396084 1.781219734299712 2.1531866717833017
-0.45651635317083045 -1.7780138046707636 1.3337033889466579
0.43386006064719035 1.6897733712450895 2.1601556429123856
-0.43102923474953797 -1.6787480323066817 2.0293161022417556
-0.4077824924759517 -1.5882079489362335 2.0303174504904056
0.9382381634127069 3.7146960085532834 0.3015339330063042
-0.47004559468325235 -1.8610162776334462 0.1510647321588268
0.5429984258759328 2.1498529519575555 0.08712057423848833
-0.4711355602632912 -1.8653316966256812 0.07559064372626513
0.46368311022128456 1.8666694868925018 -3.2988657539702418e-15
-0.4639238849706509 -1.8676387843889237 -3.3005787419088153e-15
0.488901372070162 1.9681917525693764 0.07170546357008531
-0.46315291794857516 -1.8645350685455275 0.06792902737154673
0.9232242285273737 3.7166643747913914 0.271151155292672
-0.46228502592237086 -1.8610411574508152 0.13577321194581174
0.9143932584634024 3.6811131502703827 0.5398212146471635
-0.45977236782229103 -1.8509258392452974 0.27143122038773126
0.910566577405738 3.6657079120614635 0.6592109006695714
-0.4589132723354379 -1.8474673407658713 0.3322334018094202
0.4920731438251129 1.9809604935992768 0.5070271629064642
-0.4560830670060812 -1.8360736587155815 0.46994335377905283
0.8965121380119054 3.6091283373615632 1.0645955245308332
0.8910091920821309 3.5869748859446524 1.200897492389546
-0.4552673139687143 -1.832789645841 0.5406235168115907
-0.454041756030182 -1.827855863354971 0.6119550854269297
0.5298900305579981 2.1332015974856318 2.198029230924828
-0.43312195814460797 -1.743638113076502 1.7966269785350528
0.3666895543724308 1.4761982639017532 2.093559040573635
-0.3550783842333748 -1.4294546656815403 2.0272668052852563
0.2298508782964072 0.9573978105231118 -0.5667433335751922
-0.2685519146200369 -1.118599228224204 1.9985613915439588
0.2795349949639769 1.1643470502556867 -0.5350104047131896
-0.3780353798711226 -1.574630680863263 2.0376566124962743
0.5100430237018884 2.124482089361711 -0.3460461904924473
-0.40339533397470445 -1.6802624918604183 2.023236803484569
0.48461444150451044 2.018564421781247 0.07339971528699445
-0.4095459103755988 -1.7058814863289875 2.005748115266378
0.8134627364815384 3.388316149243696 0.24672261576584503
-0.4134108037149412 -1.7219799256667747 1.9616252554890334
0.8127526543195345 3.3853584441775557 0.2740042469237812
-0.4190843330373054 -1.7456118760488202 1.7952137755710305
0.8097593036330565 3.3728902412513686 0.3691697314935089
-0.4209083624399578 -1.7532095053003263 1.7200024944611843
0.805977330849088 3.3571371908838166 0.49136791077775177
-0.4227818125735294 -1.7610129867109685 1.634976696956979
0.8043066352799756 3.3501782430139015 0.545693665421263
-0.4220528762359739 -1.7579767483517377 1.5813301748577346
0.8022064602129928 3.3414303842902484 0.5997439304690477
-0.42211560335416476 -1.7582380256027166 1.5443475848168409
0.44567076412047857 1.8563523313270625 0.45833458519388326
-0.4299636925459886 -1.7909276697090704 1.1286670478766783
0.7982415185818171 3.3249152138254905 0.8493817156520297
-0.429969017142127 -1.7909498482481412 1.0601746485168344
0.7932043538103674 3.303933912561063 0.9727037341992802
-0.43310334968980263 -1.8040052828883617 0.9453054679828916
0.6697765231909913 2.789819998059414 1.1884173456366074
-0.43528367271222806 -1.8130869818723934 0.8331024669480992
0.4499745017090668 1.8742786885153386 0.8612196848591541
-0.43572514977279525 -1.8149258661712742 0.7731285107651416
0.8364037872296596 3.4838725026504784 1.8255621298613145
-0.4395137573469601 -1.830706552428906 0.5389741886181795
0.7075851488375894 2.947304257772624 1.7446927721693148
-0.4402909528529316 -1.8339438046912446 0.468498663893995
0.4826641668186427 2.0104409430805887 1.2670073071827546
-0.4409096273028721 -1.8365207692353427 0.453438159751544
0.5997044084903494 2.497948634807079 2.1940720681651937
-0.44278150351111684 -1.8443176947751823 0.3310313895804926
0.5885351102038088 2.4514251592220795 2.205098889571711
-0.4432498525776709 -1.8462685090344222 0.3007293812344965
0.5722361227553016 2.3835349905501055 2.212944592310726
-0.4436054016774788 -1.8477494776181078 0.2704461417076811
0.5377289375033693 2.2398022197537633 2.197378803519687
-0.4450955741216654 -1.8539564925572736 0.20291932781782096
0.5136147099895884 2.139359233434703 2.2001495403721973
-0.4459969873868819 -1.8577111490236364 0.15035948269099636
0.45577860439185947 1.8984545160855562 2.1626595465151164
-0.4460263395015333 -1.8578334093800455 0.13527944212694995
0.4371935300602413 1.8210421102449532 2.141152131444208
-0.4470967140582051 -1.8622918402748614 0.06771727936076793
0.42854727495481354 1.7850278658421717 2.1493868314697906
-0.448960777193275 -1.870056222022802 -0.06799961040928051
0.39385657376782435 1.6405306961637292 2.1229347691920304
-0.45021264390329924 -1.87527062214225 -0.13654914499849014
0.2858900176036709 1.1908176245957238 2.127591427597595
-0.45135545091871254 -1.8800307559408087 -0.2057732092440491
-0.45191537162847195 -1.8823629935444388 -0.27551235438781846
-0.45269172588750123 -1.885596741761082 -0.30713535904058104
-0.45311754013829425 -1.8873703857620114 -0.33875879585270774
-0.45369038742037127 -1.8897564664143438 -0.4104357806131492
-0.32312700195813787 -1.3459208269662652 -0.6184424533810641
-0.2617173950969695 -1.0901314056260925 -0.6453166072334848
0.6120864598044697 2.594363729967369 2.1527814571743757
-0.4158732196483582 -1.762702605225299 1.4626759691439692
0.7924073942066636 3.4186796459461664 -6.018909256746574e-15
-0.4325013875486836 -1.8659387851075024 -3.285161930724774e-15
0.621166939201173 2.6798977234529597 1.9986787699565656
-0.41084981019759803 -1.7725274826209918 1.3219583037349873
0.742305722558798 3.260684725430167 1.218809802882655
-0.41488046972300213 -1.822422176461068 0.6812023242659441
0.740781627436113 3.253989918242758 1.2460855477966133
-0.41471863724202374 -1.8217113039960333 0.6976076094891662
0.7446221959953194 3.2708601684070757 1.3587315937885378
-0.4135938350180848 -1.8167704483360703 0.7546954867281152
0.744064838265564 3.268411894359357 1.4349537293122445
-0.41246715848978727 -1.811821359524446 0.7954566011658655
0.7312256167347441 3.2120137658528876 1.6138096744667398
-0.4104860997928119 -1.8031192740667972 0.9059398685154062
0.726672552922923 3.1920137777429507 1.7333262945930434
-0.4098458829608194 -1.8003070294866999 0.9776021439219739
0.44618428638900665 1.9599286966838023 1.2535964607858723
-0.40629070715317456 -1.784690408059821 1.14151172077217
0.40223261620468664 1.7668646594928392 1.221107365261707
-0.40535895928584376 -1.7805975714473197 1.2305983921176735
-0.39951786319408156 -1.7549397161629419 1.537209507394085
-0.38371673891338154 -1.6855310035248385 2.0239967145314806
0.45433308486482654 2.032569380487598 -0.3803737129475066
-0.4215366396864642 -1.8858465190473028 -0.3529160920091552
0.47079838161529525 2.1062308837558485 -0.341826488414045
-0.4215118197890058 -1.8857354812090263 -0.306041632278226
0.711628076957252 3.183641006353139 1.6621767122520084
-0.4025780834659068 -1.801030814103378 0.9403169111331787
0.6174562777356595 2.8142065640869505 2.0932761785619065
-0.3885539156243925 -1.770928597344343 1.317260322700471
0.3891900858986136 1.7738280974808345 1.2134269477911532
-0.3904362251118608 -1.7795076788215005 1.217312192962724
0.3943009565218924 1.7971221284508911 0.3885599195980705
-0.4033058795427434 -1.8381642465541008 0.3974337305972504
0.7393334599672392 3.369691346760697 0.3671597234705268
-0.4064813964276172 -1.8526374340234277 0.20186236007077646
0.7516495083141664 3.4258247206550236 -6.015480292213747e-15
-0.4089910374837083 -1.8640757310951719 -3.2731712034154874e-15
0.7139616347340354 3.380679384561043 0.5472574192570315
-0.3890755431158356 -1.842311412347254 0.29822957882172674
0.6777084183437505 3.209016797508557 1.4654076200886683
-0.3796323161957503 -1.7975967932145924 0.8208782330677694
0.6383038882372414 3.022432426432351 1.778104432791131
-0.3771824007296787 -1.7859961996992968 1.0507059585057397
0.5132530625254401 2.430304323269346 2.2424168189938687
-0.37054167159997026 -1.7545516864718842 1.6189068068009855
0.40439521422264885 1.914851579450678 2.1678526101626603
-0.3624658881984134 -1.7163120484694943 1.943080912409718
0.27313089024620896 1.2933019437187772 2.157027955119392
-0.2545753528568373 -1.2054396277764694 2.0104871781496
0.2551118828363087 1.2079801506176746 2.1449118590164526
-0.2378082185402017 -1.1260455783419603 1.999427319682127
0.17934310727975805 0.8492074588428784 2.0953889237363224
-0.16931020404569577 -0.8017006636866972 1.9781676118697107
0.21568523614444846 1.0624995966079405 -0.5524124239345788
-0.2475048669609587 -1.2192481321642599 -0.633908773440312
0.5752163675459198 2.8336068309771303 0.3422198970647696
-0.37485890809764294 -1.846614287367849 0.22301899629577016
0.5589361000462254 2.7534076575876734 0.5588575016967023
-0.3727556155225752 -1.8362531353831053 0.37270319812432706
0.5512402859786985 2.7154968599434572 0.6652299983850329
-0.37148929270675723 -1.8300150288486323 0.44830871014555673
0.7017911442868066 3.457134206480313 0.9948991246273906
-0.37037870421268243 -1.8245440942216482 0.5250699607734561
0.43882334554477714 2.1617132259864853 2.205803708401995
-0.35264219792625867 -1.7371712581785779 1.7726027473746042
0.6776476929955468 3.4067650087445114 1.1286109955922918
-0.36243025002816465 -1.8220599091076843 0.603621571422874
0.7489908496541103 3.765431277707032 -6.5847067287844e-15
-0.3705599314668635 -1.8629305776628589 -3.2577547179309445e-15
0.17841968442819656 0.9157562234577591 -0.5717280432224091
-0.20068186926689965 -1.030019032402571 -0.6430649891231938
0.5378333848799906 2.8194213395924326 0.6061671056394798
-0.3502503006636607 -1.8360763754190397 0.3947508967856763
0.41735084314424326 2.1878297374945097 -0.35276665582434497
-0.3589290059919187 -1.8815717419961546 -0.3033854781943405
0.4226292039335785 2.2637615943875184 -0.18124017148124294
-0.3495229776741615 -1.872177042784527 -0.1498893209950928
0.6786904529676377 3.6353223289015073 0.5857267571493601
-0.3439338365401676 -1.8422394924993473 0.2968234632883801
0.6387670335608319 3.421477420105388 1.5551224840972722
-0.33550231895981786 -1.7970771007309851 0.8168035798164087
0.6084182601764742 3.2589179306407736 1.908264431894042
-0.33341116598628723 -1.7858760958183857 1.04572250849838
0.45680636926953794 2.44682739668531 2.2471056120763375
-0.32733250391931934 -1.7533164865808162 1.6102023878263907
0.3596611636012296 1.9264809946289214 2.1708200811514917
-0.32045462075041614 -1.716475947348003 1.934179711974945
0.33332557508613714 1.8251171362742982 1.2083052180104987
-0.32520382124251285 -1.7806466448853435 1.1788638601245842
0.6521482191362605 3.570823780409814 1.3879341589344827
-0.3309817247048276 -1.8122834330858426 0.704411709211317
0.5437783528198298 2.9774468695059295 -0.130825235615664
-0.34111350418548975 -1.8677597773367465 -0.08206699351921154
0.41243001820867914 2.2582518414677955 -0.20790647076918464
-0.3420059920985715 -1.872646576027973 -0.17240563407087353
0.4433472293699551 2.427538377256938 -0.33145235125842054
-0.34301694874751676 -1.8781820477767088 -0.2564440841221167
0.7397674773358853 4.142560691103523 -7.21740713025119e-15
-0.3321565923075726 -1.8600153220300686 -3.2406255088613234e-15
0.38203709821891574 2.139336905326489 0.7061092416138972
-0.32491673300971 -1.8194734525166176 0.6005351548390454
0.31654201424598566 1.8137039619632422 -0.44201367804167613
-0.3292318833220818 -1.8864136333000712 -0.45973358709563444
0.7042193176880802 4.034994752985212 0.4359271682021537
-0.32217178968859667 -1.845961120778517 0.19943138795828846
0.3805170595016369 2.180264443115624 0.4674074512820109
-0.3196872064802665 -1.8317251008949949 0.3926872098299909
0.3668446118684291 2.1019248504989747 1.0245867233172414
-0.31404506337649635 -1.7993970785765436 0.8771190636276535
0.5523628719372686 3.164896551443247 2.334189597348049
-0.30810354726440786 -1.7653537262644259 1.3019920987960694
0.49026169387864565 2.8757036209514513 2.3183643277021733
-0.2948563134259248 -1.7295240047639298 1.3943254538945373
0.731458058609841 4.394576328668639 -7.640938740549488e-15
-0.3020228088073185 -1.814543254640169 -3.1549830549838777e-15
0.6558492627058805 3.9403211313847786 1.2979014316082509
-0.2953498497800797 -1.7744523329009068 0.5844864279839299
0.21306308910782093 1.345227401575861 -0.52077668737117
-0.25112954585613173 -1.5855695505288603 -0.6138201297072294
0.42308122132660825 2.671229701981466 -0.3308763506399244
-0.2904397170957897 -1.8337642037353945 -0.2271422810310993
0.4847717710366407 3.0607285036543233 -0.26839217001240073
-0.2898018244825551 -1.8297367082823839 -0.1604477512791245
0.5730941186314095 3.6183738595604553 -0.18718638743152344
-0.28925958005786895 -1.8263131117246978 -0.09447916853569632
0.5961953343494169 3.764229195290861 -0.08981474611614583
-0.2887756278663032 -1.8232575578421688 -0.04350304037458724
0.5933483803792239 3.746254235349344 -0.04468672765432994
-0.28852333674112635 -1.8216646543684445 -0.021729500234970205
0.7263393825139002 4.585926376515316 0.1641687259816384
-0.2877386683336286 -1.816710453022088 0.0650352875435363
0.7273653211958329 4.592403898422334 0.20097542953564038
-0.2876498900894423 -1.816149929248387 0.07947940124717888
0.5795843150872798 3.6593513472642454 0.2623256353850283
-0.2870436499083027 -1.8123222793864593 0.12991881575348632
0.5848967042110765 3.692892452141161 0.33862395414657126
-0.28674487328084053 -1.8104358780022705 0.16600996743961333
0.7200678631960908 4.5463295619231845 0.48988752461721063
-0.2864569285952703 -1.8086178668076087 0.19488673614194302
0.7125741834328749 4.49901632996769 0.6118260339255207
-0.28597525136394075 -1.8055766764587171 0.245542299890717
0.7119553438247883 4.495109130454791 0.6477233156999244
-0.28566475284065884 -1.8036162659370416 0.25989231276012636
0.6950171431994886 4.388165540600935 0.7754039972435829
-0.2851701362697973 -1.8004933798135812 0.31815339480717697
0.6309642391477553 3.9837514206249645 0.73663135120987
-0.28477045107779747 -1.7979698668271988 0.33246074681732335
0.5588565039484857 3.5284810982907855 0.754464410690872
-0.28415051036539807 -1.794055715215278 0.38360732287389954
0.672062256518417 4.243234090049124 0.9780274947098183
-0.2840868391353759 -1.7936537108902846 0.41342113303456324
0.6664255810178763 4.2076455215698525 1.0050811458674125
-0.2840262964496668 -1.7932714594166863 0.42835912009274696
0.6387240098257723 4.0327446844968255 1.0142257879460017
-0.2835203996759411 -1.7900773528953062 0.450200237248856
0.6333684228027392 3.998930838818176 1.1247282282157445
-0.28283232746033665 -1.7857330359018277 0.5022503350244875
0.6185855927264851 3.9055957230330414 1.132004378391376
-0.2828073159706833 -1.785575119571145 0.5175340707643793
0.6231418014341719 3.9343624926623755 1.1572860802916811
-0.28278726104013113 -1.785448497722994 0.5251866591718826
0.6155476143027501 3.886414682158635 1.4166365281285114
-0.28133347512670726 -1.776269654710101 0.6474678289530593
0.6118806736184474 3.863262529858896 1.4429984984886448
-0.28140879058664575 -1.776745177809366 0.6636464915237061
0.558334148191028 3.525183073835937 1.4783799494393903
-0.2802916337648881 -1.7696917272338635 0.7421676297181345
0.5467081046703208 3.451779123947394 1.4798591580852365
-0.2799466492973368 -1.767513581029322 0.7577747781657121
0.6225356980015986 3.930535706196916 1.834588609750093
-0.2792066700263113 -1.7628415357860567 0.8228112512115248
0.611345860472532 3.8598858525488033 1.9912253624782648
-0.278253874062888 -1.756825818828816 0.9063055907724801
0.6001462627646225 3.7891743755567378 2.148491101893109
-0.2776538670957895 -1.7530375239314824 0.9939857995841447
0.323972007519155 2.0454787531863987 1.269095665663949
-0.2765313778245792 -1.7459504055951713 1.083256469300088
0.5460119994682834 3.4473840886736564 2.3720436002730554
-0.2747042176321413 -1.7344141701626126 1.1933993795684028
0.4742605298782634 2.9943631388695033 2.3326076271801823
-0.27302225623345394 -1.723794683834025 1.3428353345018689
0.4179214427344424 2.6386521420797906 2.2817135097992685
-0.27668415930263657 -1.7469150298836709 1.5106044334495798
0.32766457052432907 2.0687926784533497 2.1956861758459287
-0.2732757761791327 -1.7253953457750546 1.8312258874675915
0.22009898614953757 1.3896503071800974 2.179015479534325
-0.20398816091792352 -1.287930559971359 2.0195157099901904
0.20784134023292256 1.3122585767077184 2.16810433446991
-0.19264999202661096 -1.2163441789601903 2.0096352452327775
0.16902255499042232 1.067166412585035 2.1205393709513847
-0.1589464772720788 -1.0035485616288833 1.9941259493360481
0.07618609420723085 0.481020067698084 2.028567813389825
-0.07308541547779628 -0.46144315267360647 1.9460076410166225
0.6570655156726414 4.370435057851871 1.4359994126785605
-0.24066385428180523 -1.6007623605604069 2.0368742656961665
0.6602598863505343 4.3916822383315015 -7.616932590639612e-15
-0.2674415273544956 -1.7788725769286797 0.5844864279839299
-0.2733354726009574 -1.8180758288415835 -3.1532702689843976e-15
0.5868342720135313 4.242683765871592 -7.346008576215811e-15
-0.2510773498159623 -1.8152344654091912 -3.1429936065477715e-15
0.5596758444173486 4.04633425909591 1.3272505463711404
-0.24555563887064405 -1.775313699862973 0.5823261073467955
0.21810143750396557 1.6735704020890434 -0.4688399217325888
-0.24035891099500556 -1.8443599635251928 -0.5166855125225045
0.24512514315959094 1.8809329690560703 -0.431821525759087
-0.24009123782104533 -1.8423060114444556 -0.4229536117793293
0.5988205296985146 4.594964279630186 0.49316755989647476
-0.23522639227322872 -1.8049763101241114 0.1937241963949483
0.5950434781017503 4.565981610685635 0.7292956808107327
-0.23440722376849296 -1.7986905369557231 0.2872935880089905
0.4912406010161151 3.7694649772771673 0.8028003842762915
-0.2334699944568313 -1.7914988409544588 0.3815437911264663
0.5698718281344215 4.372830529981267 1.9702934440236288
-0.22988192935937798 -1.7639663330691882 0.7948012797878791
0.5684090212932966 4.361605889459421 2.3732952301694965
-0.22783361637661434 -1.7482488943333443 0.9512805299757751
0.55405366159786 4.251452075836858 2.467855706262521
-0.22716549695050703 -1.743122174815168 1.0118364100302324
0.5351070339751828 4.106067819907144 2.470855018108768
-0.2271897629922701 -1.7433083768399473 1.0490480040642494
0.4730499640176086 3.6298817080229573 2.4251800999726356
-0.2257169950955343 -1.7320073015727144 1.1571808611551817
0.5721998274439741 4.529428027607066 2.3262016465045887
-0.22159482703379793 -1.7541036753247274 0.9008640457050905
0.5683288947292681 4.645423555026559 0.1654758647664517
-0.22130420323189534 -1.8089028519473578 0.06443540834518766
0.4540342970262726 3.711198986636976 0.2647261579605328
-0.22088950617201025 -1.8055131888349303 0.12879033739456416
0.5681792372807309 4.644200280540488 0.6658957189761319
-0.2197135406873782 -1.7959010473216777 0.25750026848047136
0.5543554206794341 4.531206758909633 0.7967185046018418
-0.21933969519816415 -1.7928452979877245 0.3152345723325466
0.5508510691910956 4.502562786906811 1.1267814559767158
-0.21808910085655825 -1.78262315291265 0.44610742964821887
0.47657472547272445 3.8954406083750683 1.1234749653032186
-0.21755432661120724 -1.778251999344682 0.5128615230248651
0.14880866662646378 1.2572780761227456 -0.5244166473691896
-0.17503266160536324 -1.4788434909792014 -0.6168326325347833
0.38284951795699523 3.234679244789965 -0.23062616921137946
-0.21531965931736716 -1.819226615997426 -0.1297072240008485
0.4357024467803903 3.6812313857034638 -0.1310681608222981
-0.2144335727779903 -1.8117401086268405 -0.06450598157125428
0.49966136113900533 4.221617524620713 -7.291138484003868e-15
-0.21386332398263513 -1.8069221008818 -3.12072782304457e-15
0.33880920311733154 2.8625845034773283 2.3280142362826006
-0.2025480501367294 -1.7113198348693397 1.3917412511557543
0.3150783580553966 2.6620836059111213 2.289503986330742
-0.2063691934603241 -1.7436045117997365 1.4995732934478851
0.40042029310127913 3.500862050971015 2.374520686147778
-0.19556232650398253 -1.7097952807408103 1.1596984411513203
0.44614386891582836 3.900621838778183 2.448509121705599
-0.1960515761526389 -1.7140727750585094 1.0759624999465767
0.5457117816661053 4.771140973915204 2.542659524666697
-0.19767716149734138 -1.7282852166902931 0.9210461169735957
0.5730884135277342 5.010494006763464 2.4706194523778207
-0.19801329625911399 -1.731224032359169 0.8536475175894664
0.5020643870019358 4.389533172721929 1.8913410260654033
-0.19905361105462574 -1.7403194719545585 0.749860517337671
0.4002572306351212 3.4994364009489125 1.4266590430225514
-0.19953116729349474 -1.7444947311576133 0.7112000043882313
0.46607750069022874 4.074900955544569 1.5314368958113513
-0.19721176875926988 -1.7242163025928252 0.6479981945468416
0.46967148304057166 4.106323030396786 1.5063664454744827
-0.20002313954042802 -1.7487960290665683 0.6415295724823542
0.5106375571292069 4.625297130214275 0.18283255312091864
-0.19710251345974333 -1.7853322324913183 0.0705720824081058
0.4077449025075808 3.6933071238052544 0.292435606122857
-0.19664651953033116 -1.7812018911490897 0.14103534778030796
0.016137124593515063 0.15162498103751823 -0.20987248112895987
-0.05265449939197834 -0.49474349817298746 -0.684801704662989
0.23301492770456264 2.1894163232067516 -0.3842723085816416
-0.1926094194110249 -1.8097647692192456 -0.3176383031798237
0.24835050863734898 2.333509972274039 -0.3716789396201819
-0.1922785870888263 -1.806656257272816 -0.2877622508323562
0.2588834675598926 2.4324780187586925 -0.3481480123165317
-0.19200079825129004 -1.804046143743619 -0.2582038046091595
0.29683191652931673 2.789042958320754 -0.2985082745435207
-0.19169047002880937 -1.8011302890275969 -0.19277304180693358
0.48406520583307144 4.548293423033818 0.7244472475543774
-0.18841645711448288 -1.7703675504012335 0.2819822249269653
0.38477304257364275 3.6153408214634495 1.624449891615194
-0.18497832501606742 -1.7380627422425214 0.7809487328260771
0.46950977339962946 4.411530076260104 2.553645033855481
-0.18264509754450672 -1.7161396561882813 0.9933994407089857
0.27606463528425174 2.5939128651783117 2.3549499708078327
-0.18538472760283103 -1.7418813150095924 1.5814113908759089
0.24570777711623384 2.30867877546111 2.3217170370223825
-0.1838560401963377 -1.7275177152444274 1.7372738701770638
0.21860166662035346 2.0539888233496675 2.288038510363288
-0.18174628444314844 -1.7076943771882982 1.9022842064766723
0.2637029310370045 2.6774207905306193 2.3531731076563167
-0.17160564813610207 -1.7423413850019793 1.5313360178736646
0.3141104877148272 3.189217302303613 2.3283134669100756
-0.16772852744961345 -1.7029763180587354 1.2432714109198746
0.34955216675469597 3.5490627084183513 2.3828821150932535
-0.1682314678339898 -1.7080827574761186 1.1468266943366816
0.4392498385729743 4.459778453761168 1.4560812898603093
-0.17240945777963762 -1.7505026012719995 0.5715248216902697
0.49772197607551366 5.053456028752154 -8.709243630328616e-15
-0.17619221004996138 -1.7889095296067126 -3.08304828167439e-15
0.05369304850270806 0.5680131219859939 -0.6319890424637207
-0.057767804518769394 -0.611119538003682 -0.6799505798447764
0.20608306651886665 2.1801311206221556 -0.3999375783656297
-0.17085079939328424 -1.8074126663210748 -0.33156365598300896
0.33785538920680175 3.5741366853750076 0.758182491383485
-0.16661841836208946 -1.7626387518199804 0.37390899059131255
0.6027035483947127 6.654766236265085 1.884519772626087
-0.15804332041306482 -1.745039257448235 0.494166266389488
0.606456740279856 6.696207197915301 1.6141968234253354
-0.1586203994120304 -1.7514110895839545 0.42219754164693096
0.3444101342196954 3.8028130724256766 0.7595224786898379
-0.15910978219272603 -1.7568146217421063 0.3508824048648247
0.6174853491490047 6.817979857344409 0.8102638511202725
-0.16056577592341645 -1.7728910127721902 0.21069430090467187
0.01624581937264472 0.17937861910634426 -0.24790398213907844
-0.044876910423295696 -0.49550952382524815 -0.684801704662989
0.386565393721678 4.463319862655691 -7.683806952323906e-15
-0.15467456241677355 -1.7858868328483692 -3.074484931523401e-15
0.591145990960541 6.825426398833649 0.7291350296591393
-0.15363458640880404 -1.7738791734757406 0.18949694395429764
0.5827522776656754 6.728511807204725 1.4263059430508174
-0.15184233884051287 -1.753185716947374 0.37163926868290376
0.6429314589400067 7.423346211583581 2.4210208925312853
-0.15136558613127146 -1.7476810859811982 0.5699818251828016
0.21080067370300123 2.4339241155074047 2.330540168269549
-0.14996192171930986 -1.7314742465895634 1.6579277292546117
0.07731877411297543 0.9824281738295321 -0.567240416786072
-0.08789328520194428 -1.1167900767109658 -0.6448191180294859
0.09402088948708123 1.194648671300136 -0.5354172433727514
-0.1082429184203635 -1.3753566826902777 -0.6164068996945414
0.13024131392335914 1.6548727998186386 -0.4752107075476474
-0.14274488317321618 -1.8137457106403336 -0.52083240630903
0.1431110908092701 1.818398819839916 -0.4530893374293645
-0.1424266841438825 -1.8097026086267674 -0.4509225077252745
0.15531874240274843 1.9735117403345441 -0.4180723609856869
-0.14213126566100004 -1.8059489609004125 -0.3825755532497085
0.1725180920977906 2.192050198888819 -0.3837569979172087
-0.1420225518142922 -1.8045676205064858 -0.3159213474833813
0.1836544770043169 2.3335513855319907 -0.37074110125260956
-0.1418526583089987 -1.8024089188448797 -0.2863562686568983
0.19138452828778305 2.4317709997608437 -0.34716245052454536
-0.14164507518375063 -1.7997713251557028 -0.2569374434049547
0.2197497140362006 2.79218485725987 -0.2980851993469041
-0.14148985377044535 -1.797799050098807 -0.19192758202989615
0.25454446402032704 3.234294074302202 -0.22970841684680982
-0.14115206490232185 -1.7935070355828293 -0.12737977817809656
0.3069894242082356 3.9006704758303146 -0.13834497609239194
-0.1407123777466884 -1.7879202805634837 -0.06341212107054642
0.4153280991226322 5.277243860138541 0.18716786772640914
-0.1400859991620753 -1.7799613860250338 0.06312984316948038
0.406333569446251 5.162957524564841 0.36668737349460895
-0.13982349510144207 -1.7766259556865507 0.1261808376833314
0.4015529867436672 5.102214461987594 0.5446969641203196
-0.1394642584790684 -1.772061421613939 0.18917991075816853
0.4012676978839457 5.098589523327022 0.7278805583712515
-0.13916294004668886 -1.7682328079213405 0.2524349680772682
0.5331271766224613 6.774023056583915 1.0762174698526707
-0.13898943942446873 -1.766028273493558 0.28057632286034606
0.5318896616293957 6.758298937717935 1.1831592691993749
-0.1382406170374421 -1.7565135829329659 0.3075086417860494
0.5291984134861933 6.724103387814558 1.4244464430593662
-0.1376850281637686 -1.7494541569549293 0.37060758995554527
0.5261370046214265 6.685204499997689 1.6657483740285173
-0.13748401300982874 -1.7469000172538955 0.43527402390339304
0.5230004455018034 6.6453507376566385 1.9082686151407737
-0.13717060468755113 -1.742917786945015 0.5004935695494415
-0.13707288507173654 -1.7416761414997342 0.6367418961468673
0.36584987500235955 4.648563414484006 1.8886842114238032
-0.1347136219840262 -1.7116988616807853 0.6954532672815962
0.3574487629573836 4.541817164828996 2.035550103319724
-0.13634998444792545 -1.7324908181696819 0.7764671575145954
0.4093489162398854 5.201271138275328 2.5559555964291154
-0.13566029520351286 -1.7237274854258373 0.847056574434562
0.4051000324762336 5.147283951274159 2.6307819918501876
-0.13543751578669905 -1.7208968045447952 0.8795520834066847
0.39217109950075507 4.9830062818674445 2.6465243667092815
-0.13537568703279232 -1.7201111957390738 0.9135682227690989
0.3474675173596064 4.414993414741594 2.5491560313500465
-0.1346600701221404 -1.7110184207596613 0.9879183313087241
0.31295998106152856 3.9765335935972277 2.4876600710801915
-0.1342974453971825 -1.7064108367619466 1.0675051533089588
0.2901255700408925 3.6863948921390546 2.491846675222925
-0.1338537257323863 -1.7007728438555791 1.1496503441094446
0.23824527441961332 3.0271932342017993 2.4523785009699406
-0.13252266107808433 -1.6838600638409313 1.3641224394101865
0.2056550877859098 2.613095650443809 2.366337487870108
-0.13679817445157694 -1.738185612116785 1.5740463898173123
0.18271437238326724 2.321606223743509 2.328785090986283
-0.13569513648615777 -1.7241701858963945 1.7295016623293529
0.16180147282244084 2.0558826402965855 2.284328972087783
-0.13400529221804508 -1.702698678653502 1.891899783648482
0.14205148017562624 1.8049351901882087 2.2417953377148794
-0.12815854706363347 -1.6284087376813066 2.02254304524223
0.09721953746285977 1.2352913473593299 2.152706122227248
-0.09021901642865307 -1.146341293838844 1.9976954640571545
0.14385934350566235 1.9244987017232653 2.259585191213552
-0.12658643908173392 -1.6934279813322648 1.9882813044138237
0.35070713647801743 4.69163428936726 1.7989119487225507
-0.1278178500201204 -1.7099013552158275 1.116714803630411
-0.12801048201846837 -1.7124783170015354 0.6566150548784169
0.4692957065397427 6.62811492586968 2.1589965422128317
-0.12369429395265943 -1.7470008452403203 0.5690560327183598
0.1402162233597354 1.9803489142320434 2.2697950543180543
-0.12069853823239843 -1.704690180712557 1.9538462709872417
0.07244272140473693 1.0835278993135178 -0.5533175792659318
-0.08311266365736768 -1.2431185371389837 -0.6348146089695869
0.1686479849594268 2.522472835408923 -0.3395668590913898
-0.12043153458731955 -1.8012979793160582 -0.2424847112475894
0.2016717991592596 3.01641098866175 -0.27379779565311807
-0.11995621868564955 -1.7941886654959796 -0.16285741679271384
0.24920877314855075 3.7274228966568295 -0.16147302209410816
-0.11966929900413935 -1.7898971994418322 -0.07753885675029759
0.3234032313248791 4.837151574012192 -8.314838842603851e-15
-0.11931474129225135 -1.784594069392354 -3.0676343007701276e-15
0.30789766770559385 5.220986194578235 2.5114376723790963
-0.10186150123480835 -1.7272540440757462 0.8308566072374758
0.3151545277228616 5.34403995542182 1.7394006377229285
-0.10293707784320894 -1.7454924759077164 0.5681302443583257
0.0346593319243144 0.6783275164143069 -0.613177389656336
-0.0375233128363487 -0.7343792909656076 -0.6638456582630008
0.11245448900777406 2.2008783782924084 -0.38461584973448104
-0.09201810030853315 -1.8009120771213443 -0.31471949366712726
0.11979884173683353 2.3446167676316048 -0.37183524639178583
-0.09195701828151719 -1.7997166236205737 -0.2854189577665324
0.12477673363647651 2.442040487645519 -0.34800721751573693
-0.09187174744132785 -1.7980477640656778 -0.2562339168816102
0.1430235946386145 2.7991549275015943 -0.2982967368581029
-0.09171901590090815 -1.7950586122055883 -0.1912934940574691
0.15843796577287453 3.100833912873377 -0.2443592760182012
-0.09144467101267983 -1.7896893313700755 -0.1410353477803145
0.35540658473751185 6.955762057639726 1.1031216419891396
-0.09004451012388562 -1.7622863894913827 0.2794828574527896
0.2693729794506545 5.271974212858378 2.3585807378375176
-0.08840095855984854 -1.7301199803705505 0.7740226896211151
0.23651195732716956 4.628841922468736 2.667866104368285
-0.08736017687248436 -1.7097505497461816 0.985426941553476
0.1340202607993477 2.6229481530613072 2.371026477297871
-0.08863103023279924 -1.7346227776792449 1.5680205227088742
0.11876276139684593 2.324339348396745 2.327371478728738
-0.08800185261546727 -1.7223089658758242 1.7245557398936093
0.10523343608869114 2.059553124153232 2.284328972087783
-0.08695016438931882 -1.7017260803186722 1.887449341433014
0.17267834490124423 3.99498416001772 2.537661275743806
-0.07366152078674763 -1.7041894217494253 1.0825213139484795
0.1842441582919198 4.262563984922197 2.6145415209132747
-0.07387181061534709 -1.709054562973406 1.0482878690398874
0.20217161939079994 4.677323132401401 2.621872603963749
-0.07419966202100302 -1.716639539382487 0.9622619715985099
0.20857868002691207 4.825553101643807 2.6553472837755248
-0.0741457655945773 -1.7153926235055978 0.943925607591496
0.2477548215069575 5.731909163562877 2.6997501530852794
-0.07452960291483199 -1.7242728569553578 0.8121388139082909
0.2564660937700124 5.933448011554553 2.737911035246702
-0.0745285799608062 -1.7242491904954331 0.7956319625586112
0.28939335904850844 6.695233765845422 2.7758460520032395
-0.07482389794391686 -1.731081492862996 0.7177069383555505
0.2908390292089557 6.728679936498146 2.666560325823529
-0.07494060240104815 -1.73378149822794 0.6870936053510077
0.29205336180468133 6.756774017940099 2.495033006665083
-0.07517378038013549 -1.7391761661780627 0.6422150463369207
0.2954844395626373 6.836153405683608 1.9008189182393886
-0.07549918570078828 -1.7467045514097892 0.4856779622783433
0.2964953948031919 6.859542268802561 1.7628755893061534
-0.07547873625475708 -1.7462314451090395 0.4487746656015451
0.29763372299193697 6.885877957192085 1.5690566992923183
-0.07581469378261282 -1.7540039599718045 0.3996776708922786
0.29823881399823454 6.899876985193602 1.4585373492031548
-0.07586548435623064 -1.7551790206732343 0.37102026046017944
0.29920587461355985 6.922250328198546 1.3217228296249826
-0.07599599937091098 -1.7581985389376156 0.33570747051152894
0.29943253577503315 6.927494226906836 1.26636641328322
-0.07598025453515089 -1.7578342757203627 0.3213372994587469
0.3015478104268051 6.97643197143264 0.9379268980039316
-0.07629315433217128 -1.7650733405462633 0.23730035207496294
0.301728099096846 6.980603023578502 0.8826786399489353
-0.07632850299863721 -1.7658911464077331 0.22329222706751087
0.3027618137853917 7.004518435838676 0.7461720754018527
-0.07641735146488782 -1.7679466920264735 0.18833449643583985
0.3034886094123875 7.021333150035055 0.6364962373618122
-0.0764927258719857 -1.7696905097738524 0.16042556686835754
0.3044741753444978 7.044134621115205 0.4435931876781335
-0.07661120375494158 -1.7724315440708394 0.11161606085989095
0.3030228797077053 7.010558302765589 0.30330581580000393
-0.07669106999331865 -1.7742792821726785 0.0767626773639605
0.007813012724704938 0.19885445267889287 -0.23300829058628272
-0.00878736870579349 -0.22365346839292777 -0.26206661028647305
0.12768358803410154 3.249764323858487 -0.23027318715675213
-0.07027853216587863 -1.7887080875643506 -0.12674504092267766
0.1538484833882405 3.9157053799373758 -0.1385569258053502
-0.07005786327714406 -1.7830916893017668 -0.06309455868783281
0.2664702442759191 6.782120604148884 2.2053448074382236
-0.06838576307209714 -1.7405338972163258 0.5659700875929712
0.1550477059615207 3.946227632601289 2.5720434834135473
-0.06689050605864855 -1.7024770649161007 1.1096280924858903
0.12104247088187789 3.0807366052287675 2.4502235998876376
-0.06630115060287028 -1.6874769669101755 1.3421127536747302
0.11936721577916909 3.038098515635836 2.4555190646965994
-0.06597681315719113 -1.6792220276804126 1.3572179050832278
0.052161221138600514 1.3275917301121283 2.16810433446991
-0.04830770878539128 -1.2295132913730016 2.007931381200321
0.16763682076416137 5.334290129566226 2.719298385601776
-0.05399820136124381 -1.7182506278908487 0.8759246394539051
0.05068411634156847 1.8433361653035025 -0.4427131148213831
-0.049563094027866406 -1.8025655822864617 -0.43292126451198154
0.19105179243450268 6.9483835146148785 1.1009317628426287
-0.048392032485052354 -1.7599751170780336 0.27885802562976053
0.18217744615307097 6.6256314450365545 2.9614382203003933
-0.04748988950244441 -1.7271649803695377 0.771985648169796
0.1288447364410118 4.685968298039096 2.698292079012949
-0.04691185032958667 -1.7061422105315436 0.982437293541523
0.06744478127787548 3.4344930679532877 2.4957863625837846
-0.03315320712625158 -1.688261981107536 1.2268306109663631
0.10655136490492569 6.782712656304312 2.2041088513606173
-0.027285622171451588 -1.736913788036583 0.5644271323661937
-2.331196835630588e-15 1.359199776102447 -0.5197075799361186
8.293632270958708e-15 -1.611862049208419 -0.6163162616073302
-4.640301748053089e-15 2.7055188993920734 -0.3309977115212469
9.195994128169503e-15 -1.7872354905152368 -0.21865338196048892
-5.314966500057646e-15 3.0988808694552996 -0.26839217001240073
9.173698337321843e-15 -1.782902318034191 -0.15441607542062322
-6.09746907890917e-15 3.5551174744980822 -0.20965624846013328
9.161296358417211e-15 -1.7804920014830874 -0.10500110787391634
-6.246854184470144e-15 3.642216169438012 -0.17176255437170534
9.156760963729976e-15 -1.7796105504691409 -0.08392430314826171
-7.335398460346219e-15 4.276889790058359 -0.10079049406851717
9.13357426479084e-15 -1.7751042305787255 -0.04183264970704411
-7.520386435763644e-15 4.384746668948209 -0.05165896967216997
9.135476173874465e-15 -1.7754738653747693 -0.02091777643955123
-9.067013869934162e-15 5.286504783110127 0.06228304868702866
9.114926277543714e-15 -1.7714800063599816 0.020870722719616264
-6.831428125212115e-15 3.9830508674041685 0.09386579606489272
9.11302864673018e-15 -1.7711112030429532 0.04173854879775183
-1.1266511942401265e-14 6.568917851771648 2.277902161348412
8.913412798691101e-15 -1.7323159925292906 0.6007148258760208
-1.1524796420518918e-14 6.719510113850319 2.5089806356094626
8.910324115594668e-15 -1.7317157089740858 0.6466008840794902
-1.1418077765642043e-14 6.657288009908862 2.849879533089726
8.866530214138266e-15 -1.7232043926487255 0.7376765016971446
-1.1157937512334006e-14 6.505613741718689 2.9991290141574374
8.842855934670934e-15 -1.7186033117990995 0.7922869787350832
-1.0429004605208835e-14 6.080610829474156 2.8905383478656055
8.840627762026972e-15 -1.7181702678918525 0.8167661418866715
-9.527848025190275e-15 5.5551932400739235 2.830512332677069
8.808775044875429e-15 -1.71197971298619 0.8722972327846289
-8.814683542215185e-15 5.139384076828488 2.7730611805082463
8.781994540939345e-15 -1.7067749394270337 0.9209257875333084
-8.341178476263024e-15 4.8633078700540135 2.698550270250805
8.792967429858843e-15 -1.7089075132670206 0.9482378979451966
-7.577607334066369e-15 4.418109202292763 2.6363351601448572
8.763358982504373e-15 -1.7031531307398657 1.0162905161670033
-7.481929208582292e-15 4.362324257517526 2.6263328182608903
8.769174347887371e-15 -1.7042833432278197 1.026062028337569
-6.756250993353061e-15 3.939218987045936 2.5654960089808747
8.73218494119973e-15 -1.6970944760445807 1.1052670896118142
-6.645720639126423e-15 3.874774479220095 2.567089350837764
8.70010419162599e-15 -1.6908596031856598 1.1202168550396092
-6.206539057396755e-15 3.6187105130926653 2.5432723453127526
8.693979796755507e-15 -1.689669331017377 1.1875194953428296
-4.823219051944259e-15 2.812168477280201 2.401818780714222
8.694028840383984e-15 -1.6896788626147414 1.4431220811951262
-3.784161518082488e-15 2.2063480052390845 2.3128487801362003
8.786174249227207e-15 -1.7075872630201063 1.7900127762592926
-2.4140626761546478e-15 1.4075145430776588 2.179854997706244
6.6983333742317334e-15 -1.3018167439948773 2.0161580208541627
-2.2778464180590574e-15 1.328093919012271 2.1672523024056574
6.3285000058333315e-15 -1.2299398688722971 2.0070794500862177
-1.8531384688658892e-15 1.080468776154639 2.1205393709513847
5.220996104363573e-15 -1.0146972044030407 1.9914553932681123
-8.352931475687395e-16 0.4870160433484942 2.028567813389825
2.406292848580043e-15 -0.467661453412793 1.9479501443804548
-0.020835376915994536 1.7684799001692888 2.2254306841072333
0.018982140464336602 -1.6111795821457007 2.0274861361844616
-0.03963004268067913 3.363746871784714 2.4440747620062044
0.019883221634328443 -1.6876621888187704 1.226243448067664
-0.0777527692794233 6.599554700044972 2.1444741238783314
0.020431019017949244 -1.7341585236921158 0.5635013648323044
-0.02655492220646238 1.6903998094967676 -0.4696416933790059
0.028217339443296248 -1.796223873246218 -0.49904266243989065
-0.029931911530628484 1.9053679448149643 -0.4338168686712412
0.028218776437539134 -1.79631534761679 -0.4089876190946863
-0.060285663656280665 3.8375888871993413 2.5645112929370506
0.02652870256836437 -1.6887307527806337 1.1285130360580655
-0.013632985594055057 0.8678314352378176 2.0953889237363224
0.012852307556176033 -0.8181360154488531 1.9753987644057984
-0.0019590138978165753 0.09975893648988965 -0.13733286880770507
0.0037782237651751444 -0.19239862721480266 -0.26486504728076093
-0.15602069333632235 6.6204984560778675 1.8676920881990824
0.040918687749286385 -1.736321658851221 0.4898293151670497
-0.15705526840128411 6.664399059733763 1.6004248858622385
0.041065695747145275 -1.7425597174192453 0.41846772857720227
-0.15806792872266456 6.707369744909341 1.3345492253881581
0.04119036091179684 -1.7478496921812667 0.347765449275522
-0.1598369953560267 6.78243737000716 0.8029772455343455
0.04137915017349597 -1.7558606744995462 0.20787750642365832
-0.1877369461943 6.827825509502383 0.2415070409370572
