-2.423882203194305 2.1539153542801017 0.5528143554886621
0.3558060139999593 -0.32121351410005444 0.22786829257480043
-3.277158673033776 3.2771586730337585 1.709795035528854
-3.275896158048678 3.301726554818898 2.211000479169023
0.30099904748189166 -0.3334145874975677 0.21352818609921434
-2.303369660952483 2.762138559927412 2.203947318055893
-2.7726667000378584 3.574500371017925 2.150475870149185
0.2525742006104854 -0.34763856329772697 0.204268701700154
-2.0109263634658423 3.400290783204288 1.877909143269189
-0.3239630058310185 0.5527340045454395 0.18886527227654504
0.20775036758298923 -0.3609244428189413 0.1979654801852323
-1.8795593602652696 3.4509375943215974 1.811567920707661
-1.856025943887479 3.4398195933230418 1.4419604228298017
-0.354072648226751 0.6816188634974473 0.22642721722916562
-1.7815824248338243 3.710137028736587 1.897372997468047
-1.7153166980342243 3.7595709428013118 1.3967290186321122
0.16663968656865563 -0.37296419708440814 0.1941878537743361
-1.6130078842333655 3.727441293100628 1.930704268366682
-1.5467903806407002 3.693194195718785 2.079926236929204
-1.4624566715288074 3.4918348073403362 2.2188499638658215
-1.562161999003562 3.771392684618242 1.5059757990343683
-1.274584823295243 3.4549133411999056 1.0855723527357992
-1.2314595181186025 3.420510397845039 1.6759582552883205
0.1254149363319475 -0.3859874848647094 0.1929294048937831
-1.041343136923433 3.432848266346496 1.653775756087963
-1.0211265784358539 3.4639095786309753 1.332272848136019
-0.9975916473375137 3.4337329724323324 1.6997849214513698
-0.917010657034544 3.4044981875839917 1.8315249235602522
-0.9310227125300155 3.45651941238952 1.5657976435439092
-0.9378616615643176 3.4819097275550543 1.2822683622882174
0.08422615899611864 -0.3988192439289842 0.19376832768198685
-0.7116192143245776 3.505548834376118 1.054478763943734
-0.6370107175082806 3.487938710416343 1.3080523300536433
-0.5795994482981528 3.4822147156888748 1.6274081090409758
-0.5500425608737487 3.472832051852327 1.6714576634945324
0.043885532965813816 -0.4123499862197553 0.19712571841561935
-0.2778190717912043 3.530026005792973 1.3063223039412515
-0.18145569713920157 3.5513203961471698 1.0482601174731576
-0.12443553747308414 3.5193393969591553 1.6740328569131937
-0.041779812850445165 3.546216589061402 1.6349416964234214
2.1836906898270064e-15 -0.4243988683302244 0.20174637682006802
0.09835559153479206 3.5771052555020373 1.3201625538824915
0.322929323414841 3.565632165074978 1.7019309373360465
0.36234085632022783 3.536480363764559 1.0479774523093568
-0.04650599818695648 -0.43697196810775685 0.20889636478567136
0.4843596903970761 3.6060993083468675 1.3423071439349068
0.43177876760551637 3.0338357511205416 1.4127111279620883
-0.09715295012302583 -0.4512563494246217 0.21942882988877396
-0.09571509966651434 -0.44457781678920233 0.3012875445729141
-0.09346188618185057 -0.4341120832188255 0.5367751624607295
0.3187430082666212 1.452748475422849 0.7070196332760015
0.6468516559021515 2.5193208650244667 0.766760271733622
0.6429403298385575 2.1194902221868186 1.021065096025497
-0.15032359467861203 -0.46264845259137793 0.23124711067968798
0.7570354373180875 2.128941545957839 1.0741141655053512
-0.09773093817784724 -0.2586374231569471 0.15483974640127804
-0.1744692812534566 -0.4617195553911815 0.44559569350283446
-0.16914550234787618 -0.44763058332901884 0.6752160098101991
-0.11569717274513819 -0.25894733737421866 0.1348237393250323
1.0436041434746588 2.173300725286088 1.1114312165822444
1.0955497034623172 2.1711732443996365 1.1560599422377646
-0.13727912408258647 -0.23634332014409368 0.1299279689458135
1.4910119386909126 2.2314570596478682 1.2757738003379955
1.5245616376672841 2.224483353906438 1.2432319257268178
-0.14414701067681585 -0.1984013393855363 0.11657850506402612
1.9754738653639319 2.2765320293987132 1.4328352753843892
0.1395984560444997 0.14865725676372712 0.09401218581372946
-0.16680383243053626 -0.14360060619701565 0.10462957223622403
0.2206209262893133 0.1524805056570032 0.12748765539388518
-0.18279467462480736 -0.12110389008075938 0.1042350935919288
3.2172021124374863 1.671202680610232 1.7233911825377741
-0.19614825626920598 -0.09800972822343582 0.1042350935919288
3.2852455600704884 1.2413908506019606 1.6190374813693722
3.271152569021043 1.2214072622468573 1.6598693231449464
-0.21159122181650813 -0.07430554827675033 0.10660600520368821
3.3211125460563977 0.7835478107587693 1.6221002696140354
-0.22331355096718905 -0.04807814960736869 0.10858890129638543
2.709626498188144 0.5722427784781708 1.2767076575301943
0.21301279778859727 0.028611195634209923 0.07929027344293332
-0.23928049085831365 -0.020723936443024726 0.11417252363379697
2.740738135702016 0.15083194602151132 1.2654094971857928
-0.23009647967049723 -0.009945641255541988 0.0392644147194441
2.7361477942721844 0.13980422775263313 1.30237860309587
0.395409548398196 0.021760704126923276 0.13732356240440027
-0.23890530774628507 -0.015030647941989269 0.10470593848056953
2.7256288836570346 0.27926260070171943 1.1984559184316381
0.22699557543060725 0.03321623303162194 0.039111259224377956
0.34376744946001514 0.058606878276576 0.16577446881359786
-0.2134496240908118 -0.04332983534671369 0.03713197199608192
-0.22424191302973379 -0.04735738133990136 0.10024890459946435
3.334577340962063 0.8283133160893432 1.5028998661026793
3.2947351116180896 0.9994469694740157 1.6366927932511153
0.17499802620767943 0.05383642247267789 0.03121426659012967
-0.20474846878950076 -0.07553569804486131 0.09545901135686666
-0.19358272153351053 -0.07141643640564087 0.03517701713901235
3.26850261028056 1.3388448706413956 1.5449650801705472
0.1721644390017948 0.07611310226732013 0.08948296824782773
0.14548431012095953 0.07056495514926488 0.02756633115615337
-0.1887133630118876 -0.10278307218298487 0.09399418435930416
-0.18042193579930219 -0.10011244951370489 0.03517701713901235
3.2105007408365784 1.898684845297536 1.6315014101511705
3.1824971656022805 1.9160191349003561 1.7658829139071344
-0.17436210438929872 -0.12984719689524105 0.09509238671620253
-0.15909933298058437 -0.12441385493520765 0.034432469346450265
0.17108757237271588 0.13817356641892023 0.09619307731165985
0.13035569016202164 0.11675629477030065 0.06222830283635962
-0.15609783381216832 -0.15609783381216968 0.096560512417328
0.12079325376505286 0.12662396365205864 0.06222830283635962
-0.14365070327468693 -0.15297246177413334 0.03577570946115766
0.11458641855011503 0.14074742434254625 0.06453770390087556
1.7300479111312426 2.2669059282377377 1.3555898117465408
-0.14195704468438874 -0.19062351468415362 0.10396092109025754
1.5494711776258894 2.241898169169126 1.1920472594586007
0.10552087863745166 0.15267600200791742 0.06599532242862836
-0.12665487547516346 -0.18480175233628873 0.038194958460611605
1.2922447682304674 2.204781449550733 1.2148424666177722
0.10626766793324047 0.18295318848481587 0.07523505549456314
0.41082515073500225 0.7542895358006557 0.146430842738795
-0.13001239322298172 -0.24095524044590225 0.11975954955697792
1.0851021438372994 2.1931276775645814 1.0702903004978996
0.08974645245336264 0.18689656554960063 0.0737241348392788
-0.10822016018718464 -0.22765471300096526 0.04297357999408762
0.9236707891055055 2.157685052304117 1.1157295767418693
0.8488211139640511 2.1940685712150705 0.8365445722106427
-0.09494426202752393 -0.2605034937344723 0.12127867438335024
1.5320265182196902 4.255367357386524 0.7710566783063905
0.6933218267313473 2.133825172095352 0.9813867634679765
-0.08360498784080632 -0.27955605321631977 0.0497455437024549
0.6598792366574802 2.238470780085725 0.8298487571423767
0.489220255048887 2.316506588438154 0.8419012814888248
-0.09564182887481898 -0.4528735767423532 0.20246027772891134
0.04114344278572001 0.2111726848203471 0.036678526435838674
0.41830032897086467 2.453603423816453 1.0887130353858399
0.398402126003741 2.580969558346923 1.2414458847981196
-0.06227838123321993 -0.4502591099806433 0.077492819734532
0.472084049942281 3.622469903562016 1.2990151837363155
-0.02737095869241965 -0.4350489303562872 0.1906705504688867
0.1825198442374446 3.5721471177884236 1.2718854018092194
0.1423149222898074 3.6221566477798848 0.6179965063312489
0.09791173877518644 3.5609627259896937 1.5581857256187635
0.09753563631383959 3.5472842144775636 1.6869088598282798
0.006761559714174341 -0.43041885658235735 0.07338861770443532
-0.09730058281692458 3.538735528164342 1.258823044868072
0.03443030104037093 -0.4165580784895436 0.1828275734547957
-0.3307263129862855 3.4987189366380522 1.670599266224186
-0.3764408889345 3.537051617571062 1.2648518141569554
-0.3624043533888526 3.0619389215479966 1.3486679077349983
-0.3666518117277451 3.0978255158559684 0.5318162485938753
0.07169782970448131 -0.41081004083750206 0.07109522883258163
-0.6524485995841548 3.4947610536697007 1.2641819499795586
-0.771351139915628 3.4508266310016666 1.6809000510799401
0.09215664517968013 -0.39759099854168983 0.178520448766657
-0.9747341393096108 3.5088317821589663 0.6208525446315553
0.1319930147887454 -0.3905175685271703 0.07027711376120162
-1.1547236438267776 3.3726717723102104 1.8518019393686003
-1.1875252922579551 3.424535181583852 1.5854284816232218
-1.2252977178809554 3.4033953392724956 1.7195283269472412
0.1484258891939416 -0.3792252178655913 0.1781291372902891
-1.5479583050223393 3.737101933972978 1.7693236620267647
-1.5364340540778951 3.7092799310467095 2.0456915189255422
-1.4236474226131823 3.4369889157102254 2.1804293635364345
-1.6170167059933118 3.7367051336005805 1.7809426484481792
-1.8118987641746729 3.556051549480994 1.8972243530526693
-1.84226732823219 3.546515577571325 1.7480890564762905
0.1926780066490241 -0.3709209524395503 0.07125891379396346
-1.843368143769764 3.548634737691146 1.3515921666636386
0.204341804336978 -0.36154090306737263 0.1816524219754223
-2.019574302874365 3.445724887757944 1.4734488905472893
-2.119677219945924 3.5841784389996336 2.1838613510597393
-2.0856172228798653 3.373608647363943 1.7348675724844553
-2.2905028676545727 3.370372620511188 1.9371427443982363
-2.6078413079648115 3.61918860596031 1.951224627499215
0.25918166967860184 -0.35090393728804603 0.07437263541356581
-2.603733954373668 3.35671358761353 2.2279756249951124
0.26662179592063273 -0.3437267481254589 0.1902780611714179
-0.3235560638214267 0.38799967514112965 0.22098127896897235
-3.4014394112915682 3.5100131847806555 2.137940451457533
-3.2987540981656394 3.272946955814994 0.7922276341158301
0.3336314023345433 -0.33102130384387723 0.08012480126518637
0.3368988134488569 -0.3239219601955467 0.20442786796282703
-2.127178434225641 1.9663435186585663 1.3770465045142077
-2.3444934196805227 2.099903459948834 1.3767091428365126
-3.8548674254199593 3.4255204833733663 2.112393559549356
-3.708470263836375 3.2954287265452686 1.5475883853601393
-3.7005236392694068 3.2883671801355727 1.0658100599147737
-2.3958104131525326 2.095527649580656 1.3625686529760115
-2.110598735363519 1.8460634375924785 1.3873599975010658
-2.2542211295196775 1.9252867274863845 1.4092321016042009
-2.3516295009215 1.8241108214446244 1.301800062023473
0.41465702103779034 -0.3012659603199645 0.08738063891134566
0.42278885889843854 -0.3021293804137756 0.227298082442735
-2.422975729452754 1.6605994554355876 1.3963577847707669
-2.6100869622638276 1.7292171406415782 1.3694984957756438
-2.7671459820786786 1.7867235282589558 0.5615497728890059
-3.795782603671264 2.1453646310125585 1.907151023298092
-3.811346623982486 2.0758567857353256 1.777749284059459
0.542251527907416 -0.28167711425418274 0.26727754074652277
-3.739199592573787 1.923750486623384 1.9989525937631243
0.26914441747150697 -0.13713593029108342 0.05149775885533569
-3.7445720700595615 1.7620618645950352 1.8101905970006955
-0.2272046370744515 0.10044611928876111 0.04235126930441106
-0.29978567501501974 0.10926122054138822 0.1516790517559861
0.7318538726932896 -0.2537848023095011 0.33882028147760246
0.24987278109586114 -0.08227482093701456 0.04484915949270434
-0.2611356825331254 0.07033759180374156 0.04610616539259111
-0.2720439935656414 0.0619317199349538 0.12203904142017714
1.000884841642534 -0.21137567229327353 0.6662243307871346
1.119289459624467 -0.21351588365906546 0.498415562556846
0.7468253512235187 -0.12430582169272382 0.1290734576245812
-0.2451067819222454 0.027060040648842897 0.042040690477248746
-0.2531451262769538 0.019922953512328957 0.11107034242123642
2.1682649925248128 -0.11078809904842588 1.0320721483019524
2.328435922659409 -0.10064381865573974 1.019429730700266
0.6067354008782088 -0.007148263751460175 0.10344590686198661
3.1600037897895894 2.167919967280193e-14 1.8688210316976388
2.8112888144453043 1.9286841282659512e-14 2.0089766553583233
2.3481879487896262 1.6109738721062473e-14 2.0215435580662535
1.943441242391685 1.3332974752214774e-14 2.005475788278448
1.6108408509826442 1.1051170432895019e-14 1.9945555276315348
1.3428255861578804 9.212452245192522e-15 1.9926957733582273
1.0348773135285132 7.099773737401546e-15 1.882434845072734
0.8208341825977385 5.631331266214217e-15 1.876582863792351
0.6488126977088188 4.451178213560097e-15 1.9195921658758155
3.218362585349111 2.2079570072890386e-14 1.720250641396475
-0.24338015909058935 0.007648529629253108 0.09974265965748992
2.347961906148163 -0.11996976251383937 1.2330073573825335
2.0677177118251233 -0.14640226600601938 0.8490994292266248
1.539195557025381 -0.18217579934635902 0.677957237121813
-0.26118071782748925 0.03717152071407418 0.1383579079161022
-0.2630484860957605 0.050179182400914256 0.10969295153429076
1.0724888812867 -0.22210177007412504 0.574407001390428
1.0331498314969965 -0.2351999953260379 0.43402694372165274
-0.2749947005278769 0.0845994163259681 0.12584853371767535
-0.28045255882691594 0.09972679894458435 0.12192591119077899
0.7146315072217572 -0.26683442436079113 0.4000664930508488
0.6768184037630577 -0.2710506695185294 0.2986442413326992
-3.6132352072146063 1.7350508329220244 2.1021348540284976
-3.736829770662591 1.9225312561592152 1.7021403685303504
-3.7327698476431794 1.920442499276657 1.4372341046252504
-3.7407869234552753 1.943183211866544 1.8438460343602565
0.515334804411252 -0.28860135734352205 0.3097665183680982
0.46747498020721406 -0.2764639326150428 0.22246760852602782
-3.790239607391815 2.3226618186488754 1.944413226335659
-3.7845828367252663 2.360280087713485 1.8270160534346056
-3.4502864098458983 2.3846396861958454 2.1996495759671553
-3.8081267097734774 2.676396278003595 1.9066019315521374
-2.433574712491856 1.8572455060811848 0.5219054022152109
0.3951466577082773 -0.3115085072759555 0.2638893116378221
-3.8547411552068365 3.063454369443793 2.016887193843622
0.38334491672023646 -0.31713049523380255 0.20379382674045407
-3.6533892049077337 3.2722483106695512 1.8753277875571275
-3.6613745250128047 3.2794005599259055 1.618443868394856
-3.047399239117133 2.8843020019106866 2.2005782965398737
-2.227237026126175 2.1414470889266473 1.3514720103576778
-3.5533465774673227 3.4979645704644513 2.134506257703809
0.3091383641226004 -0.3318004482848072 0.2378380422590203
0.29908278821159096 -0.33656914427358714 0.1844334484808163
-0.3245845434168355 0.4184518719304849 0.23164391866128828
-2.34203997332584 3.4462071686131495 2.1852544278283106
0.23829892527489815 -0.3506462203499304 0.22234623983134177
-2.276802642502115 3.4074759552206606 1.7925616702608684
0.22809574053295778 -0.35632073523707863 0.1732999330375788
-2.0914989755165636 3.536531629767447 1.6830071500345984
0.1756894087700165 -0.36958476000835355 0.2146167207269968
0.165949567239331 -0.3753705117156517 0.16811519879953915
-1.4845538291857783 3.7069576502231762 2.094240890561952
-1.4907170768327505 3.765121546615172 1.6587535489196088
0.11601036296999304 -0.3879122531042754 0.21234566059878643
0.10472253502914225 -0.3949629740992314 0.1673751467445509
-0.7965070601529681 3.436366816242954 1.849999893878574
-0.7914819339585917 3.47669831187142 1.460563314768514
-0.6265159257403187 3.2156533620760883 0.5585259615832522
-0.6633910878449599 3.4776178685576205 1.5485707038610268
0.054706356229872834 -0.40729349959114963 0.21552545042023344
-0.3631150958920761 3.067943954637331 1.057723649324124
-0.3642394932671642 3.077443940092458 0.7956685158611532
0.0440083839134573 -0.4135042979745502 0.17033630764431942
-0.2456954600907302 3.4700887384056895 1.8244623560054098
-0.13836848303729 3.201211468037555 1.4015460391320733
-0.1411542786882621 3.592616295514336 0.6129564607807361
0.0065504725627463485 -0.41698173642110226 0.28341545970614795
-0.00839198128777635 -0.42734517057024574 0.22416663409248305
0.18289200166283595 3.5794307152516436 1.5176703431380827
-0.022143286911583966 -0.43337248533195943 0.17774972236814285
0.18136465166095206 3.549538519529704 1.7759175548157582
-0.026753911512638177 -0.42524124628646914 0.3358959819281922
-0.026100959989762033 -0.4148628790252431 0.5491334368753185
0.29224688306639246 3.5357750695226797 1.8606792891521815
0.3109398925358634 3.5901408170193334 1.4760996908073438
0.3527582986280437 3.581615111613595 1.5742108419808905
-0.07766995429605841 -0.44502877182931383 0.23692566438387533
-0.09566243021863002 -0.45297112615527396 0.18963875741601116
0.4973951515437129 2.0717999103691294 1.1174413607054623
0.523670633454214 2.1081638970721728 0.9501531722512583
0.5244638287755085 2.1113570983572045 0.8911374167449031
0.8525046805787037 3.4319655807818052 0.6028764565982014
1.0308136063824869 3.398137056005519 0.6053964465528959
-0.15692363587703936 -0.4642778773197002 0.2570253394796782
0.076207460219245 0.21167436382442853 0.06632033403456031
0.8069216223767476 2.2413110288858547 0.8576236745423421
0.7709937580528479 2.1415175466932626 0.974352719628994
0.7602183464312543 2.1115876895193693 1.1213966716642156
-0.0992996231170765 -0.2627888273897506 0.11507222535402041
0.8683502460158988 2.119890891004465 1.2014455711685095
0.8879348581021539 2.1677025211110887 1.0246357732071127
0.9629487965082346 2.299184783244868 1.0210577592862176
0.06392339238774958 0.13312016429572252 0.02517581703781711
-0.1285888957985693 -0.24754416205705637 0.14629690259460224
-0.13181508268456396 -0.23109644092080261 0.10897806646568647
0.4861659487743257 0.8220617247644932 0.4177525474842563
1.3121429071621586 2.1794620976610934 1.3341974951418345
1.37106703452057 2.217781649015804 1.068031714950314
-0.14829725997920912 -0.20077844424825408 0.13090813193957654
-0.14243108981695232 -0.17922087861816385 0.09377239103749388
1.9012108506642718 2.2617635043182744 1.5496012880255212
0.12847129941142957 0.1504205651737867 0.08102949339800543
-0.16191889546994384 -0.16065215540375702 0.1196250653246237
-0.15809266882791234 -0.14499219326781 0.08786906141673571
2.6351422801994593 2.304862470929355 1.8360703018148898
0.14230659433606635 0.1215413136365192 0.07665860870104227
2.85239962937089 2.30365200801128 1.9228990562040484
-0.18054997434827164 -0.13117723479429752 0.11704375179632708
0.9486484456002364 0.6556512888816607 0.5044090741135334
-0.17626299726095604 -0.11777516942539988 0.086835276606933
2.276485789242893 1.444701812438562 1.4140417690124625
0.15572992125210453 0.09627465418518494 0.07499588380928907
0.1552175037990483 0.09344853801123906 0.07504596763287442
0.1540911196313919 0.09277039958528699 0.06395764075957047
0.12757075424054543 0.07680384096502356 0.04389615786737752
-0.19553959031773394 -0.1006015786841047 0.11532818816160548
0.23763698629985597 0.11757655786614209 0.11597161628032883
-0.19710647715045113 -0.09086733058088285 0.08890537047019856
3.239125224697613 1.4168224369124276 1.854178783448124
3.2973818915303865 1.3810155439512064 1.4643526654370675
-0.21325546591939856 -0.07114740590551175 0.1179031504600983
3.3104311185831747 1.0756242734500068 1.5225302070833575
-0.21354299893268633 -0.061131645324104394 0.09098521608922316
3.3069609463969023 0.8768248070312532 1.7942819056046657
3.3452138520949712 0.8170217635990014 1.4105444769866349
1.1441028210619464 0.19967790724317033 0.5080053820552332
-0.23557473226921496 -0.03921038649370374 0.12524811817868597
-0.23317013634916695 -0.028526424836290955 0.09622333709121902
3.3673033064443283 0.3450073061477975 1.7752451664808817
2.7349367738415786 0.23687119527994835 1.1244793817299032
1.9954720836929098 0.10195919761594328 0.7639898462831747
0.20820843594210597 0.010638467578178669 0.06145787345922411
2.758085593544716 0.0758359401472582 1.2068673368946041
-0.24959049286737023 -0.00294055476290319 0.13090813193957654
2.7830101895462747 0.02185816035811622 1.1400125024346734
3.391957642581981 0.07993591217851555 1.7794239519782455
-0.2415256272793346 -0.016147967892832172 0.12095294333027203
2.7388542822217867 0.25889795521451503 1.1776867450816977
2.7413377110174593 0.25913270835245816 0.9913419155949558
-0.2310384371390344 -0.028265629186198075 0.08379913347440296
-0.2331002443031864 -0.03037786656694691 0.10063032012587261
4.353960197245594 0.6545886311893864 2.2000003010724156
2.7197125039009444 0.4417152206052353 1.1286467826607778
3.3376922837116423 0.609570847709992 1.7794239519782455
-0.2264710258318957 -0.050622271882313996 0.11595369786307776
3.348779979706493 0.803970941960272 1.4742945336670323
0.18906253240811668 0.045389898169084925 0.07000082844959712
-0.213085727596516 -0.05739520842765783 0.07944974980583071
-0.21423799074163954 -0.05951413361414691 0.0951848266434449
3.287914249383086 1.0256452614773994 1.7209557479239892
0.21178423593752294 0.0697335260472321 0.09133275838043886
3.2767309584463726 1.1362712551488545 1.8188905576426415
-0.2068441035836452 -0.08095722159966559 0.11098849077062417
3.2918110058753096 1.3033201768946368 1.5156031202453737
0.17461368024398877 0.06913444672784456 0.06761280165238576
-0.19814911587596562 -0.08482449745215065 0.07759982287069507
-0.1998566916902727 -0.08741911019519322 0.09338202160640963
0.18695238862076377 0.09158703014518993 0.10402221060030886
0.6674146338380016 0.33021928336166323 0.18807692956605826
0.1620844674787884 0.0833895237380969 0.07466466857122574
0.1828561583290914 0.09681735212394124 0.1085127904388927
3.226210550571326 1.840198009051623 1.5899603048078645
0.15601462687182313 0.08898917204942466 0.06466346309937092
-0.18922288005176024 -0.109909394579264 0.10934178820623353
-0.18057758756728387 -0.10968500354134358 0.0760653328824332
0.20812662352902803 0.1286671087089923 0.11987111292915663
-0.179842451621278 -0.1111813946763975 0.09051182283359141
0.9481845790958776 0.6663952834971674 0.5790883612174427
0.9392378178556662 0.6711892567587506 0.6054364567164431
0.24546567631757907 0.1904026957854826 0.13298652257869767
0.1412773897252774 0.10958597658446896 0.0643709009447617
-0.16463749786634777 -0.13511450267401157 0.07667832459999925
-0.1636669198260088 -0.13648316673826788 0.09122765234160624
2.473075046849017 2.377815785948582 1.7142531612181608
2.2876860227754965 2.3239061275768655 1.7102426644801976
0.12442715902463192 0.1283988676298146 0.0643709009447617
-0.15032172665842783 -0.1639037413990706 0.08006835860572832
-0.14956347842216336 -0.16567044274725837 0.09554616853746935
-0.15550390777029666 -0.17225061573197686 0.11595369786307776
0.11456078210262706 0.1501105919790311 0.09435378836983313
1.6424184362657888 2.2605950415247733 1.1961737910721202
0.10748973947356354 0.1479469340475698 0.06583813950765527
1.602093653250865 2.241911549875447 1.4451451583658883
-0.13502538829161795 -0.19701514270622747 0.08598940667979185
-0.1366193888981306 -0.20273733359149992 0.10465522512187453
-0.14073635711171403 -0.21425062753316348 0.12808569939134412
1.1995909820988881 2.202491554908912 1.2531689535820576
1.168644736707856 2.207185822768119 1.0691310598502168
0.08557147977192632 0.1616164015062003 0.06583813950765527
1.153064711560114 2.241215339336699 1.0324221877103743
1.0989784731838323 2.1779684204259127 1.2794236495805393
-0.12074544455286036 -0.24404170417750615 0.09802644664513092
-0.11989262227163354 -0.24718354036909437 0.1176055121813247
-0.1180209152662985 -0.2586741003492214 0.1420696074754421
0.7160090059921362 2.146147596415909 0.926739768077516
-0.08793645498389542 -0.26706744926686843 0.1012282442155054
0.6898608729629551 2.1231734516594467 1.1708131661897636
-0.08546440388511864 -0.2665900416395405 0.11984400430221535
0.678671758514501 2.237280956705595 0.8417146576823601
0.07026303964021216 0.23162620011090118 0.06316176598784067
0.6318076344192445 2.2402208899980103 0.8379913347440294
-0.1295918933632009 -0.45949819354984 0.23855471342854379
0.5861034158366155 2.1098453518577793 1.09415144161527
0.626997782325448 2.524132544007542 0.8450643059797197
0.05637389170976957 0.22694685485048005 0.058087084683002714
0.4796361223699959 2.316075230438702 0.8515308080546408
0.4379395011445882 2.1573592686389547 1.0999577170758978
-0.08047939080836639 -0.45066966448341245 0.16481784238826422
-0.07638536013443457 -0.4480498057852565 0.19457041988166326
0.4209592169489488 2.529109343131171 1.0502267698703671
0.4092472761197726 2.519802085437052 1.3388394665588654
0.5014925691737617 3.625681872052788 1.317753074643081
0.36319168339249863 2.8749582073455744 1.4479527295912837
-0.0538143711088946 -0.43986950068286435 0.2214290763002046
0.34791104826282077 3.532400152744087 1.2621723588283082
0.23155745006112882 3.4634115418353653 1.2496886168973318
-0.015297603806368666 -0.4326534111405376 0.15586214789435035
-0.011824045403074895 -0.43002999923676816 0.1841586047588634
0.027634861477181055 3.5185074964076315 1.8453566896820888
-0.014059572758767028 3.5802223997503138 1.288969315670449
0.013203702145295974 -0.4201486147632035 0.21004000514716137
-0.26358941978573325 3.526204720554994 1.2730537641877884
-0.3569700949482526 3.48406123465119 1.7500004755752097
0.04425954089208985 -0.415864177636005 0.15056586199783378
0.047148912500898844 -0.41222146170596197 0.17761600873508765
-0.44620281082693897 3.0492941118876886 1.1095046060369524
-0.5193040811334165 3.4541224698842963 1.8318914362916219
0.07489634718193178 -0.4011731151854112 0.20391828959472064
-0.6664307640746434 3.4935524093807673 1.217678775213201
-0.7638535733032912 3.4814477032682256 1.2832126121419587
0.10039004553977109 -0.3974667797658343 0.14759064245100553
0.10139731586464822 -0.39491647147289577 0.17454101207121017
-0.8933333426544295 3.423435117107623 1.7678742992238385
-0.9212013628286876 3.4743279458030525 1.230631290896874
-0.9733865545977223 3.451368383127214 1.4688998942331677
-0.9786198973033018 3.4184819757001614 1.8648581925752952
-1.0069927582043665 3.4660918082818095 1.2994668758709085
-1.1657584121816702 3.449039643074382 1.2464982410452927
-1.1586048004713878 3.4278748029822137 1.4821626939726626
-1.1618229172738632 3.3934070532468232 1.8811095342568347
0.13406169471380544 -0.38175181317060874 0.20217075740921367
-1.2678343099449136 3.4366152740899394 1.31876897916892
-1.4945942028582773 3.7320286441236026 1.8917532524680356
0.15637344083982904 -0.3775188816704561 0.17492524398210998
0.15688060624174466 -0.3787432872621272 0.14759064245100553
-1.575613176604601 3.7620129471737638 1.3964303430557954
-1.6008390060433615 3.699320674782826 2.0140958323412654
-1.6904753462016868 3.743987876442764 1.4789485741343096
-1.69856928799885 3.72286455720597 1.676185807888456
-1.6895736537380024 3.6649685717143647 2.116529762828859
-1.8301345867072023 3.626982176848083 1.3909251178134667
-1.8434260456974605 3.514934782069192 1.6257840852476173
-1.8978311847703366 3.618671254761924 2.1429979337537834
0.19402845686269335 -0.3630017109326478 0.20566651596079602
-1.8564331477783078 3.440574274542215 1.4074930298897543
0.2125778905461246 -0.3594495825750649 0.17876979061791037
0.2133552890562089 -0.36076409166736223 0.15089662287528058
-2.2745607808647406 3.615438767870365 2.1343073279010225
-0.34821781283764214 0.5487034733818758 0.23396763263587117
-0.3374771785263326 0.48828883015029234 0.203221977956039
-0.32918094209834386 0.44567537822307063 0.1994752230352677
0.25952494802099507 -0.3428424555918673 0.2148554211520817
-0.31744987835391214 0.3962422195011355 0.17383232788494882
0.27291391808218424 -0.3406522541271038 0.18685565304575055
0.27413539192136827 -0.342176902703473 0.1578504170167939
-0.23599333806039266 0.274125536507428 0.18970328048198856
-0.26861822616308556 0.3095550927108168 0.20479231711613352
-0.2538352631205225 0.26608793230704886 0.19286490473151024
-0.43586054506506244 0.4462531834058765 0.22457889828678873
-0.43529555697180405 0.4285110958845002 0.2226230418992419
-0.45887451067712154 0.4517225510217047 0.19532772550069705
-0.46606433593608665 0.4588003165802831 0.1624540066427623
-0.4696432618857554 0.46232346184611306 0.12571484873289016
-0.4864425235434813 0.47886089235213786 0.0916837884490155
0.33211315621016 -0.3218400385046542 0.23108405632463827
-0.39932645877214296 0.37499250501379205 0.18755266062623938
0.3438260782027666 -0.32287417856248735 0.2019106058762245
0.3451595322781325 -0.324126375287893 0.17046697662677282
-0.4125119024256977 0.3523184483855764 0.28451123226388025
-0.4187859171223572 0.3520263406046942 0.27336388046055776
-0.4429125559139118 0.36058751163740405 0.19554312635567353
-0.45978526556508365 0.3537628305274449 0.3042521475790366
-0.4657894677829069 0.35547928377918897 0.1752331318739447
-0.47012615004497105 0.3587889350511129 0.13952742787273612
-0.4682668458221174 0.3318582524189171 0.19650257353344627
0.4233106152899435 -0.29999800813116007 0.2592475999892496
-0.4662038027852211 0.3276535203944694 0.2763859345945623
0.4280787762544416 -0.30085880296978434 0.22398558434883314
0.43053905176961993 -0.3025879135623461 0.18945627323290912
-0.4585713573148978 0.3169381690996028 0.3326296848120504
-0.4843487815341313 0.32088747508674925 0.2091733399811106
-0.4855860493696845 0.31624773229703784 0.2480696685903446
-0.49270272605523113 0.3045964717998843 0.303792714041674
-0.5167261411906093 0.3138656872646381 0.30209174991740323
-0.5145024525725671 0.3125149919915941 0.20610338686520227
0.5433632552357759 -0.27685740686276 0.2195526112912559
0.5527860863292879 -0.2816585791111918 0.26558612082300825
0.5550857466570227 -0.2773606261168552 0.31005789288176777
-3.7713629521755014 1.810982694499888 1.7137033474846275
-3.7406597455022244 1.7781964253131426 1.4911402151986914
-3.768400509728006 1.755232613066152 1.7795991324763785
-3.6868273945929944 1.5271339089690676 1.9939864058101056
0.7413889748681183 -0.25383418142889125 0.33546325623281803
0.742868712319179 -0.254340808796376 0.2826903416072975
0.7862547640619969 -0.25206040818002634 0.4125639303404169
-0.2728955386387706 0.0666509240111249 0.14036623283225405
1.1176982088795029 -0.21321233634517564 0.4870967188329058
1.1282638631406643 -0.21522784268860623 0.41352464359758834
-0.26088703088299686 0.042371306612091146 0.0951558169164576
1.260122884224079 -0.19958385775796236 0.6374963532266186
-0.2646367406380492 0.04084970306911565 0.1146285185441868
1.2740936485916277 -0.19155141059081288 0.5277598238963844
0.6587754111338412 -0.08585229756764459 0.3484197765451828
-0.25370495594516634 0.02197323051046763 0.12724375218373238
2.2735507675674134 -0.10721793247963983 0.974352719628994
2.238629241146188 -0.10557107509896077 0.8068518257943614
-0.23618862163096657 0.004638148807129488 0.08504953020274172
-0.24703029475734656 0.0029103917440302853 0.10575709475961768
3.062312484876873 -0.012025734824212582 1.5301626144528468
3.1188330925776153 -0.0122476918725769 1.3496500045147053
-0.22516694801732023 0.0026528083415105763 0.05876060013706989
2.810954435348008 -0.06624381273543135 1.3231020065254357
-0.2500814178377697 0.018693984340385043 0.11800770907755247
1.873224207727153 -0.15482996662076845 0.9391888782461125
-0.2419259830369697 0.022868738482399665 0.046355577138241684
0.7607750531083395 -0.07191441578562878 0.14577254669592216
0.24597630746337124 -0.025202251027314142 0.06142070261598549
0.6990729025157798 -0.08274073053024768 0.25343845106748086
1.5407899444391402 -0.18236450753242647 0.664191639143167
-0.24985101344243124 0.038567357223464396 0.0659699176791036
0.3396857509783221 -0.05243437487484901 0.08968961430275606
1.1966451058376923 -0.21369370233077736 0.5720065491398353
0.3930200350008578 -0.08461499967030568 0.1219530808086401
-0.2701019354080678 0.06260626703080446 0.13046991920471004
0.24203029641230542 -0.05609961048165339 0.0473937688138257
-0.25781184445092414 0.060825372072099725 0.05053045589645062
-0.2773113800808126 0.08293368822829056 0.14462849592845756
0.312894661055309 -0.09491555774956907 0.08532272839151066
-0.2658882367009324 0.08179790224924519 0.07259165772795004
-0.264617044224564 0.08254571041991131 0.06885510581741398
-0.26853013794569003 0.08725073085069314 0.08564972259668209
0.7552347562317052 -0.258574651948155 0.37563893880896776
-0.2638786093673225 0.09383322845127799 0.13994071872324484
0.256876587097813 -0.09822007902743211 0.052461748701550785
-0.26252216876114526 0.1015621674962909 0.0536957823520631
-3.5286789296428314 1.4616266699182245 2.178555597013418
-3.141943396780959 1.3014355671552529 2.1958784474482695
0.5995165068605652 -0.28211105412571746 0.17289682224315867
-3.692138349843358 1.7551308224029756 2.042696062038361
0.5439483179470304 -0.2852765581689019 0.2890285673802877
-3.729996966092962 2.0125971586207765 2.1177724877920387
-3.770040644406638 2.0919186018357125 1.8456996242118346
-3.7867106758648674 2.1402372053712377 1.565984342845024
-3.7538911006812254 2.220045008276008 2.0522375022046266
-3.8067673962020643 2.3122764068265633 1.9066860805193397
0.46087394278975635 -0.30273759541685696 0.1369713735736193
0.4610875647164364 -0.3028779187946985 0.1439556319511608
-3.8089066562049054 2.5234510467423905 1.1922591576552075
-3.840527434748249 2.813415374164301 1.7139836508444284
0.41759949250745143 -0.30591653162885946 0.24359338975778505
-3.145926877632183 2.3427670142469434 0.7482424724298152
0.419693867366721 -0.3125453918015185 0.09982202040832738
-2.565671133875595 1.942162228737151 1.3775175171533247
-3.8849631142407572 2.964910116865359 1.630455948469079
0.3949117469002174 -0.31638396880533176 0.1534988483448835
-3.863277219004826 3.1200559106184915 1.7878157745508798
-2.3432081020389086 1.9076713167893173 1.4218389281625852
-2.8826206994664 2.4619906629314254 2.221883182943318
0.36739376167971544 -0.3239011710150834 0.12780788431816759
-3.08027995662952 2.8925754146918976 2.1739594888374607
-2.2820842027030257 2.143019709876805 1.3401455946473995
-3.47402014683626 3.3140503983494938 1.728546781714435
0.3364862833543303 -0.33124185101573494 0.09007117879798747
0.328261477967463 -0.328261477967459 0.2184509193508607
-3.294866551448366 3.3470329810247215 1.2255813445379775
0.2896494876238208 -0.3418452171342323 0.11691886862995038
-2.8563540779577217 3.565312689360301 2.1497224956772256
-2.732589218280036 3.494410828799597 2.216535387425119
0.270545974759123 -0.3487857690001759 0.08420429255442968
0.2544095072287339 -0.3472884598360968 0.2025796838192434
-2.564613587381483 3.6187845459985386 2.0871445941909332
-2.514714985974939 3.5780775008034262 2.1852528314951054
-0.3120012951263392 0.47906581083819966 0.14918492124013522
-2.1582178992153938 3.4008072360346757 1.705564611159745
-2.310641725680986 3.6409887543960644 2.1125701659124596
0.22651052850701853 -0.3600409155844722 0.11099783592740037
-2.112555203889368 3.3873692397326964 1.8785571974876596
0.21064265646325217 -0.3659492125207966 0.0805471609277024
0.20666695658493311 -0.3656547829766865 0.10433287469534111
-1.931971965877912 3.4497841740176494 1.9756645655979173
-1.8783209196136283 3.448663773396632 1.847908466619364
-1.8045465529516258 3.440801685338515 1.8096785627293177
0.19131441342679142 -0.3647869073101679 0.19383061541006807
-1.8259960125242978 3.690567212435643 2.057443125031741
-1.7494560443860339 3.7177833385040078 1.9334700920115562
0.17299573801323898 -0.3752567646023224 0.12534685975106047
0.167034430390825 -0.37782442372694647 0.10779704958584646
-1.584821116191453 3.7839982849818536 1.2444721808574402
0.15528330009935803 -0.383376082191017 0.0789042224099529
-1.5024718506672479 3.7948107162957716 1.065032847117546
-1.26076143136492 3.376550248723229 1.8009411514621414
0.13142037979589663 -0.38384751850668297 0.19091821890685046
-1.010331273667483 3.1515372959108356 0.8636089334487305
-1.0749527786459778 3.3989691116652807 1.7812797370504794
-1.0059604319480802 3.462538518001184 1.510149204785077
-0.9867719565079808 3.4469584736058643 1.5850979108831549
-0.9931155019602921 3.469117532348198 1.3312348202028452
0.11136449343445404 -0.3948687084562146 0.10705910836639948
0.10105742410726788 -0.40010908168612375 0.07872178723257338
-0.855678593341372 3.503490373105372 0.9410958242683415
-0.8003226260066798 3.452828294792016 1.6678526496622637
-0.6167919108050256 3.4539203230359883 1.753128386879997
0.0719460316454694 -0.40288443559147674 0.19258219047618697
-0.6157333819537502 3.5279932018587696 0.9345332364266682
0.05562019078987282 -0.41409707602431167 0.10902754699897457
0.046124434075570514 -0.4177898973233946 0.08018190740881491
-0.46776961206197176 4.395179460120416 1.1533837623995755
-0.3648355417575488 3.560828725007637 0.8891449930303607
-0.14056404697657846 3.577593895306354 0.9342808298173888
0.015042255023160882 -0.42543152701504233 0.10574377705315607
-0.082555519203312 3.503116642662633 1.7508941641770235
0.009913010091724796 -0.42064335572375894 0.1979946956773757
-0.014029070688552388 3.5724551512787612 1.0837007784796764
-0.0050778778560190314 -0.4310037183438746 0.11247670838993024
-0.010241419570385685 -0.43457890747637645 0.08292337729387485
0.09888628057431162 3.5964059431668685 0.938824155775831
-0.01359549046727989 -0.4326155213135349 0.1312972709448772
0.2094620509480699 2.8021081932296354 1.322250854659574
0.33184352880237805 3.5105378454415948 0.9201461341082005
-0.052525842625659215 -0.42933728839723717 0.3966957633352946
-0.05551236475939635 -0.43942561454998386 0.2084214639527052
-0.06921982314880343 -0.44842696542122884 0.11840132079650302
-0.0730732685736238 -0.4499240075275064 0.0869521987666523
0.05420512670453789 0.333749787186122 0.08823198848582761
0.055867712629512595 0.24102982055499622 0.06456333548363605
0.4860433838302309 2.096934778114716 1.012902446125907
-0.13143616593508967 -0.4591283760348452 0.22472798802972765
-0.08367782832044093 -0.2719990318980443 0.07426000063359457
-0.08576756122682579 -0.27879181487139637 0.0556421549000017
0.8584026796335144 2.143446951994193 1.0865063292888841
0.9608052136310945 2.173298494835112 1.0172177710828414
1.141521299795021 2.5820702130570243 1.0163953644905785
0.9713701214569589 2.1513463455383177 1.1794634325317668
-0.11787894069800128 -0.2556991889458975 0.13249332101025835
0.0779888014730821 0.16743822843562972 0.048199445050021855
-0.10990717168269887 -0.23596544338835088 0.04965604836521666
-0.11259131153936183 -0.2392687163787898 0.06568620805231955
-0.11418415219495247 -0.2426536750745226 0.06997980680416285
-0.12338863346854131 -0.22867925978958314 0.0788228474038734
0.0881277735200311 0.16180571530404603 0.06715211113098474
1.193864551749316 2.19197762585066 1.0801210672172392
1.2882453763295199 2.197957831232071 1.198839948655042
1.3877349362950009 2.2251587212744433 1.1226207782339483
-0.12448817557307883 -0.19279812987576267 0.04377870782577839
1.4443252525390904 2.2177050513253462 1.3224121408259744
-0.12654078160023557 -0.1926399291752797 0.0601438964429867
-0.13954924670965607 -0.2124434246624073 0.11960685206323103
2.781459154360331 3.416488767549672 2.0730965905697794
-0.1380851546404952 -0.1616769433974082 0.0405592904472181
1.7249437001823138 1.95656456785761 0.6806440501506718
-0.14374755053265745 -0.1617645413950529 0.05647012363284953
0.13079180237466387 0.1460260082732686 0.09795360809772227
-0.15279564427355052 -0.16925069076823868 0.107297226271254
0.4107531185749008 0.3708185006817145 0.2603987617734745
3.6617382843631416 3.253901655637867 0.9344563939887361
-0.15238845334862397 -0.1354157512481604 0.03888873358584199
3.645331390916566 3.088732317069086 1.246786559075499
-0.15781040826370107 -0.13371462171822057 0.05397476245799665
0.39765620652343975 0.32634801473516906 0.25704379917010534
-0.16971605489826866 -0.1381705916970652 0.102982271774567
-0.16492215850302894 -0.12586461231729648 0.05153427015994755
-0.1715739430932614 -0.12058418684406842 0.0636147462038881
1.1145851683872987 0.7447419996580786 0.5738468927826855
-0.1695049589038966 -0.11325959256097348 0.03888873358584199
0.5617006160008035 0.37531635251784845 0.12886835731480403
3.864026007164476 2.430953081059843 1.1912494002694023
-0.17697645766887737 -0.11037253696139655 0.05442643214175636
-0.18737611780638622 -0.10982304299411667 0.10220122163320604
-0.1857791468014221 -0.0901093537221407 0.039387980216225645
0.2800416203481488 0.13447407067984826 0.13298652257869767
1.1375234920296213 0.5244055126350692 0.5894201925610336
0.7188318229066408 0.3211726771661855 0.2054481000608689
-0.19234884828227736 -0.08503653626262349 0.054879031195320525
-0.202391518772895 -0.08105328750409078 0.10259160644799416
3.248873572891929 1.2863200445506415 1.745978880270796
0.7308791012479601 0.28606056608409614 0.19496177033105938
0.17090162535862788 0.056272238066745923 0.03432301957489575
-0.1997048801041879 -0.06488804897968257 0.040056234997591374
3.3186846470229394 1.0495621365088592 1.4900310517640851
3.3144415922801937 0.9488359200696602 1.6223083332550245
0.7679325983754954 0.2165793920319526 0.20820636709603735
-0.20576027676929426 -0.0580303997268658 0.05578692688581796
0.16741602860759222 0.04298513017250465 0.05243235593900685
3.3125814853668 0.8505263656042987 1.7088911036742591
-0.22457651229376552 -0.052054040546836815 0.1084793389946513
3.332386578147414 0.6764676319190526 1.6990606924853513
0.18865463384526612 0.03445445394672345 0.036583052523561845
-0.21611537341777742 -0.03946967550613784 0.04190811482201038
-0.22060255713912114 -0.039394618294701506 0.05566485276272253
0.19591745373766825 0.03260960548662379 0.07150499948224166
2.717355084644056 0.4522918994035335 1.179260099254205
-0.22281623722526334 -0.03349892261861457 0.06835017638724317
0.1378575393952922 0.018516582431840376 0.03629648752868946
-0.2232943894363945 -0.029099957349782782 0.05876060013706989
2.7079136937156747 0.3420890538128066 1.2843751424909269
2.804659226761445 0.2762348231823542 1.4081895981022265
-0.2399532876158805 -0.01793689047310784 0.11322847575802775
3.39568612659032 0.16013649267766827 1.698613856470895
0.2010661162191312 0.008690839005551457 0.03839122589778051
-0.23107274211568687 -0.00998783901565122 0.044120640554446824
2.760314713098288 0.06505042153867528 0.9940503645745289
2.7705088004333693 0.06529065852151003 1.186340219595998
3.401503281950547 0.05343508354044536 1.6665848657439222
2.7721065671386222 0.07622145889865677 1.1742791276482265
-0.23955353754214212 -0.009412084124097341 0.10151608406300157
2.7457504312381666 0.14029487714234384 1.2937375764825876
-0.25311087660903386 -0.012932770193992119 0.1636448214802895
3.2974111877296153 0.16848213596080824 2.1318888875590227
-0.25004397675483203 -0.014745864937662457 0.14680793287785662
-0.24156317532980096 -0.01710359013207912 0.11863683883675302
2.74480297872457 0.20517839488181297 1.003174179421726
2.7361745305394267 0.23697839662781467 1.1884810381150626
3.3126596757375477 0.4317092584440606 1.9580015293446733
0.13058762783965427 0.01754011123423567 0.03272943557568003
-0.23990256321234144 -0.03414319086027467 0.15646406195042806
2.8394794151471685 0.42689663190478205 1.4066797491340546
2.700937496577797 0.48232623907629885 1.1872902082804264
1.1382754654428324 0.20327020709494276 0.48962249506990735
3.2562510914639784 0.5946970449813251 2.1373116885541332
-0.22460347069798764 -0.04284540348934092 0.09682227197424041
2.702354246210566 0.5485723623808182 1.2975676827124099
-0.22567427587084174 -0.046734895816336365 0.1129024832464168
-0.22901624020051028 -0.04930590647629346 0.13730436741405272
-0.22177240634576928 -0.049572005994108125 0.0828227988257287
-0.23276345343105997 -0.05491572231634447 0.15441968200110018
-0.22280882486746173 -0.05534599972022043 0.09934811460792885
3.338991569497423 0.8573073226826831 1.4917776152294908
0.18644872234107682 0.0478718953435078 0.07015807561215091
3.3304319441345696 0.8970607170353527 1.4925716516938308
3.2552348457210307 0.945733147651537 1.9868152688754654
3.3104537203487983 0.975889296124758 1.6907738604372633
3.1704896597531196 1.0164070913088012 2.1497841617557154
-0.22040927320496803 -0.07257346480983824 0.1498327216957395
3.3169093251968778 1.121099015506061 1.4825877801510876
-0.21039158781399336 -0.07388426680050084 0.10924053687372266
-0.20457369616244195 -0.07184116867349939 0.09181203255599288
0.205098585801704 0.07566486302992972 0.09460126111634583
3.279468001889178 1.2098596204553664 1.6448675701638102
-0.2112950437202643 -0.08079138751717893 0.1325864103228555
-0.2022968422788832 -0.08286488399309812 0.09460126111634583
-0.20503375264303567 -0.08872602773364287 0.14425273751205997
3.2420605863741785 1.4485464400426291 1.7395922985915235
3.189350194937493 1.485524551382486 2.0621365476835054
3.0074414194393966 1.400795708327469 2.1421922164389655
1.1449488778673895 0.5442740426306155 0.5485962391310504
0.666889734917892 0.3365050915286997 0.1949215350760533
-0.19573567056828028 -0.0997323055283974 0.1076197681709827
1.0608464463576248 0.5457862884522966 0.5051753602343095
-0.19236275010441847 -0.10185083336854935 0.09216821640021605
-0.19895000095827103 -0.10835847543033164 0.1462782893019951
4.633703292854573 2.6189548225132384 1.3889151995076343
-0.19162481732002268 -0.10930086607482675 0.12929907216357253
1.0667615637299224 0.6308810301261989 0.5363151051158223
-0.1860009310938796 -0.11000064400768812 0.09351209520753843
0.15521707026913784 0.09765084771795676 0.07427632891460074
0.1391394175802471 0.08753600395971045 0.05412643056950267
1.0335887134185573 0.6559353432592454 0.7904272243269117
0.15067444273118083 0.09728925531166827 0.06536828824857785
-0.18951275618522384 -0.12555470798623813 0.14678532128782626
-0.1800378193893863 -0.12443179438870754 0.10721526073615248
0.10555115707457421 0.0735650592519445 0.03357283570800152
0.14326398302304616 0.10323024676188017 0.07477263752104558
1.0263059454348071 0.7395146621281422 0.5474076825024152
1.0122628005483267 0.7415428672608824 0.6147277435097325
-0.17103084745215608 -0.12632534405793355 0.09003530789885729
-0.1791837668195226 -0.13674872769675683 0.13934835191592754
3.72084516072359 2.8628510189298524 1.225076460198363
-0.17584212579457267 -0.1397459146822459 0.13164583596023127
-0.17864206941398011 -0.14311928515784209 0.1478001395513515
3.6757175706723215 2.968579183425711 0.9012962733653722
-0.16746252390478555 -0.13524590856330446 0.09314959637231626
2.5963597460996968 2.1651253687438 2.1828635336307993
2.775770551414819 2.351943153450287 1.835797714574401
0.1694160021412438 0.14354817840326276 0.09816892937983558
0.13439512635099465 0.11387457695925053 0.06656223204980376
0.40345860947414564 0.34733555009906086 0.2608067600323501
0.14817654139638153 0.12858105276290951 0.08489773524769852
-0.16329345924199493 -0.1428268100675841 0.07906799918235705
2.5960923264614753 2.3436926479578357 1.8871551087274814
2.539121455348281 2.310422755846905 2.0120906848983755
-0.1661708883075386 -0.1524010046234126 0.11045890488710328
-0.16619558419704658 -0.15854270232535783 0.14830792066769521
3.4973676794657536 3.4159186752028816 0.9325829287674774
0.1280389485047326 0.12505709305847634 0.075787539487478
1.8008314586759093 1.8008314586759127 1.1984144170053954
-0.15510165382632707 -0.1551016538263284 0.09288139727995046
2.8254102845861335 2.847688606354749 1.965222207535895
2.457957575783546 2.5364154569361714 0.9216605587001875
3.6040870771732156 3.837962920301793 1.0043375739966998
-0.15804358072869543 -0.1696293214307161 0.1358864228000985
2.2982140646271354 2.486193968205488 2.1861172579732946
-0.1501053557315889 -0.16238305898444014 0.09569286460101925
0.13560598497411852 0.1502098226575543 0.09522618346014519
-0.16266715259464562 -0.1859768627448622 0.15953684210967997
1.9198119340508908 2.2838921659182945 1.4616482861252285
