0.096 0.0 0.545
-0.096 -3.2930390389303353e-16 0.548
0.09119485305031956 0.0 0.5757816415770223
-0.09088627015988836 -3.1176253722841826e-16 0.5738333258851596
-0.18654800817209138 -6.399061182764501e-16 0.5741357336440795
0.18410775061994109 0.0 0.566625393149359
-0.283931044813985 -9.739541822257616e-16 0.5572460513909799
0.2920087222186836 0.0 0.573099385925523
-0.41006057838366816 -1.4066098884830956e-15 0.5643999663852325
0.4205425826420247 0.0 0.5788272075367363
-0.5157252175335237 -1.7690659111445136e-15 0.5157252175335229
0.49330365901744583 0.0 0.49330365901744494
-0.5235633970762943 -1.7959528186741893e-15 0.3803910740828846
0.5027713553055394 0.0 0.3652847714923673
0.509755415124918 0.0 0.2597333570237421
-0.5282105815159897 -1.8118938184460916e-15 0.2691367339746474
0.51600579001991 0.0 0.16766044454768914
-0.5328633102748698 -1.8278538366133275e-15 0.17313778490817072
0.5242197156919726 0.0 0.0830282462769598
-0.5387973428858449 -1.8482090460364803e-15 0.085337115601321
0.5278039408719871 0.0 -9.052494698920479e-16
-0.5366563145999496 -1.8408647859022017e-15 -9.204323929511009e-16
0.531992815873243 0.0 -0.08425938439875873
-0.5358807744334727 -1.838204490022548e-15 -0.0848751765393257
0.5366116743946466 0.0 -0.1743557022393411
-0.5338003272071716 -1.8310680380072943e-15 -0.17344224016518148
0.4755346144331869 0.0 -0.24229698816923073
-0.5009739151780874 -1.718465271007517e-15 -0.25525895931610015
-0.3603905113767273 -1.2362291908579479e-15 -0.2618390332047936
0.34224383216746196 0.0 -0.24865469901719164
0.2559462834268153 0.0 -0.25594628342681663
-0.26618790355686645 -9.130907896914419e-16 -0.26618790355686783
0.1907505782696444 0.0 -0.2625456472497617
-0.1969361308425283 -6.755399656670189e-16 -0.2710593299792032
0.13739120726741103 0.0 -0.2696454267470585
-0.13954577987779976 -4.786767717245561e-16 -0.27387401358708113
0.08913412945669039 0.0 -0.27432664282930663
-0.09000885839803432 -3.087527964107079e-16 -0.2770187816915716
0.044091491747255136 0.0 -0.27838272280352044
-0.04394444325575574 -1.5074038248464849e-16 -0.27745429516758546
0.030825772349524803 0.0 -0.2792163529578009
-0.02238579946257259 -7.678886619574714e-17 -0.20276803491285672
0.030344420632829733 0.0048060840789030555 -0.2782824422996974
-0.030242630841777553 -0.0047899621598166174 -0.2773489490556535
0.04325824039405541 0.006851432194236723 -0.2765262781633924
-0.04325824039405538 -0.006851432194236882 -0.2765262781633924
0.08145057015736341 0.0129005029684884 -0.25380382511735405
-0.08230556987256506 -0.01303592161985856 -0.2564680446283186
0.09745996094741072 0.01543614136870683 -0.19366022191398646
-0.08676301034263095 -0.013741910833989903 -0.17240458208213377
0.10782743558982827 0.017078188037524956 -0.150261703795333
-0.10144163472382833 -0.01606677654134 -0.14136284319483688
-0.12261863348895807 -0.01942088363850856 -0.12414709017935169
0.15619846905866513 0.02473940710140611 -0.1581455026233757
-0.35595350614791266 -0.056377496852794945 -0.2618390332047936
0.3341404227695248 0.05292264385015521 -0.24579335149534223
-0.4939390035222674 -0.07823225262733545 -0.25481164700280556
0.4653522525637276 0.07370455607606835 -0.24006440687343555
-0.5189008271365602 -0.0821858170899651 -0.17070273303684508
0.5226014507081924 0.0827719382832079 -0.1719201266592528
0.5187251691495743 0.08215799559800586 -0.08318210534762614
-0.5196846969987413 -0.08230996987937393 -0.08333597400752606
0.5145088416450454 0.0814901949259761 -8.93446528844992e-16
-0.5213057985194268 -0.08256672713643697 -9.052494698920479e-16
0.5081743840259216 0.08048691540121168 0.08149019492597524
-0.5225636360439952 -0.08276594902878495 0.08379763699438933
0.5004103999058173 0.07925722112166037 0.16461993975874312
-0.5161258977605224 -0.08174631145380125 0.1697898649053971
-0.511289237160387 -0.08098025967160903 0.26376222911453456
0.4878706614818151 0.07727112166955868 0.25168113044331414
0.47291194388462365 0.07490189355495472 0.3478735397714935
-0.5044775689775259 -0.07990139741879011 0.37109318114059986
0.4575033803898551 0.07246141684963073 0.4632062175748504
-0.4969166936886341 -0.07870387241779533 0.5031108227816209
-0.407312280726556 -0.0645119276201876 0.5676054238324886
0.43378173298040146 0.06870427700110843 0.6044916297636177
-0.28176471928827335 -0.044627147367674376 0.5598875428889486
0.2963968735230625 0.04694465292689269 0.5889627262631543
-0.17762527383156823 -0.028133079583306148 0.553488745982626
0.1857580939647421 0.02942119174835834 0.5788309977901083
-0.0899196976065036 -0.014241880979557978 0.574807460640969
0.09098661559649793 0.014410864188275068 0.5816276839831838
0.09130142556433472 0.029665631459994988 0.548
-0.09130142556433464 -0.029665631459995307 0.548
-0.0864379794773235 -0.028085402034758507 0.5738333258851596
0.08746527917684753 0.028419191941067682 0.5806532308253636
-0.17045772316481722 -0.05538507163126598 0.551612779451189
0.17654729618606638 0.0573636938475177 0.5713190517018994
-0.27003447034883143 -0.0877395180781572 0.5572460513909799
0.28027867117410465 0.09106806069845284 0.5783860949275154
-0.3899907851475467 -0.12671568744377518 0.5643999663852325
0.40328378655730795 0.1310348454238569 0.5836377787504384
-0.48115235954153646 -0.1563358785039842 0.5059135301610341
0.4605019187425863 0.14962614355251186 0.4842003717470688
0.46980375473586844 0.1526484932778574 0.358898132533564
-0.4872882844414772 -0.1583295613585809 0.37225512467403504
-0.49399789247699033 -0.16050964516332175 0.2646577715424893
0.4789595663312102 0.15562339680018158 0.25660103699749964
-0.49787421162109385 -0.16176913760212566 0.17009413723623446
0.48541019662496865 0.15771933363574037 0.16583592135001188
0.4930205066651639 0.16019207326223883 0.08210529624555654
-0.5041067311962829 -0.16379420596926172 0.08395154348490416
-0.5029065996281735 -0.16340425958471214 -9.069360392102177e-16
0.49916606929680996 0.16218888760569358 -9.00190409374019e-16
-0.50318256357979 -0.16349392570804258 -0.08379763699439115
0.5022584522845341 0.16319366374670075 -0.08364373988334782
-0.5005463723362557 -0.16263737524998156 -0.17100705632461852
0.5076742795908656 0.16495337270992383 -0.17344224016518148
-0.48062982283860256 -0.1561660960371964 -0.25749587151376757
0.4489264033474365 0.14586503060658043 -0.24051086716336995
0.3239947201534211 0.10527226605331523 -0.24750994184619404
-0.34500612812602727 -0.11209928634920142 -0.2635612292342845
-0.25446049846619023 -0.08267922786490955 -0.26755560169804027
0.2188845776505838 0.07111991048029578 -0.2301488648679378
-0.09033963692643399 -0.029353127387928363 -0.13074075077246627
0.09078993611628951 0.0294994384639098 -0.13139242988206767
0.06369165528235071 0.0206946732869124 -0.13143478818388288
-0.06873837138078284 -0.022334450748588957 -0.1418492460666479
0.04268733487474865 0.013869955880495699 -0.13813911743298554
-0.04335289811881213 -0.014086210487580755 -0.1402929253341004
0.03708006677316577 0.012048044032232919 -0.24616237178556546
-0.02344894480161869 -0.007619024021924232 -0.15566983478067925
0.0272676564950996 0.008859798665371009 -0.25969786074758944
-0.02707363809865807 -0.008796758266935736 -0.25785002455709793
0.013910390054608052 0.00708769774521701 -0.14141168830475473
-0.014571932739269239 -0.007424770578978813 -0.14813686765316642
0.0198303010704475 0.010104043066529629 -0.140519277941374
-0.021419853466783177 -0.010913960465767602 -0.15178298766466944
0.041457982569054634 0.02112389720362979 -0.1432027117349195
-0.04209762901465455 -0.021449813346341773 -0.14541215609003127
0.05997784864153271 0.030560240288785807 -0.13211256331562515
-0.061219925530987956 -0.0311931100741924 -0.13484847274581793
0.08295970686045227 0.042270081927998054 -0.1281519692062052
-0.08632972794958037 -0.04398719343824211 -0.13335780774134717
0.22622794265329602 0.11526889416862067 -0.25390155572583706
-0.23900326186641593 -0.12177824443312142 -0.2682396316728764
-0.32322233829252034 -0.16469000720513832 -0.2635612292342845
0.30002943877995253 0.15287263465591677 -0.24464932748475993
-0.4479355791235486 -0.2282345772974756 -0.25615365443634386
0.41511703336726496 0.21151269301924977 -0.23738624496820715
-0.4839708477049715 -0.24659546371907773 -0.17648766485197853
0.4931620837353576 0.25127863238886755 -0.1798393952130083
-0.4852706525126496 -0.24725774734796493 -0.08626123223300979
0.48787066148181446 0.24858251808666615 -0.08672340726118363
-0.48430200429202164 -0.24676419642794747 -9.322470825308287e-16
0.48342503053102226 0.24631735597817742 -9.305589701073757e-16
-0.4852706525126499 -0.24725774734796507 0.08626123223300793
0.47574106530973936 0.24240218014490367 0.08456726221743274
-0.4789595663312094 -0.2440420883245685 0.17466022141862594
0.4672727188020323 0.23808734208408966 0.17039842664382363
-0.47455658046096927 -0.2417986549699167 0.27137697469743266
0.453412784028788 0.23102535258878887 0.259285814769126
0.4401402055353161 0.2242626360659525 0.358898132533564
-0.4664984026212024 -0.23769280828400344 0.3803910740828846
-0.4620128733309316 -0.2354073169561578 0.5185291698641451
0.42518846271508964 0.21664434258475154 0.4772001676445636
-0.36536665065230317 -0.18616360690389053 0.5643999663852325
0.39339776625559764 0.2004461736814879 0.6077010193849909
-0.2537838729258344 -0.129309341926974 0.5590070124186072
0.2697850309435939 0.13746233915840328 0.5942525914052577
-0.16023807444087954 -0.08164537690561166 0.553488745982626
0.1683905160586202 0.08579925338536741 0.5816486243601243
-0.08111773109740625 -0.041331548399374515 0.574807460640969
0.08043043980700444 0.04098135599569859 0.5699372534000613
-0.07766563145999471 -0.05642738422007775 0.548
0.07766563145999492 0.056427384220077474 0.55
-0.07352853711470213 -0.053421609235852166 0.5738333258851596
0.07277973442807947 0.05287757223893573 0.5679895004405402
0.1511673327805979 0.10982949611024341 0.575074707567782
-0.1445069202495158 -0.10499042315235323 0.5497369926121853
0.23987236607471404 0.17427747524655038 0.5819111698665067
-0.22825341884989045 -0.16583581595706737 0.5537245334362476
-0.3289201840503522 -0.23897450203193363 0.5595924408914686
0.34446762867291153 0.2502703817520294 0.5860433335634445
0.4246036888691299 0.30849263751137984 0.5248390229394148
-0.4461682881890874 -0.32416023601672683 0.5514943336064293
-0.4527197946049555 -0.32892018405035506 0.40656770665797765
0.4358736671707352 0.3166807560371937 0.3914389416279971
0.44512403275448337 0.32340154003338384 0.28034271770178243
-0.4579458286278814 -0.3327171200208138 0.288417988494786
-0.461447306058221 -0.3352610922848064 0.18532777377287288
0.4530948362420176 0.32919266774945094 0.18197323119299483
-0.4658171330849147 -0.3384359574597266 0.0911948530503186
0.4603010218436228 0.33442826805371706 0.09011494224770923
-0.46683645516175376 -0.3391765382982849 -9.89698173274603e-16
0.466836455161755 0.33917653829828326 -9.89698173274603e-16
-0.4673935022764598 -0.3395812567172216 -0.09150346504967749
0.47212348707548596 0.3430177918305304 -0.09242947278541849
-0.46600488939313434 -0.33857237040254945 -0.18715820329788202
0.4781639736698783 0.3474064622312027 -0.1920415691568674
-0.41097962748780564 -0.2985941775136945 -0.25883829497372474
0.37762698852827364 0.27436206688838377 -0.23783253307275096
-0.29475853935752255 -0.21415461433598404 -0.26470966101452714
0.27369491915363603 0.19885099846410587 -0.24579335149534223
0.20596196729970048 0.14964012839488208 -0.25458299236202003
-0.21811749333286215 -0.1584716350082515 -0.269608048841277
-0.16023608934409117 -0.11641833342974989 -0.27260991785544425
0.14933177363436115 0.10849588432783319 -0.25405838790942803
0.05587095396374864 0.04059262413489314 -0.1355384645369128
-0.05587095396374849 -0.04059262413489333 -0.1355384645369128
-0.0370683490325637 -0.026931732015104147 -0.14101637958289331
0.036688724425904665 0.02665591859368885 -0.13957220175925672
0.018477488545630645 0.013424681239132609 -0.1442024977268902
-0.019056142966492058 -0.013845098284906841 -0.1487184476409093
0.012894676097360232 0.009368530569586416 -0.14437090414384365
-0.0130284481856062 -0.009465721680757272 -0.14586863833921745
0.011039348051377232 0.011039348051377249 -0.14141168830475473
-0.011387281261622141 -0.01138728126162224 -0.14586863833921745
0.015737416033689836 0.015737416033689864 -0.140519277941374
-0.022176206264063095 -0.022176206264063286 -0.19801119097532704
0.03173786567206297 0.03173786567206303 -0.13813911743298554
-0.03340886754477295 -0.03340886754477324 -0.14541215609003127
0.04735449532545897 0.04735449532545905 -0.13143478818388288
-0.05291667772240782 -0.05291667772240828 -0.14687290573024558
0.13408720224676066 0.13408720224676088 -0.26100046817443184
-0.14005147747676147 -0.14005147747676266 -0.27260991785544425
-0.18967406253887092 -0.18967406253887253 -0.2682396316728764
0.17905376287584626 0.1790537628758466 -0.25322025985295954
-0.25706952600079347 -0.2570695260007957 -0.26413541527681145
0.2369915830043333 0.23699158300433368 -0.2435056039810999
-0.358588340326293 -0.35858834032629605 -0.25839079775422946
0.32572351858314225 0.3257235185831428 -0.23470913677067268
-0.3960194080655502 -0.3960194080655536 -0.18197323119299683
0.43188909982106377 0.4318890998210645 -0.19845556407292203
-0.3933685041681608 -0.3933685041681642 -0.08811038450151483
0.44161985590889385 0.4416198559088946 -0.09891817696467617
-0.39130614613113185 -0.39130614613113524 -9.491335338149239e-16
0.45131862359091673 0.45131862359091757 -1.0946969382427823e-15
-0.3864885181369362 -0.3864885181369395 0.08656934039616912
0.44369088619688907 0.4436908861968898 0.09938206584509009
-0.38540736586419105 -0.3854073658641944 0.17709693581552635
0.43521410291836177 0.43521410291836254 0.19998342241778605
-0.38656336278674985 -0.3865633627867532 0.27854897792308725
0.4202000371203365 0.42020003712033727 0.30278681874899244
-0.38379820784238045 -0.3837982078423837 0.3943473992737259
0.40759204335598564 0.4075920433559863 0.41879523921098255
0.3909577982340293 0.39095779823403 0.5528978205780879
-0.3805394197714594 -0.3805394197714627 0.5381640084583876
-0.28789839262097555 -0.287898392620978 0.5603936393754981
0.3122022349683316 0.31220223496833216 0.6077010193849909
-0.20013516084197874 -0.20013516084198046 0.5554852246365423
0.21442029457236142 0.21442029457236175 0.5951343331979791
-0.12651915815088824 -0.12651915815088932 0.5506748634553614
0.13385127382075074 0.133851273820751 0.5825879100986602
-0.0644844990011914 -0.06448449900119195 0.5757816415770223
0.06404811768591584 0.06404811768591596 0.571885195858209
0.056427384220077335 0.07766563145999501 0.552
-0.05642738422007709 -0.0776656314599952 0.547
-0.05342160923585154 -0.07352853711470257 0.5738333258851596
0.054963876922645406 0.07565128647533208 0.590399741775231
-0.10481131442743413 -0.1442603982387411 0.548799167153152
0.11018817491254439 0.15166101179934177 0.5769527741587195
0.17401352936825143 0.2395090757398414 0.5810298565780002
-0.16478131505269936 -0.22680202287000184 0.550203562903384
-0.23726388418391864 -0.32656572057151495 0.5555867883684487
0.2506128300670843 0.34493896834245014 0.5868452245052465
-0.2673331073881184 -0.36795245575238816 0.4548142477979331
0.3068441694842344 0.4223347672800936 0.5220344816197484
-0.2697117303806583 -0.3712263494349372 0.33338203307959013
0.31103510565900366 0.4281030960608948 0.3844605339833578
-0.2707589371816169 -0.372667705942771 0.23470913677067115
0.3151265862626503 0.43373453599171247 0.2731695204785893
-0.2709018503074485 -0.37286440898536366 0.14975085980386318
0.31816711410829346 0.4379194635471449 0.17587845503807747
-0.27223769850077956 -0.3747030462871586 0.07335708976044653
0.3206983479608281 0.4414034080582582 0.08641528203825125
-0.27448060871546587 -0.37779014735589295 -8.009190683056583e-16
0.31833062251757643 0.43814451356552697 -9.288709566519212e-16
-0.2762167215657577 -0.3801797016949324 -0.07442927613927791
0.31269753149583684 0.4303912289268362 -0.08425938439875873
-0.27748029209296826 -0.38191885732382524 -0.1533873329856954
0.3071527510864905 0.42275949341842906 -0.16978986490539896
-0.2789970708511121 -0.3840065241838891 -0.24185041625084652
0.2702443425122771 0.3719594271435183 -0.23426305705162473
-0.21508390708896058 -0.29603760110154964 -0.2658583300282072
0.1979254635975713 0.27242102969657317 -0.24464932748475993
0.14883913432323645 0.2048594935410836 -0.25322025985295954
-0.1588739066444743 -0.21867117274008138 -0.27029243422634014
0.1117903946564896 0.1538662780875299 -0.2617729476665556
-0.11674954865634268 -0.1606919679937611 -0.27338550493914693
0.08025057040760622 0.11045543421652841 -0.2679560467712793
-0.0827838296980774 -0.11394216650379935 -0.276414580355198
0.027209599677611697 0.037450801059523094 -0.14247131355253287
-0.02693173201510383 -0.03706834903256393 -0.14101637958289331
0.013149796098399136 0.01809914160771899 -0.14124979269235852
-0.013987265030356489 -0.01925181870462152 -0.15024554533674184
0.009081711987234413 0.012499904186155807 -0.1399509732110422
-0.009368530569586354 -0.012894676097360277 -0.14437090414384365
0.007311084617182814 0.01434881147632014 -0.14586863833921745
-0.007424770578978682 -0.014571932739269305 -0.14813686765316642
0.010368885100174799 0.020350082827978955 -0.1442024977268902
-0.010693604619702684 -0.020987380768347167 -0.1487184476409093
-0.040995644806226805 -0.0804584831766594 -0.2779168753275571
0.020271896308101174 0.03978583666079056 -0.13742684388893783
0.061983515955252796 0.12164949958192563 -0.2679560467712793
-0.06394014152005767 -0.12548959347075286 -0.276414580355198
0.08583455920195202 0.16845980762515533 -0.26022821073339125
-0.09017440592824832 -0.17697723640246835 -0.27338550493914693
0.11465035488343456 0.2250139909541231 -0.25253910588263423
-0.12208884173872646 -0.23961284340138334 -0.26892378102354647
-0.16576648397308344 -0.3253350429062289 -0.26528396605977467
0.15180069789370085 0.29792564442919184 -0.24293385624576122
-0.1881034103494095 -0.36917372927310205 -0.2111133928236483
0.20634572785293598 0.4049762932502802 -0.23158722439311116
0.2100842517325883 0.4123135594915677 -0.1503566953392892
-0.18728346295450665 -0.36756449190190416 -0.1340382363233081
-0.18619826276072396 -0.36543466660101 -0.06495930565436445
0.21290366765226518 0.41784697479491406 -0.07427606582845027
-0.18542886140823223 -0.3639246314236598 -7.005291592831045e-16
0.21511294409834084 0.42218292395754725 -8.126722492695677e-16
0.2168574644967109 0.4256067380184564 0.07565543368025104
-0.18314592442274272 -0.35944411531253173 0.06389443116994177
-0.18223431449490263 -0.35765498009123 0.13042457527826126
0.21474241184855378 0.4214557134714867 0.15369052715019976
-0.18177560507157198 -0.35675471215802707 0.20401153093368823
0.2095248590680274 0.411215689571398 0.2351552467686887
-0.18122951202389154 -0.3556829442056661 0.29003018320990515
0.20361431169213923 0.39961558719819396 0.32585363975622406
-0.17891402145211155 -0.35113853808409246 0.3940919943363475
0.19759802859051204 0.3878079667788472 0.43524705627953375
-0.17586133452114036 -0.3451473026433501 0.5331661378017768
0.19039347894886746 0.3736682419647222 0.5772238457658702
-0.12727293050777405 -0.2497871904809875 0.550203562903384
0.1370544298775774 0.26898446390375325 0.5924891909810193
-0.08441402417313876 -0.16567185065417 0.5722579055143924
0.0857992533853671 0.16839051605862035 0.5816486243601243
-0.04119146135685942 -0.08084279479608279 0.5728592375451799
0.04266301927237884 0.0837308898205397 0.5933245358793324
0.029665631459994818 0.09130142556433479 0.559
-0.02966563145999448 -0.0913014255643349 0.546
-0.02799005376452875 -0.08614452767574188 0.571885195858209
0.028896220140921466 0.08893342101430644 0.590399741775231
-0.05717517348322244 -0.17596709016445586 0.5694414655750122
0.057929351739149405 0.17828821216681567 0.5769527741587195
-0.0889873826575747 -0.27387500262153713 0.5651714152952247
0.09120681120708583 0.28070570133030087 0.5792673189729408
-0.10821582064714005 -0.33305404966761865 0.48200034871529446
0.12221959217503978 0.3761532267573953 0.5443740637544799
-0.10974781081415981 -0.3377690305837698 0.3551513761764127
0.1260882114473957 0.3880596126035241 0.40803002340514083
-0.11063453348751298 -0.34049808235758894 0.26011738871287504
0.1292478239662079 0.39778390003652525 0.3038798592729234
-0.11165619602396244 -0.34364243632656827 0.18410532269600172
0.13127068232064204 0.40400961789200474 0.2164468447767938
0.1329291650141026 0.40911390277435833 0.1397699955118639
-0.11205636774005205 -0.3448740382292204 0.11782303766401761
0.1332810875989646 0.4101970091201483 0.06831226388667119
-0.1125369372945854 -0.3463530792356754 0.057679998685164505
0.13283310361197623 0.408818256178476 -7.372581912614919e-16
-0.11364139356708214 -0.3497522461230686 -6.307392208379403e-16
0.13119770768261477 0.4037850250499168 -0.06724444247865631
-0.11430604764564753 -0.3517978410385857 -0.058586743485373585
0.1297718158382987 0.3993965811948727 -0.13645016212477792
-0.11461812419703035 -0.352758313903115 -0.12051662780623028
-0.11486897801403713 -0.35353036256595444 -0.18940274716591507
0.1277666580435423 0.39322534006051235 -0.2106692028434127
0.10356911943238614 0.3187529738367941 -0.2435056039810999
-0.1130763016728065 -0.3480130721030653 -0.2658583300282072
0.07803887546198747 0.2401789622690299 -0.25253910588263423
-0.08352495562691004 -0.2570633808762391 -0.27029243422634014
0.05842487345726967 0.1798132712009872 -0.26022821073339125
-0.06137887005450533 -0.18890473789717355 -0.27338550493914693
0.04205729456272851 0.1294390430938405 -0.26711180823208625
-0.04365546112357009 -0.1343576940078083 -0.2772619894161344
0.027543960780933803 0.08477159464408124 -0.27432664282930663
-0.027994649612325735 -0.08615867224084602 -0.27881532022250427
0.0069132569269512 0.021276817032340602 -0.14124979269235852
-0.007241622944646338 -0.02228742371916901 -0.14795887820975728
0.00484945236383353 0.014925079704486149 -0.14214684241159084
-0.004950825981001179 -0.01523707561714712 -0.1451182994964563
0.002598005289252437 0.016403159830151504 -0.150430006036374
-0.004613118433461703 -0.02912608349664516 -0.2671093229343845
0.006257544500155919 0.0395085810660063 -0.25255675631227803
-0.006920442449088498 -0.04369395399515543 -0.27931155697639526
0.013898074161688406 0.0877489867894271 -0.2734299889405425
-0.014217487633641987 -0.08976568408178379 -0.2797141129916698
0.021290772014877904 0.1344246440575377 -0.26711180823208625
-0.022032271245819083 -0.13910628595002625 -0.276414580355198
-0.031071982695229598 -0.19618077780596913 -0.27338550493914693
0.027043268518642714 0.170744477571346 -0.23793903632383812
0.03939928635208763 0.2487573038826114 -0.2518580949661939
-0.042175990891024015 -0.26628872637113254 -0.269608048841277
-0.05341548216549045 -0.33725208142947427 -0.24808228440683838
0.05206079530891885 0.3286989252368769 -0.24179059150414614
0.060051108717862 0.37914777862532056 -0.1955935231679221
-0.05341468253073292 -0.3372470327343128 -0.17397790262571391
0.06091183528347703 0.3845821922826936 -0.12651595038348273
-0.053421874981165914 -0.3372924440791283 -0.11095904848467655
0.06160705433359315 0.3889716326133952 -0.06237499401529109
-0.05324986908331957 -0.3362064415810679 -0.05391363539964027
0.06191959899339448 0.3909449619326194 -6.78877389339612e-16
-0.052862814393595525 -0.3337626744475605 -5.7958013314165445e-16
0.06220708587331871 0.3927600826561903 0.06298250502363471
-0.05236014628152939 -0.33058895289362406 0.053012822091208105
0.061924728031451166 0.39097734540441875 0.1286197630177599
-0.051989775139908434 -0.3282505215372227 0.10798452848182978
0.06018699653513704 0.38000574053746666 0.19603612576933616
-0.05179710026348976 -0.32703402024439443 0.16870924695191733
-0.05132272008130681 -0.32403890165060495 0.2383626829445528
0.05835647880603513 0.36844830645270993 0.2710301954644365
-0.050680903946458744 -0.31998663405706496 0.3239753077010651
0.05664407518554596 0.3576366155001113 0.3620946008987151
-0.04970738955815633 -0.3138401061133624 0.4373483316740412
0.05405651536678968 0.3412994057751264 0.47561392826950066
-0.04518871924102517 -0.2853103445542574 0.5669329651234675
0.048069204634526845 0.3034970135704714 0.6030712348633528
-0.028943934606320366 -0.1827448109613167 0.5694414655750122
0.030424064046213495 0.19208998045435283 0.5985614552708504
-0.014145344192939025 -0.08931018832377156 0.5709112010630337
0.01467651786280432 0.092663886886437 0.5923495622438835
-1.6465195194651677e-16 0.096 0.557
4.939558558395502e-16 -0.096 0.546
4.636750356447847e-16 -0.09011494224771019 0.5689633531113335
-1.5985189894785729e-16 0.09320133844498246 0.5884500917767486
9.488724064958143e-16 -0.18441273637453778 0.5675640427853542
-3.293752001723962e-16 0.19204156915686638 0.5910431758473897
1.4794001897854102e-15 -0.2875204667388982 0.564290688569505
-5.139238978394602e-16 0.29964232800965535 0.5880811808457691
1.5368377019676831e-15 -0.2986834099539884 0.4111024454053488
-5.797419359904858e-16 0.33801740700386534 0.46524104780466585
1.56396079957899e-15 -0.30395476637157737 0.3039547663715768
-6.055579749892103e-16 0.3530693982774495 0.3530693982774489
1.5831379383560077e-15 -0.307681830846731 0.22354393520470126
-6.194696287681537e-16 0.3611805609268444 0.2624130378021832
-6.330919768876811e-16 0.36912304447480393 0.1880775851547759
1.5976456334077407e-15 -0.3105013919643924 0.15820836130930238
-6.409044317437228e-16 0.37367808106752903 0.12141536858935625
1.61146169917909e-15 -0.31318653538028574 0.10176047393999829
-6.442579468416636e-16 0.3756333415159864 0.05949447656324433
1.6249850757615264e-15 -0.3158147948422722 0.05002014952730105
-6.406787821552944e-16 0.37354651651434256 -6.406787821552944e-16
1.6403334505581352e-15 -0.31879774152274043 -5.467778168527117e-16
-6.344282234318201e-16 0.36990214042065106 -0.058586743485373585
1.6492405728072318e-15 -0.3205288349510387 -0.05076678013159656
-6.282585861010392e-16 0.366304945387413 -0.11901969158389043
1.6489490551738268e-15 -0.32047217868818434 -0.10412772295046328
-6.212057141761245e-16 0.36219278214375006 -0.18454644012543298
1.6461831390676389e-15 -0.3199346246880546 -0.16301483345301326
1.639594464671223e-15 -0.3186541200952285 -0.2315157699733124
-5.748354859366704e-16 0.33515671085299753 -0.2435056039810999
-4.343042714291017e-16 0.2532202598529582 -0.25322025985295954
1.39427754663427e-15 -0.2709769362879425 -0.2709769362879439
-3.242732071939981e-16 0.18906686208454868 -0.26022821073339125
1.0249060891969805e-15 -0.19918983326086953 -0.2741612852419302
-2.3342889743241235e-16 0.13610026415472237 -0.26711180823208625
7.268974095644377e-16 -0.14127203978497438 -0.2772619894161344
-1.4540339525159033e-16 0.0847771664965553 -0.26091728965481636
4.676353389526136e-16 -0.09088462462530926 -0.2797141129916698
-7.035107857345799e-17 0.04101805938654007 -0.258977834580804
2.2913902607319984e-16 -0.044533021003748355 -0.2811704288154779
-4.9174181445410817e-17 0.028670910748102466 -0.25969786074758944
1.5914085902851578e-16 -0.030928922668142338 -0.280150676855488
-0.004421328629927679 0.027915170334081665 -0.2560042873046571
0.004136206170480946 -0.026114977973881317 -0.23949509331913038
-0.006212208425874164 0.03922234035833958 -0.2507269759784297
0.005918924710921926 -0.0373706198588294 -0.23888993930601873
-0.007695927242590575 0.04859017228473456 -0.15140927270552676
0.007204579497269614 -0.045487924713481016 -0.14174252269353826
-0.010422497754635544 0.06580506098502659 -0.13075957131052224
0.010913960465768105 -0.06890803442184423 -0.13692541129779226
-0.014058711378409066 0.0887632102598084 -0.12369496812219827
0.01508230172988766 -0.09522590539186053 -0.13270098385780363
-0.018777349562963366 0.11855551924474123 -0.12003332870498958
0.041213282549356724 -0.26021042512072134 -0.2634539808012025
0.04788716554838031 -0.302347664014569 -0.22240663083792125
-0.04776475923017938 0.30157482093763005 -0.22183812826500188
-0.0549003633760631 0.34662725242182435 -0.17881693985658384
0.04803740088379361 -0.3032962125910923 -0.1564634639276169
-0.05557551011487579 0.35088996116663085 -0.11543222179249456
0.048139977800710235 -0.3039438577556453 -0.09998836867337721
-0.05607530379867553 0.3540455342947464 -0.05677428951412651
0.04793275947142267 -0.3026355327152376 -0.04853024734759881
-0.05647262521087426 0.35655412296282896 -6.191575687756264e-16
0.047638597000419156 -0.3007782639683787 -5.223025809145659e-16
-0.05667156001111826 0.3578101478591911 0.05737797813525795
0.04734544761534225 -0.29892739159432336 0.04793561457535451
-0.05615084210960058 0.3545224644197654 0.11662720588318548
0.04686295001669902 -0.29588102165006275 0.09733593859950972
-0.0544949164811986 0.3440673614752533 0.1774963516390254
0.04656681692182578 -0.2940113108737615 0.15167359902125863
-0.052799473872236186 0.33336275813487243 0.24522130218952362
0.0460534275312015 -0.2907698978310895 0.21389003793521139
0.045287710083992426 -0.28593534813896027 0.2894995682207486
-0.051005432737291835 0.3220356282017283 0.3260498428154809
0.044288922967442045 -0.27962925446900266 0.389674186144648
-0.04853150454085385 0.30641586030427087 0.42700235786350726
0.043083715219828095 -0.2720198722270073 0.540523803912889
-0.04568022824736172 0.2884136102874781 0.573099385925523
0.02884850776135704 -0.18214230957437563 0.5675640427853542
-0.030232977521156213 0.1908835076173342 0.5948020289053395
0.014097082782652379 -0.08900547777146746 0.5689633531113335
-0.014604054019698892 0.09220636818726886 0.5894248953614902
0.029665631459995505 -0.09130142556433457 0.543
-0.029665631459995147 0.09130142556433468 0.556
0.027799384859335998 -0.08555770912517564 0.5679895004405402
-0.02880079747799091 0.08863974025553054 0.5884500917767486
0.056798182117892976 -0.1748068300457175 0.5656867849591949
-0.059249765043503586 0.18235202645589146 0.5901035534461044
-0.09273337269835513 0.28540397450046257 0.5889627262631543
0.08455252086139206 -0.26022590148176816 0.5370049826714692
0.08641963014661364 -0.26597227299100157 0.3849186894986039
-0.09801207484000689 0.30165014917947586 0.4365521969771276
0.08797410451775761 -0.2707564531720321 0.2846901824791292
-0.10267923764094454 0.3160141992972383 0.3322769928839489
-0.10527226605331606 0.3239947201534218 0.2475099418461928
0.08928605714220059 -0.27479422816583404 0.2099241104941098
-0.10764798726037073 0.33130643820129196 0.1774963516390254
0.09040590530380054 -0.27824076641692613 0.14906658978430357
-0.10921462821424398 0.33612806327369216 0.11483505590150304
0.09089410490651338 -0.2797432902970509 0.0955717177151467
-0.11018128340996962 0.33910312205570187 0.05647262521087304
0.09178780175705521 -0.2824938063811888 0.04704517833822045
-0.10947098761070795 0.3369170563677895 -6.075923856845138e-16
0.0923464599141352 -0.28421317939414253 -5.12546813666087e-16
-0.10900487657270459 0.335482514099631 -0.05586966633836614
0.0929455951048247 -0.28605712790706994 -0.04763859700041792
-0.10836311733053955 0.3335073822451895 -0.11393972437376151
0.09285193231193303 -0.2857688634713414 -0.09763029927352504
-0.10684745907759886 0.32884266579213023 -0.17617639354745065
0.0930424393136423 -0.2863551837342186 -0.15341386259106168
-0.10405557409384711 0.3202501273399506 -0.24464932748475993
0.09266202026720706 -0.285184374297777 -0.21786147584275936
-0.07803887546198833 0.24017896226902963 -0.25253910588263423
0.08352495562691291 -0.25706338087623815 -0.27029243422634014
-0.028340397597263103 0.08722277512209713 -0.12622998599393534
0.029499438463910312 -0.09078993611628935 -0.13139242988206767
0.022000170876154867 -0.06770956372058291 -0.13972618746029075
-0.021668908924321093 0.06669004426493247 -0.1376222960932233
0.014674654947066715 -0.04516394394431369 -0.14615359273579087
-0.013941759410628802 0.04290832341735011 -0.13885425137909257
-0.006985219417869206 0.021498294805932808 -0.14272011081176128
0.007241622944646588 -0.022287423719168926 -0.14795887820975728
-0.004874639579339699 0.015002597982996581 -0.1428851284869497
0.005002121669278094 -0.015394947512484472 -0.14662187548211755
-0.00723601665493205 0.014201482304979803 -0.14437090414384365
0.007386733680089289 -0.014497281121911745 -0.1473779664862143
-0.010530341149913313 0.020666958167372948 -0.14644790457829873
0.010913960465767647 -0.021419853466783156 -0.15178298766466944
-0.02080139035251741 0.040825027234963944 -0.14101637958289331
0.020694673286912553 -0.04061558320089078 -0.1402929253341004
0.03264834485669406 -0.06407598460310186 -0.14113948340298482
-0.030560240288785907 0.05997784864153266 -0.13211256331562515
0.0901744059282503 -0.17697723640246735 -0.27338550493914693
-0.04100800296297616 0.08048273742492293 -0.12432567180425548
-0.11495959231482288 0.2256209035856594 -0.25322025985295954
0.12239949282725629 -0.24022253049127196 -0.269608048841277
-0.15358749443667116 0.3014324300956231 -0.24579335149534223
0.13719841691177845 -0.2692670543697279 -0.21956513345235812
0.13785670949018108 -0.270559026299797 -0.15472020209476703
-0.15775831390311526 0.3096181241970316 -0.177056294898424
-0.16003495291886777 0.3140862798465904 -0.11453655598272995
0.13764749950441635 -0.2701484285838785 -0.09851391989887927
-0.1614399731328147 0.3168437872789297 -0.05632183890481948
0.1369760849788963 -0.2688307033825441 -0.04778708049986712
-0.16214008680704306 0.3182178377310181 -6.125468162529699e-16
0.13653042517588768 -0.26795604677127804 -5.157964258566124e-16
-0.16273686996059578 0.31938909061768916 0.05677428951412528
0.13527452604552068 -0.2654912059441651 0.04719345473127286
-0.16128641219723439 0.3165424069735246 0.11543222179249327
0.13394705017037542 -0.26288588784580036 0.09586551894284129
-0.15619057338927003 0.306541260194653 0.17529677858593168
0.13281930403632758 -0.2606725614355753 0.14906658978430357
0.13117408569632813 -0.2574436386376427 0.2099241104941098
-0.15144348108095068 0.29722456695974275 0.2423621852386983
0.12862320839639024 -0.25243726005052997 0.28331696031123843
-0.14582638446020704 0.28620039412143383 0.3212102115437799
0.12591763337441284 -0.24712727008896493 0.381749737372225
-0.13874527279426194 0.272302929975195 0.42063982645984666
0.12218552035542149 -0.2398025858701601 0.5282105815159891
-0.1297167176946992 0.2545833928872612 0.5607681064544632
0.08386009706356808 -0.16458470748963788 0.5685027336618877
-0.08773951807815654 0.1721984999281482 0.5948020289053395
0.04091132766503883 -0.08029300146956751 0.5689633531113335
-0.0423125222170324 0.08304300061756745 0.5884500917767486
-0.05642738422007763 0.0776656314599948 0.557
0.05642738422007789 -0.07766563145999461 0.542
0.05296823406439242 -0.07290451972551415 0.5689633531113335
-0.054691625887161054 0.07527656507226127 0.5874753312342064
0.10803656243388086 -0.1486995712838469 0.5656867849591949
-0.11269975026716143 0.15511789870933645 0.5901035534461044
-0.17586133452114278 0.24205236134483266 0.5871996639881815
0.1660994669220534 -0.22861630327141108 0.5546048620114359
0.16979773846159593 -0.2337065373554305 0.39760530983710746
-0.19289320001852617 0.2654947130873278 0.45168658460185684
0.1729931984772031 -0.23810471074850068 0.29431360824807246
-0.20263678123497006 0.2789056021142836 0.3447462835187637
0.17533520696770635 -0.24132820889241927 0.21672623466107752
-0.208119004474469 0.2864512350651168 0.25724923694002505
-0.21289157583087803 0.2930201159942367 0.1845464401254317
0.17697723640247023 -0.24358826851930976 0.15341386259106066
-0.2163915721556651 0.2978374476573892 0.11961831913604047
0.17821335527956536 -0.24528964019329658 0.09851391989887819
-0.2179842254044399 0.30002954679458255 0.05873796493805198
0.18010205814772418 -0.24788921667417244 0.048530247347597755
-0.2172938016416351 0.2990792600099943 -6.340511629359598e-16
0.18234705295721373 -0.25097918694150545 -5.32078504365919e-16
-0.216300924341391 0.2977126816446921 -0.05828438313121333
0.18341754189244858 -0.25245258855802705 -0.04942363661734523
-0.21422607801105886 0.294856900667867 -0.11842126341387918
0.18462123388169766 -0.2541093284498455 -0.1020561080718249
0.1845228663224151 -0.25397393711968813 -0.15995484071476188
-0.2108565313567123 0.29021911757264035 -0.18278234865427725
0.1840736657747857 -0.25335566560726525 -0.227527563765211
-0.19931385600723794 0.27433198790775565 -0.2463654748825514
-0.14964012839488247 0.2059619672997002 -0.25458299236202003
0.15887390664447654 -0.21867117274007977 -0.27029243422634014
-0.11113071323051307 0.15295830449954398 -0.26022821073339125
0.11708084639733682 -0.16114796021475492 -0.2741612852419302
-0.04100800296297606 0.056442673872868256 -0.13692541129779226
0.04184681174274746 -0.05759719511207766 -0.13972618746029075
-0.030833150099296488 0.04243819034784541 -0.16144446988037187
0.027070413008889106 -0.037259227045122155 -0.14174252269353826
-0.013218093861392386 0.01819314541391138 -0.14198341964687178
0.015231795263367771 -0.020964767616817592 -0.16361378588562667
-0.009465721680757249 0.013028448185606216 -0.14586863833921745
0.009368530569586486 -0.012894676097360181 -0.14437090414384365
0.01121224788700878 -0.011212247887008645 -0.14362649823288368
-0.012539515991532928 0.012539515991532864 -0.16062851887941998
-0.02073479676134495 0.02073479676134484 -0.18514085558442103
0.016485847415677598 -0.0164858474156774 -0.1472020165282188
0.032565758554590894 -0.032565758554590506 -0.14174252269353826
-0.031902169784763734 0.03190216978476357 -0.13885425137909257
0.09958910524515233 -0.09958910524515113 -0.276414580355198
-0.04759869018247749 0.04759869018247725 -0.13211256331562515
-0.1344840582930984 0.13448405829309767 -0.2617729476665556
0.14044993002698178 -0.14044993002698006 -0.27338550493914693
0.19015782918407606 -0.19015782918407378 -0.26892378102354647
-0.179535511807553 0.17953551180755206 -0.25390155572583706
0.23866138455191607 -0.2386613845519132 -0.24522130218952487
-0.23921813096072775 0.2392181309607265 -0.24579335149534223
0.23778441870830946 -0.23778441870830652 -0.17134217355661208
-0.2720540731117155 0.2720540731117141 -0.19603612576933746
0.23758907022941197 -0.23758907022940912 -0.10917356555067916
-0.2766381299279585 0.27663812992795705 -0.12711683657141826
0.23600585040882927 -0.23600585040882638 -0.05286281439359789
-0.2791508503673754 0.2791508503673739 -0.06252683806449219
0.23420610581280896 -0.23420610581280613 -5.680791652494203e-16
-0.2805717377071333 0.28057173770713184 -6.805414316424329e-16
0.23132264000750258 -0.23132264000749977 0.051813824795319235
-0.28118517391653913 0.28118517391653763 0.06298250502363471
0.2285426605222503 -0.22854266052224753 0.10501668744930105
-0.27860031481479086 0.2786003148147895 0.12801847198822394
-0.2702115926948173 0.2702115926948159 0.19470847528205099
0.22744239604719582 -0.2274423960471931 0.16388994160906376
0.2253224891723705 -0.22532248917236775 0.23151576997331125
-0.26210152968801553 0.26210152968801415 0.26930573011060366
-0.25162074636245807 0.25162074636245674 0.35584547208022727
0.22175718703122269 -0.22175718703122002 0.3136120214532597
0.21732639366512732 -0.21732639366512466 0.4230253860384994
-0.23901440065152701 0.23901440065152577 0.46524104780466585
0.20521174095504752 -0.20521174095504505 0.569575528572285
-0.21569112054036613 0.21569112054036502 0.5986615747148659
0.13083083979662963 -0.13083083979662805 0.5694414655750122
-0.13644158897513312 0.13644158897513242 0.5938622614679955
0.06372088674959037 -0.06372088674958959 0.5689633531113335
-0.06590329843010974 0.0659032984301094 0.5884500917767486
-0.07766563145999512 0.05642738422007719 0.556
0.07766563145999529 -0.056427384220076954 0.543
0.07265495526364078 -0.052786914869361316 0.5670156956330338
-0.07502677847172547 0.05451014529894525 0.5855259401355696
0.14943978720541676 -0.10857436078080532 0.5685027336618877
-0.15437697367159445 0.11216143671717654 0.5872849071051789
0.23406121733518356 -0.17005542855071434 0.5678137879269971
-0.24096230976689742 0.1750693656920514 0.5845552860662406
-0.3195043898285331 0.2321335270948313 0.5435733349593319
0.280497186488302 -0.20379313496959953 0.47721031685349125
0.28507777593671463 -0.2071211280072039 0.35237550993223093
-0.3357454641657182 0.24393335830129267 0.41500421684604577
0.2890060811507128 -0.2099752088081587 0.25954363167659833
-0.3448085936168925 0.2505181072843886 0.3096574101980902
0.291619416111276 -0.21187390779693108 0.1836642680049008
-0.35356199934965343 0.25687782881412535 0.22267620815798125
0.2926228101724079 -0.21260291625469138 0.11752400166265477
-0.3600528026749879 0.26159367347089935 0.14460542619793637
0.2946255268270462 -0.2140579750758307 0.057679998685164505
-0.36376039372090707 0.2642873960422116 0.0712148036101901
0.2998605965171415 -0.21786147584275675 -6.357076045126284e-16
-0.3619706942688525 0.262987103277946 -7.673816621126863e-16
0.302347664014571 -0.21966843614965917 -0.05919179186758265
-0.35907529146764017 0.2608834700071594 -0.07029758270703844
0.3052972482773038 -0.22181143455646984 -0.12261434538546925
-0.35403060742052167 0.2572182925065777 -0.1421867750863528
0.3063457287698511 -0.22257320022408944 -0.19293901888025722
-0.3472022421626744 0.25225719474999736 -0.2186707816194782
0.29156204831525145 -0.21183222765338128 -0.2618390332047936
-0.27688107644348464 0.20116587723609364 -0.24865469901719164
-0.207064892939401 0.15044145077735085 -0.25594628342681663
0.21756390903961592 -0.15806943247636893 -0.26892378102354647
-0.15386627808753012 0.11179039465648928 -0.2617729476665556
0.16023608934409234 -0.11641833342974825 -0.27260991785544425
0.11429148101605847 -0.08303762154688278 -0.2772619894161344
-0.09289650471641825 0.06749326137952802 -0.22535948855068702
0.07329094418821433 -0.05324898787040438 -0.27881532022250427
-0.03649999999999975 0.026518802272195323 -0.13885425137909257
-0.018287541854857255 0.013286676890231754 -0.14272011081176128
0.019153812600485567 -0.013916059427697544 -0.149480683544297
-0.012828188509963671 0.009320224509758269 -0.14362649823288368
0.013299067458691409 -0.009662338091551367 -0.14889853601474304
-0.01449728112191181 0.007386733680089158 -0.1473779664862143
0.014275002117977489 -0.007273476870696279 -0.1451182994964563
-0.02056093077722133 0.010476317496287456 -0.14569658505706745
0.021094948695483767 -0.010748413216128096 -0.149480683544297
-0.07812223784153806 0.03980526835172006 -0.26984709849482863
0.08097879348956163 -0.041260756152284715 -0.2797141129916698
0.12548959347075295 -0.06394014152005745 -0.276414580355198
-0.09010375700400983 0.04591015728860455 -0.19847057825153316
-0.16996000973095735 0.08659895035424288 -0.2625456472497617
0.1759732035466886 -0.0896628256360996 -0.2718345256446762
-0.22804980837505795 0.11619718111941889 -0.25594628342681663
0.23778441870830846 -0.12115721282512026 -0.2668716920169698
0.31829529617526564 -0.16217955385566182 -0.25954363167659966
-0.30423949792573646 0.15501776693456903 -0.24808228440683838
0.4112156895713984 -0.20952485906802473 -0.2351552467686903
-0.4221426528087393 0.21509242492314187 -0.24140387200764374
0.4081607150122005 -0.2079682717825554 -0.14884229456880324
-0.4681071987817821 0.23851253087086363 -0.17070273303684508
0.4040672254809481 -0.20588253468914328 -0.0718265911908844
-0.47747326620734004 0.24328478058586617 -0.0848751765393257
0.39778427206522365 -0.20268121002584377 -7.657065711539967e-16
-0.48342503053102315 0.2463173559781757 -9.305589701073757e-16
0.38944982351343904 -0.1984345963812076 0.0692282162443788
-0.4844040792567721 0.24681620622023984 0.08610719102634257
0.38742382598678665 -0.19740229908076548 0.14128025826486915
-0.4756195741554768 0.2423402773099163 0.17344224016517953
0.3862799583661181 -0.1968194694171822 0.22089565460417954
-0.4596747995632506 0.23421600886872493 0.26286677202737285
0.38329750782003646 -0.19529983496209508 0.31254758831692725
-0.44583612202027645 0.22716485047323265 0.36354268389199496
-0.42643575971042286 0.21727987214694985 0.4786000417885477
0.37847593221647813 -0.19284311948542068 0.424773469039675
-0.3871654897218785 0.1972706701792693 0.5980737130617262
0.3721114274671382 -0.18960024234220388 0.5748189572832011
0.25538297266602944 -0.13012412394087985 0.5625293322493329
-0.2641821428117204 0.13460752506454224 0.5819111698665067
0.16540004724680682 -0.08427553341982756 0.5713190517018994
-0.1716543745368773 0.08746227234358678 0.592922530031411
0.08029300146956804 -0.04091132766503779 0.5689633531113335
-0.08276788724642553 0.042172344952938846 0.586500613948471
-0.09130142556433483 0.02966563145999468 0.555
0.09130142556433495 -0.02966563145999433 0.544
0.0857044030402464 -0.027847048601658785 0.5689633531113335
-0.08819926782538917 0.028657679309789907 0.5855259401355696
0.17654729618606677 -0.057363693847516425 0.5713190517018994
-0.18148101683541304 0.05896675686220076 0.5872849071051789
0.27174121420324465 -0.08829407277287733 0.5607681064544632
-0.2764360624911009 0.0898195214524283 0.5704564461205368
0.39165195007812864 -0.127255432648408 0.5668040268571365
-0.3994058086708312 0.12977481402698343 0.5780255164300805
0.5371848910095708 -0.17454195160773256 0.5648296203281122
-0.5538791808608414 0.1799662551950337 0.5823830354672082
0.5443983080764518 -0.17688573288990475 0.41588330053453454
-0.5634619960331537 0.1830799005898775 0.4304466622316112
0.5492397991955046 -0.17845882871362165 0.2942534442174705
-0.5701997078493859 0.1852691158665125 0.3054826474196459
0.5522874370107486 -0.17944906626677862 0.18868391435435028
-0.5719476943129693 0.18583707109727926 0.19540066012187107
-0.5781986761408078 0.18786813821393794 0.09629046449698916
0.5550144459277352 -0.18033512517571035 0.09242947278541651
-0.5741357336440801 0.1865480081720894 -1.0353898489803053e-15
1.9233024780917491 -0.6249188569455526 -3.468461803788989e-15
-0.5717046276923403 0.18575809396474013 -0.09520897647674441
1.304117729168236 -0.42373353641328093 -0.21718157976167682
-0.5692657724384527 0.1849656618564909 -0.19448440622333235
0.7045563835900706 -0.2289242461350354 -0.2407051970232197
0.46977629748259037 -0.15263957187545912 -0.25168113044331586
-0.4572626650516408 0.14857364622722682 -0.24497699238217815
0.34049808235758827 -0.11063453348751212 -0.26011738871287643
-0.3284913587894741 0.10673331251300948 -0.25094506809388634
-0.24471647029988944 0.07951320119302831 -0.2573101241692607
0.2531597402367043 -0.08225658589610951 -0.26618790355686783
-0.1819486534712467 0.059118701215863205 -0.26331856498650025
0.18783303756261802 -0.06103065350734851 -0.2718345256446762
-0.13066680295332947 0.0424562179233204 -0.2696454267470585
0.13394705017037326 -0.04352203485265053 -0.276414580355198
-0.08394069383340984 0.027273984741930636 -0.27163779132341415
0.08643641448093954 -0.02808489353660781 -0.2797141129916698
0.0423534198159239 -0.01376146030101443 -0.2811704288154779
-0.02138732513421917 0.0069491631858448226 -0.14198341964687178
-0.015002597982996609 0.004874639579339621 -0.1428851284869497
0.029023008408801995 -0.00943014707595281 -0.276415877454658
-0.02831792426014464 0.004485118585095518 -0.25969786074758944
0.030650061284571116 -0.004854492802469319 -0.2810854098719513
0.04398474561688067 -0.0069664993173464375 -0.2811704288154779
-0.03865091128129842 0.00612170295132162 -0.24707414233403902
-0.08803674041347076 0.013943649858383743 -0.27432664282930663
0.08947724404953447 -0.014171803220566834 -0.27881532022250427
-0.13399993241519184 0.02122350429910538 -0.26626787447604316
0.13867996376408454 -0.021964748445000525 -0.2755674463287347
0.19451152027508392 -0.030807598275442497 -0.2710593299792032
0.2622354395146999 -0.04153401332079269 -0.265504237254324
-0.11913216552912972 0.01886868136198081 -0.12061716295784808
-0.3403653073647827 0.053908568712858686 -0.2503723702044777
0.3504936107561244 -0.055512734376932174 -0.2578227397673265
0.48613727414063707 -0.07699658008565705 -0.25078691621817945
-0.47574106530973914 0.07534998236848002 -0.24542375381169676
0.5522340388842962 -0.08746527917684357 -0.18166835507609608
-0.5550144459277337 0.08790565239029477 -0.1825830251950258
0.5513806187676669 -0.08733011070930956 -0.08841869152438626
