0.5115655696232273 0.0 0.37167414219456124
-0.5251635845570959 -1.8014418601782384e-15 0.3815536783404687
-0.5256697760854732 -1.803178223161699e-15 0.3221308530865188
0.5130400415229318 0.0 0.31439134179259526
-0.5282105815159897 -1.8118938184460916e-15 0.2691367339746474
0.5194201227928733 0.0 0.2646577715424893
-0.5285624536247974 -1.8131008273950654e-15 0.21893773685259033
0.5212776889548892 0.0 0.21592028852761805
-0.5309894261746564 -1.8214259475545427e-15 0.17252892305555373
0.5253689912183171 0.0 0.17070273303684316
0.5275696032460451 0.0 0.12665825567569883
-0.5323554369688777 -1.8261117047138873e-15 0.12780723269704022
0.5300491848371265 0.0 0.08395154348490416
-0.5378250969226468 -1.8448740002945492e-15 0.08518312696858207
0.5300985473766046 0.0 0.04171966046378873
-0.5359828489174858 -1.8385546309191462e-15 0.042182765038526804
0.5317377173005504 0.0 -9.119963862200078e-16
-0.5366563145999496 -1.8408647859022017e-15 -9.204323929511009e-16
0.5330404276738421 0.0 -0.04195119146445699
-0.5369637746720438 -1.8419194505067002e-15 -0.042259965569680716
-0.5358807744334727 -1.838204490022548e-15 -0.0848751765393257
0.5329647189285955 0.0 -0.08441331872023045
-0.5371426360237699 -1.8425329894793978e-15 -0.1289565375056102
0.5361850887414418 0.0 -0.12872665074230832
-0.5366116743946466 -1.840711658882651e-15 -0.1743557022393411
0.5356745095263082 0.0 -0.17405119891500043
-0.5367612870055051 -1.841224867391269e-15 -0.22233380483451887
0.5376724885716366 0.0 -0.22271123688126615
-0.5000960153327736 -1.7154538559420072e-15 -0.25481164700280556
0.48605610494234847 0.0 -0.24765795535026267
-0.41820848416539796 -1.4345592341338902e-15 -0.2562784887033636
0.4040039078261026 0.0 -0.24757391312744956
0.34855021046321244 0.0 -0.25323655104674436
-0.35881066586608257 -1.2308099273766647e-15 -0.26069120825363196
-0.3068876387749692 -1.0527010156782547e-15 -0.26210680488519184
0.29729539436615376 0.0 -0.2539142542053776
0.2593568969586112 0.0 -0.2593568969586126
-0.2668716920169684 -9.154363543721563e-16 -0.2668716920169698
0.22382603015055666 0.0 -0.26206661028647305
-0.2281957503396288 -7.827682441524978e-16 -0.26718289527388134
0.19355992368383715 0.0 -0.26641237948621527
-0.19637306225122278 -6.736085001953892e-16 -0.27028433255014506
0.16408202047632248 0.0 -0.26775752194178926
-0.16657136238031717 -5.71381249048121e-16 -0.2718197587276634
0.13825259320922786 0.0 -0.2713359918457627
-0.13954577987779976 -4.786767717245561e-16 -0.27387401358708113
0.11327429598006579 0.0 -0.2734683416233413
-0.11399856191528339 -3.9104345288431786e-16 -0.2752168742669085
0.08971716533124148 0.0 -0.2761210427419951
-0.08767863727226996 -3.007595577268722e-16 -0.26984709849482863
0.06667593560005461 0.0 -0.27772525922547514
-0.06667593560005461 -2.2871506134185915e-16 -0.27772525922547514
0.044238604627880214 0.0 -0.27931155697639526
-0.04394444325575574 -1.5074038248464849e-16 -0.27745429516758546
0.030928922668142338 0.0 -0.280150676855488
-0.022482683159457884 -7.712120139999627e-17 -0.20364559646098765
0.03083357912156256 0.002426655304378896 -0.280150676855488
-0.02309267161870026 -0.0018174326715322145 -0.2098176004438029
0.04410223177370035 0.0034709209153651424 -0.27931155697639526
-0.0439555723929898 -0.003459378571781527 -0.27838272280352044
0.06647039594256819 0.005231333613988315 -0.27772525922547514
-0.06625125611875528 -0.0052140869358212145 -0.2768096536613433
0.08914991939129574 0.0070162508193721326 -0.2752236619496317
-0.08944059725211546 -0.0070391276631550734 -0.2761210427419951
0.11292510912894436 0.008887398831804234 -0.2734683416233413
-0.1136471423939952 -0.008944224082148268 -0.2752168742669085
0.13739696677228566 0.010813375797504281 -0.2704905625444951
-0.1391156068094861 -0.010948635701849545 -0.27387401358708113
0.16357621036679992 0.012873726951770015 -0.26775752194178926
-0.1660578784604804 -0.013069038466515423 -0.2718197587276634
0.19184250592585686 0.015098332657876933 -0.26486504728076093
-0.19576770963649853 -0.015407252889539412 -0.27028433255014506
0.22251430128828031 0.017512255304275078 -0.2613363859785819
-0.2268695557378974 -0.017855021263116215 -0.2664515019567027
0.2571969439456967 0.02024183847860207 -0.25799224794555425
-0.2646857762984271 -0.02083122236688626 -0.265504237254324
0.29490945836210547 0.023209877731821475 -0.25265532439322064
-0.3059416066031975 -0.024078126628338654 -0.26210680488519184
0.34433151337259105 0.027099477815926882 -0.25094506809388634
-0.35691721216262995 -0.028089993792284672 -0.26011738871287643
-0.41691928697874153 -0.03281225949333132 -0.2562784887033636
0.39942956114232403 0.03143578821810923 -0.24552762961580643
-0.4950540773634429 -0.03896160085899136 -0.2530226356362904
0.48106057340861796 0.03786028821328794 -0.24587054172506845
-0.5296571920216142 -0.04168492504403754 -0.22006959345591542
0.5305653216096702 0.04175639639263372 -0.22044691620779944
-0.5293525629825213 -0.041660950218712585 -0.17252892305555564
0.5284185843912527 0.04158744450944032 -0.17222451663197919
-0.5297600366355995 -0.04169301909069589 -0.12757741078635862
0.5288057651853323 0.0416179162987841 -0.12734760205713547
0.5255092020534432 0.041358471153649316 -0.0834898522036436
-0.5303528595655321 -0.041739675267126373 -0.08425938439875873
0.5265095268748096 0.04143719842446989 -0.04156533046657155
-0.5304195777462245 -0.0417449261018231 -0.04187400969898004
0.5242164460488904 0.04125672904958324 -9.018766543686318e-16
-0.5300985473766043 -0.041719660463791455 -9.119963862200078e-16
0.522600461694116 0.041129548322660615 0.04125672904958229
-0.5294419738140733 -0.04166798700376433 0.041796832689957035
0.5206670369727396 0.040977384497071376 0.08272055711736377
-0.5293840106347659 -0.04166342520261986 0.08410545930339934
0.5183124782259577 0.04079207670488081 0.12482059683149002
-0.5259432822266913 -0.041392634004184435 0.12665825567569883
-0.5237494539514277 -0.04121997597444107 0.17070273303684316
0.51534830876688 0.040558791509133975 0.16796459472887532
-0.5205783894971512 -0.040970407789438626 0.21629740191255076
0.5115042893025721 0.0402562606162259 0.21252716416088854
-0.5195712720671155 -0.04089114592872198 0.26555339844783676
0.501180104860431 0.03944372967905721 0.25615365443634214
-0.5181726343841522 -0.040781070755843536 0.3185184849320278
0.49971438760636494 0.03932837522943993 0.30717228019632253
0.49245812265035116 0.03875729479222998 0.358898132533564
-0.5163669051471398 -0.040638956782827536 0.3763225936086859
0.481593083894303 0.03790219769741336 0.412591232280669
-0.5085866526404809 -0.040026637631026936 0.4357172076426468
-0.5057511080988654 -0.039803475435824555 0.5073149909080152
0.47293825557940444 0.037221047936756804 0.4744006745357764
-0.4946843480906135 -0.03893250253415667 0.580991958636772
0.46194490635751656 0.03635585258927514 0.5425404643645045
-0.4070553737914387 -0.03203595268952068 0.561996103547691
0.43492958326333714 0.03422970055134468 0.6004802954323689
-0.33606755706094965 -0.02644909034907775 0.5501082100012611
0.3618427780153142 0.028477644231966786 0.5922996098066903
-0.27188064606534795 -0.021397470897923803 0.5352457963723409
0.295584544312591 0.02326300814837801 0.5819111698665067
-0.21713462639615358 -0.017088865708103883 0.525830319293794
0.23821999440001698 0.018748320159032408 0.5768923077657304
-0.1850605687212229 -0.014564582624295476 0.5713190517018994
0.1832361757073901 0.014420999780187304 0.5656867849591949
-0.13612863807845832 -0.010713556164485886 0.5687699127144601
0.133833483218628 0.010532923559589966 0.5591803432622227
-0.08922212293521586 -0.007021933361517732 0.565068230597686
0.09106755646986983 0.0071671721305260885 0.5767558684593149
-0.04413226699990227 -0.003473284738932244 0.5624875814652015
0.044671901448597104 0.0035157548911057416 0.569365489548245
0.09481808069713321 0.015017708643862182 0.539
-0.09481808069713317 -0.015017708643862532 0.535
-0.04364734994205458 -0.00691306109222167 0.5615052256474298
0.04425834993536758 0.007009833984200679 0.569365489548245
0.08991969760650366 0.014241880979557647 0.574807460640969
-0.08824383242598874 -0.013976450010882744 0.5640945708689876
-0.13441355481949857 -0.021289015652118194 0.5668516332280868
0.13213986639258016 0.020928898783147836 0.557262987202161
-0.18214230957437572 -0.028848507761356647 0.5675640427853542
0.18063628887814331 0.028609977516266025 0.5628712111370155
-0.2140069117550364 -0.033895364943904716 0.523098600606417
0.23340067191667707 0.03696703479289366 0.5705029050648776
-0.26715075123750837 -0.04231252221703325 0.5308484968207671
0.28841361028747814 0.04568022824736121 0.573099385925523
-0.32887440764035586 -0.05208858899118248 0.5433639690816024
0.3518497463346658 0.05572752515154618 0.5813236610914052
-0.3981128969168105 -0.06305488836415044 0.5547857265304232
0.4170909678123867 0.06606071950138413 0.5812324026654796
-0.4824693350331432 -0.0764156356029775 0.5719405488231006
0.467840385338776 0.07409863759309752 0.5545987430141835
-0.5024533776845936 -0.07958079701374922 0.5087165222400385
0.47823906168641195 0.07574562612653385 0.4842003717470688
0.4853029437639849 0.07686443513590875 0.419654514315345
-0.5046217229359471 -0.07992422916281519 0.43635998250743174
0.4918451712472572 0.07790062217432264 0.36180080235622686
-0.5092166807016695 -0.08065199897685404 0.3745792668531075
-0.5100493717259884 -0.08078388427870407 0.31645473995939666
0.49508826616367296 0.07841427794757849 0.30717228019632253
-0.5138932416611778 -0.08139269346706936 0.26510557448899896
0.5008769993965108 0.07933112322084955 0.2583907977542278
-0.5121625075404823 -0.08111857211201244 0.2147890665940742
0.5031743443104724 0.0796949869092798 0.21101963958185488
-0.5152010253084385 -0.08159982604810632 0.16948560974328367
0.5068795688924562 0.08028183683097402 0.166748101381823
0.5087909551082659 0.08058457066700907 0.12367251501620088
-0.5172938120228012 -0.08193129090057932 0.12573931610392805
0.5120101673919536 0.08109444380284682 0.08210529624555654
-0.5225636360439952 -0.08276594902878495 0.08379763699438933
0.5129227825948989 0.08123898785099698 0.040871089391544733
-0.5206670369727392 -0.08246555724636402 0.041488172749289766
0.5154796451806102 0.0816439551006216 -8.951323328173155e-16
-0.5213057985194268 -0.08256672713643697 -9.052494698920479e-16
0.5167944076499628 0.0818521930184897 -0.0411795910590209
-0.5216353485992464 -0.0826189227413881 -0.04156533046657155
0.5168062931802498 0.0818540755015522 -0.08287439684894068
-0.5206442843159403 -0.08246195357955105 -0.0834898522036436
-0.5220196187718046 -0.08267978515760216 -0.12688802442954364
0.5191839669485284 0.08223066203061533 -0.12619875865314975
-0.5207510372992661 -0.08247886159106806 -0.17131139641710855
0.5179757989531704 0.08203930701885254 -0.1703984266438255
-0.5211554284265946 -0.08254291085344218 -0.2185604888568231
0.5220549727215696 0.08268538467314697 -0.2189377368525921
-0.4948060949636941 -0.07836958641999602 -0.25525895931610015
0.4783394429660865 0.07576152495933415 -0.24676419642794664
-0.4155375025911201 -0.06581467478175176 -0.2578158500242122
0.39902994931471425 0.06320013519493918 -0.24757391312744956
-0.35595350614791266 -0.056377496852794945 -0.2618390332047936
0.34425897898649627 0.05452526571347259 -0.25323655104674436
-0.3038388823331312 -0.04812335132716684 -0.2627376574448279
0.29072392532777724 0.04604614620199234 -0.25139680121663005
0.1734187789897692 0.027466836252059087 -0.1755804658838795
-0.12971661096659276 -0.020545092828739918 -0.13133354483908555
0.1699848502668667 0.02692295537316782 -0.20150758088400875
-0.11101387357390302 -0.017582870234261902 -0.13160076955870204
0.11689804948025771 0.018514832141960594 -0.16290195523217713
-0.10832483824505129 -0.017156968878688804 -0.15095485364200517
0.11216686195307789 0.017765485653397785 -0.18532129558984337
-0.0976237620335456 -0.015462084912059222 -0.16129328881447594
0.10069076614314983 0.015947850641431574 -0.20008007315428517
-0.0934580249723076 -0.014802296979075846 -0.18570807621753763
0.09490032284855272 0.015030734520985845 -0.23196552705736287
-0.08830722650971178 -0.013986490647353106 -0.2158499752734153
0.08287628941601553 0.013126314715329929 -0.2582464336919814
-0.0828762894160155 -0.013126314715330236 -0.2582464336919814
0.06433723318280181 0.010190016669687262 -0.27132431514085376
-0.06304005579441872 -0.0099845639550268 -0.2658538317347797
0.04369395399515538 0.006920442449088731 -0.27931155697639526
-0.03567641014715615 -0.005650588253946076 -0.22805978297673674
0.03065006128457108 0.004854492802469535 -0.2810854098719513
-0.03044625593946561 -0.004822213206949971 -0.2792163529578009
0.02967342097197683 0.007123958084614096 -0.276415877454658
-0.02787873120186126 -0.006693091191671077 -0.25969786074758944
0.040167982381397696 0.009643479364877935 -0.2608170556101478
-0.04002631628969536 -0.009609468345378458 -0.2598971952953637
0.06036537393021295 0.01449244406457273 -0.2585845909858142
-0.06036537393021289 -0.014492444064572946 -0.2585845909858142
0.053007054747895924 0.012725867926366641 -0.16777456431913104
-0.06503961280853714 -0.01561462953412508 -0.20585925315668374
0.058648338588211585 0.014080220350368338 -0.14561291074533045
-0.057183975720341056 -0.0137286579302072 -0.14197717025018777
0.06613013107308965 0.015876439805832806 -0.1334756323204642
-0.068184584114752 -0.01636967034266373 -0.1376222960932233
0.07689210770931068 0.018460161801905954 -0.12904195518616118
-0.07927230877042944 -0.019031597519020824 -0.1330364587550334
0.08917745838357416 0.0214096135466472 -0.12622998599393534
-0.09421303707147705 -0.02261854902928957 -0.13335780774134717
-0.10409664552605102 -0.024991393482297473 -0.12534479902268247
0.10205381911622098 0.024500954252808984 -0.12288499194163385
0.18991980200600403 0.04559571039034284 -0.19531640996086375
-0.2555104342149451 -0.0613426279783467 -0.2627708126866459
0.2883643964137634 0.06923016645390305 -0.2532847388487724
-0.29912653383147586 -0.0718139270501983 -0.2627376574448279
-0.35043289285946594 -0.08413149405855727 -0.2618390332047936
0.3366194934902463 0.08081519027931562 -0.25151783559518814
0.3895942797162882 0.0935333112189982 -0.24552762961580643
-0.4090927792802638 -0.09821448679824321 -0.2578158500242122
-0.4862783226203239 -0.11674509626224967 -0.25481164700280556
0.4666574895040891 0.11203455099558413 -0.24453025758167218
0.513958230956344 0.1233904543070109 -0.2189377368525921
-0.5130726380232814 -0.12317784225459306 -0.2185604888568231
-0.5126745187460477 -0.12308226227254891 -0.17131139641710855
0.5099423225878432 0.12242632000932176 -0.1703984266438255
-0.5129928131125897 -0.1231586779890905 -0.1266582556757006
0.5092709128425423 0.12226512879083565 -0.12573931610392983
0.5078464865276449 0.121923154288754 -0.08272055711736556
-0.5135141843825051 -0.12328384815659182 -0.08364373988334782
-0.5125918212113485 -0.12306240835103933 -0.04148817274929169
0.5078262657043638 0.1219182996985931 -0.04110245806962142
-0.512264556027078 -0.12298383893170957 -9.035630080771603e-16
0.5046178321602965 0.1211480229547424 -8.900752569967603e-16
-0.5125918212113486 -0.12306240835103936 0.041488172749289766
0.5030622637914338 0.12077456403108157 0.04071686913479315
0.5021809439691455 0.12056297786179387 0.08179772541675356
-0.5135141843825052 -0.12328384815659187 0.083643739883346
-0.5083405764250445 -0.12204177477819765 0.12550961544376305
0.49811064556660173 0.11958578567222537 0.12298383893170682
0.4962883552820957 0.11914829248203741 0.16583592135001188
-0.5063001073144047 -0.12155190148617391 0.16918137184252272
-0.5042191916406882 -0.12105231783347772 0.2147890665940742
0.4909478834692232 0.11786615863630064 0.20913570801135942
-0.504213964037529 -0.12105106279699829 0.26420998971514775
0.48457117152879864 0.11633524554663217 0.25391709349079356
-0.5013202459899792 -0.12035634255901477 0.31593885763920165
0.4751448049965032 0.11407217516692435 0.29944273766034374
0.4686826407119438 0.11252074678451546 0.3501937518550752
-0.4997637355517306 -0.1199826574645048 0.37341715350949695
0.4616963416865149 0.11084348478392787 0.4055307755944596
-0.49240490945987236 -0.11821595962808507 0.4325036323882448
-0.48989112158143705 -0.11761245255363967 0.5038114726760394
0.4524483318801374 0.10862323406565202 0.4653047388540113
0.4424367711632127 0.10621967099227751 0.5327467362799734
-0.4825035776773972 -0.11583886018050789 0.580991958636772
-0.3970323195493602 -0.0953190265921121 0.561996103547691
0.4264872518138517 0.1023905301789586 0.6036893268643566
-0.32879730554609493 -0.07893724910439356 0.5517945655490444
0.3554491162005387 0.0853357827335494 0.5965221957123711
-0.2660576262017987 -0.06387478474233027 0.5370049826714692
0.290052994108362 0.06963556289300783 0.5854367164684399
-0.2121548389566924 -0.05093387046956544 0.5267409848742071
0.23308962734950506 0.05595986848851591 0.5787181686631385
-0.17931739778882685 -0.043050298342617824 0.5675640427853542
0.17991055476110235 0.04319270273246076 0.5694414655750122
-0.13232888577124502 -0.031769354686415466 0.5668516332280868
0.13098570057806383 0.031446884452021234 0.5610978878077649
-0.0871751372896911 -0.02092889878314815 0.5660419389358426
0.08912527006398674 0.021397084239642174 0.5787044591344214
0.04364713864058362 0.010478750882229111 0.5703482471862589
-0.04304558411976776 -0.01033433041935277 0.5624875814652015
0.09130142556433472 0.029665631459994988 0.538
-0.09130142556433464 -0.029665631459995307 0.535
-0.042102066730008776 -0.013679790732692184 0.5624875814652015
0.04276399861674888 0.013894865440258492 0.5713310538879397
-0.08482434844440426 -0.02756110152971039 0.5631209600018909
0.08687820952958966 0.0282284414496131 0.5767558684593149
-0.12920938169606294 -0.04198267305112697 0.5658925612209471
0.12767679125100617 0.04148470422926917 0.5591803432622227
0.1742267769603293 0.0566097114455886 0.5638096937443191
-0.17277687289974175 -0.05613860905865631 0.5591177056434056
0.22474420402722298 0.07302381850263172 0.5705029050648776
-0.2067871330430359 -0.0671892124532177 0.5249196998949061
-0.2576686834183204 -0.08372163034501467 0.5317278798387781
0.27985165556531877 0.09092931491655941 0.5775049009022827
-0.31667696739297596 -0.10289458404928507 0.5433639690816024
0.3373243269837882 0.10960331785554216 0.5787913364417191
-0.38279400465524527 -0.12437731171236166 0.553984687812945
0.40328378655730795 0.1310348454238569 0.5836377787504384
-0.4627375277827253 -0.15035253696273113 0.569678062602381
0.448039879566062 0.145576981568833 0.5515837277836761
-0.485817691343276 -0.15785173669583116 0.5108189503141007
0.4578386464565968 0.14876079393036262 0.48140004154549015
0.46372830712288365 0.15067446068496743 0.41644359050204943
-0.48733767027364455 -0.15834560778816695 0.4376455913481279
0.4720834489613241 0.15338921083309634 0.36063966395389835
-0.49185196176358703 -0.15981239000778585 0.37574146392075275
0.47432630584398966 0.15411795921010593 0.30562593187310866
-0.4935345570890009 -0.16035909836980225 0.3180025165450547
0.47979467307213647 0.15589473942876536 0.2570484427302355
-0.4965055544258764 -0.16132443392200863 0.2660012433128775
-0.49663041540236524 -0.16136500371256074 0.21629740191255076
0.4836471713308486 0.15714649199272393 0.21064281074380312
-0.49787421162109385 -0.16176913760212566 0.17009413723623446
0.486300142236664 0.15800849449355622 0.16613996306873358
-0.4999282411543295 -0.16243653225411805 0.12619875865314797
0.48901125024791403 0.15888938688502618 0.12344294174343252
-0.5059552341584552 -0.16439482099021646 0.08425938439875692
0.4911736254920133 0.15959198519248047 0.08179772541675356
-0.5022887048725068 -0.16320349340839696 0.041565330466569614
0.49389927438971576 0.1604776022043595 0.040871089391544733
0.4954265089766522 0.16097383080242328 -8.93446528844992e-16
-0.5038418812436539 -0.16370815100310623 -9.086227154330334e-16
0.4966952072586174 0.1613860558628106 -0.04110245806962142
-0.5041536777611142 -0.16380945983284592 -0.041719660463790664
-0.50318256357979 -0.16349392570804258 -0.08379763699439115
0.4976387516078773 0.1616926320061544 -0.08287439684894068
-0.5044793101857992 -0.16391526422135816 -0.12734760205713547
0.4999282411543295 0.1624365322541161 -0.12619875865314975
-0.503218975756909 -0.1635057567415713 -0.1719201266592528
0.5005463723362562 0.16263737524997982 -0.17100705632461852
-0.5035589906287127 -0.1636162342704324 -0.2193150036822722
0.5035589906287132 0.16361623427043065 -0.2193150036822722
-0.47812450284127356 -0.15535206822469802 -0.25615365443634386
0.45893052271415796 0.14911556603229334 -0.24587054172506845
0.3826425080883243 0.12432808749385589 -0.24655067970702646
-0.40171681388617964 -0.13052570513955017 -0.25884095838750043
-0.3442545874922711 -0.11185509599477468 -0.262987103277948
0.32999097407757005 0.10722056705688507 -0.252090672233894
0.2820437289593103 0.09164156273785538 -0.2532847388487724
-0.29327255359221893 -0.09529002902663378 -0.2633686004017989
0.24666306689857787 0.08014568876856308 -0.2593568969586126
-0.25381006170745085 -0.08246788815084122 -0.2668716920169698
0.10081330481712533 0.0327562283774158 -0.12411167178930417
-0.11419228695793215 -0.037103323190512676 -0.14058259140995252
-0.09124143795447281 -0.029646140304021264 -0.13204584948067993
0.08989055845860527 0.029207212948576373 -0.13009083830837814
0.07871528401352355 0.025576146170561056 -0.13506207761519304
-0.0823173525171754 -0.02674652917457805 -0.1412426162731225
0.0646806228382636 0.02101600832476382 -0.1334756323204642
-0.06873837138078284 -0.022334450748588957 -0.1418492460666479
0.05368777820339235 0.017444216585265914 -0.13628397477073262
-0.054521411283845696 -0.017715080392536726 -0.13840011430018295
0.04313018228593881 0.014013845726817133 -0.13957220175925672
-0.0435764577763419 -0.014158849423595266 -0.14101637958289331
0.03394579368750854 0.011029656973330198 -0.14867087730277165
-0.0327507330010279 -0.010641358218099143 -0.14343692336065172
0.0377676447609661 0.012271451663165438 -0.2507269759784297
-0.031405908278153295 -0.010204398177656221 -0.2084934991385968
0.027559087125523553 0.008954490217281324 -0.26247345355627194
-0.027267656495099574 -0.008859798665371106 -0.25969786074758944
-0.014878199967066272 -0.006162752210057853 -0.14586863833921745
0.016140015044446315 0.006685413128315464 -0.15823970792967482
0.021209986461559353 0.008785464050127628 -0.1449481013870978
-0.02153979767792711 -0.008922076328970005 -0.1472020165282188
0.03197892307467442 0.013246103647616076 -0.14417659039227093
-0.031814862078082165 -0.013178147357771244 -0.14343692336065172
-0.043873358420572696 -0.01817294008465724 -0.14615359273579087
0.041897712664526306 0.017354600818057803 -0.13957220175925672
-0.05572364848069396 -0.0230814909456146 -0.14561291074533045
0.054608836281319496 0.022619720613134494 -0.1426997660803401
0.06577472421975582 0.027244782833172988 -0.13972618746029075
-0.06610687811780201 -0.02738236548253907 -0.1404317867368308
0.07685048196293272 0.03183251190395569 -0.13574127820213525
-0.07531913732786184 -0.031198208187442348 -0.1330364587550334
0.08951479763017235 0.037078243211500425 -0.13335780774134717
-0.0877581301434783 -0.03635060771393223 -0.13074075077246627
0.0974478948625064 0.04036423967675765 -0.12349751391094141
-0.1987343656179343 -0.08231846954856259 -0.25185972582693644
0.2383537574234734 0.09872935896738957 -0.25799224794555425
-0.2465572940611325 -0.10212737510213356 -0.2668716920169698
-0.284892122674951 -0.11800618102522553 -0.2633686004017989
0.2733033154358572 0.11320593989506422 -0.25265532439322064
-0.3336873277812559 -0.1382178167590342 -0.26241303780218456
0.3191045303749662 0.13217742429600843 -0.25094506809388634
-0.38946475188253565 -0.16132158229602045 -0.25832838428361543
0.3693948061220025 0.15300833856591362 -0.245016174036301
-0.4636506629350299 -0.19205039279096797 -0.25570629516838717
0.44176618921151684 0.18298554696928934 -0.24363686845361557
-0.4950609665440976 -0.20506096654410055 -0.22195639077175322
0.49421920649659973 0.20471229811616112 -0.2215789947848652
-0.4940329333180537 -0.204635141239303 -0.17374671152896665
0.4914358612639695 0.20355939877203916 -0.17283334584305896
-0.4953704291259652 -0.2051891501425571 -0.12872665074230832
0.49006352542715675 0.20299095865630068 -0.12734760205713547
-0.49508927936538233 -0.2050726940986657 -0.0848751765393257
0.4879061298103452 0.2020973361324131 -0.08364373988334782
-0.4951835838919535 -0.20511175631256467 -0.04218276503852876
0.4870297632779197 0.20173433322907255 -0.04148817274929169
-0.49489683537459217 -0.20499298118768322 -9.187449847930752e-16
0.4849021134347738 0.20085303180806052 -9.00190409374019e-16
-0.4933712335946012 -0.20436105623963044 0.042028377960183355
0.4815964523772706 0.1994837821654341 0.0410253301095924
-0.4959874130571341 -0.20544471325461353 0.08502914726505043
0.48072650192015326 0.19912343688750342 0.08241290696075107
-0.49094788346922225 -0.2033572717513199 0.1275774107863568
0.4776879967393571 0.19786484683227673 0.12413170489113479
-0.49057026282267724 -0.20320085615808883 0.17252892305555373
0.4749976938179627 0.19675048687534322 0.16705219777642086
-0.4874866025960782 -0.201923562270481 0.2185604888568213
0.46814582850294256 0.19391235133430806 0.20988921662461243
-0.48719064571786114 -0.20180097291764595 0.2686887456789083
0.46770687728136173 0.19373053178510907 0.25794332322813895
0.45533367368525735 0.18860538304559907 0.3020186336875764
-0.48332130220282576 -0.20019823835623785 0.3205825700128185
0.4482611854239768 0.18567586248805215 0.3525143737943307
-0.4822312277278814 -0.1997467147247192 0.3792285497701113
-0.47549788693914125 -0.19695767364994302 0.4395741510903643
0.44075498518750994 0.18256669254821944 0.40745606610328167
-0.4712876935342962 -0.19521375444144246 0.5101181235753143
0.4337636542772482 0.17967078846615078 0.46950239616001926
-0.45725147911397285 -0.18939976406416761 0.5794832303186362
0.4239396237377377 0.1756015417795181 0.5372665017938134
-0.37669518718877204 -0.15603225541426285 0.5611948602928881
0.40575761422513856 0.16807030684820284 0.6044916297636177
-0.311923381968448 -0.1292028952326159 0.5509513732126232
0.3382016562917882 0.14008771285310284 0.5973667821272604
-0.2523757288760919 -0.10453744971427356 0.5361253706750848
0.2760034966995647 0.11432439159535758 0.5863181758192089
-0.20157504805902932 -0.08349511874205927 0.5267409848742071
0.22251404450056653 0.09216833505062516 0.5814572194185877
-0.15489805312935417 -0.06416087439136743 0.5160057900199094
0.17122053699464027 0.07092186857998434 0.570380238322113
-0.12572987559516177 -0.052079019666998586 0.5668516332280868
0.12466634762605162 0.051638491958229546 0.5620567301597414
-0.08240044418356089 -0.03413138152639851 0.5631209600018909
0.08453817851325794 0.03501686007850926 0.5777301410554089
-0.0408989760985014 -0.016940910587172515 0.5624875814652015
0.041613457208139304 0.017236858352843755 0.5723139094005234
-0.08553662632208316 -0.043583087974996826 0.535
0.08553662632208328 0.043583087974996534 0.54
-0.03937484322075717 -0.020062484690829153 0.5615052256474298
0.040063866989036634 0.020413559836073923 0.5713310538879397
-0.07933112322084933 -0.040421226218001566 0.5621473982502735
0.08125520904023417 0.04140159690998915 0.5757816415770223
-0.12084591575981836 -0.06157406954708791 0.564933534677825
0.11982032820149643 0.06105150658543754 0.5601390920952884
-0.1488445980987971 -0.07584011075110793 0.5141337989454372
0.16376947465768124 0.0834447151884216 0.5656867849591949
-0.19373053178510855 -0.0987106362886031 0.5249196998949061
0.21122747005901882 0.1076257716273927 0.5723282704655386
-0.24060096044980264 -0.12259231252197816 0.529969152631685
0.262181738562665 0.13358826819037292 0.5775049009022827
-0.2957614485720299 -0.15069798502678838 0.5416782096849017
0.3187910368421117 0.16243214634177217 0.5838562088938821
-0.35706870030972493 -0.1819355900257058 0.5515817113910886
0.3798966812525156 0.19356702727663 0.5868452245052465
-0.43065084209775767 -0.21942756389501636 0.5659075864517021
0.4266343667537117 0.21738106748995625 0.560629635857387
-0.46825974538379217 -0.2385902572468258 0.5255401982722154
0.4364167782845192 0.22236545512233047 0.4898020008125728
-0.47132536593932933 -0.24015226893836525 0.45179230531950454
0.44248872501578507 0.22545926650988488 0.42415073662405645
-0.47505450725769727 -0.24205236134483488 0.3873678736053572
0.4508215256236384 0.2297050404851488 0.3676078704408967
-0.4766318309436908 -0.242856047904939 0.3278094533829964
0.45337254685738915 0.2310048507259455 0.3118125922683819
-0.4800425232348429 -0.24459388242767544 0.2745141318134312
0.45889191365277254 0.23381710857328786 0.2624190757596019
-0.4806935835453509 -0.24492561422503503 0.22346615456220226
0.46121744206416154 0.2350020244824129 0.21441203236982576
-0.4814650154067156 -0.24531867839095123 0.17557387326116666
0.4656038988271398 0.2372370358362573 0.1697898649053971
-0.48286420298846877 -0.24603160007247105 0.13010616141478723
0.46836262289620323 0.2386426759575779 0.12619875865314797
-0.48700394388249535 -0.24814090341229042 0.08656934039616912
0.4714114664330663 0.24019613933113626 0.08379763699438933
-0.4854321786337676 -0.24734004901743264 0.04287773430264248
0.4723212641753311 0.24065970443471277 0.04171966046378873
-0.48517902918806377 -0.24721106293232117 -9.339352933856184e-16
0.47553461443318723 0.24229698816922995 -9.15370477551137e-16
-0.48630665123916994 -0.24778561506477084 -0.04295497558511345
0.47756421523854786 0.24333112143187557 -0.04218276503852876
-0.48613727414063596 -0.2476993131225063 -0.08641528203825312
0.4783394429660869 0.24372611968821042 -0.08502914726505227
-0.4871319660230286 -0.2482061339509908 -0.1312560960399239
0.480304096718998 0.24472716077476336 -0.12941634925337114
-0.48564161254260774 -0.2474467609239738 -0.17709693581552832
0.48062982283860317 0.24489312652226727 -0.17526930701147214
-0.48719064571786025 -0.24823603274887615 -0.226486526685614
0.48475396782682567 0.24699448335117155 -0.22535375716911585
-0.44950029430787836 -0.22903183950510192 -0.2570484427302372
0.42839096399433185 0.2182760984885639 -0.24497699238217815
-0.3770976299063704 -0.19214083938132898 -0.25935357209962706
0.3592261987216153 0.18303489037380627 -0.2470622736434424
-0.32322233829252034 -0.16469000720513832 -0.2635612292342845
0.3091552455491942 0.1575224654520139 -0.252090672233894
-0.2754135522393791 -0.14033021400162832 -0.2639996331079724
0.2642354037887388 0.1346346628877992 -0.2532847388487724
0.23108868728337278 0.11774556726113818 -0.2593568969586126
-0.23900326186641593 -0.12177824443312142 -0.2682396316728764
0.1966533056942799 0.10019986397844342 -0.25841722972397474
-0.20443743829128783 -0.10416607763885899 -0.2686461652326925
0.08212899234821189 0.04184681174274723 -0.12686872334359808
-0.08976880937917293 -0.045739492949503226 -0.13867032720581599
-0.0748609016464189 -0.038143534560950175 -0.13710549287276133
0.07337540701048983 0.037386637238856546 -0.13438485406479078
0.06090775124775626 0.031034049332207915 -0.13416084980346366
-0.061533175249043295 -0.03135271877758855 -0.1355384645369128
0.05239908637344031 0.026698668037524607 -0.14197717025018777
-0.05055728918817314 -0.02576022549882399 -0.13698675590068252
-0.04209762901465455 -0.021449813346341773 -0.14541215609003127
0.04231227905279676 0.021559183003510004 -0.14615359273579087
0.031640826170289835 0.016121806176792035 -0.1479153321493734
-0.03164082617028978 -0.016121806176792142 -0.1479153321493734
0.020455303586850986 0.010422497754635263 -0.1449481013870978
-0.021419853466783177 -0.010913960465767602 -0.15178298766466944
0.014201482304979812 0.007236016654932027 -0.14437090414384365
-0.014571932739269239 -0.007424770578978813 -0.14813686765316642
0.01358997255112108 0.008327945890127052 -0.14437090414384365
-0.013873034397513664 -0.008501406412688832 -0.1473779664862143
0.019777047788263637 0.012119390471729071 -0.14644790457829873
-0.020706502505113668 -0.01268896105475524 -0.15333046344858098
0.03074389974988048 0.01883988599722184 -0.1501894514397765
-0.029665035502315276 -0.01817875713601802 -0.14491900654377965
0.03886669356017384 0.02381754044606778 -0.1402929253341004
-0.03886669356017376 -0.02381754044606791 -0.1402929253341004
0.04862944125232488 0.029800159926229246 -0.13769214905671945
-0.04887947696206968 -0.029953382006224206 -0.13840011430018295
-0.061625250726271584 -0.03776400221438048 -0.1418492460666479
0.058583821722333014 0.03590021212369499 -0.13484847274581793
0.07056974170149195 0.043245193333505745 -0.13506207761519304
-0.06986309373014475 -0.04281215889972702 -0.1337096375913028
-0.16791565496883196 -0.10289884570593401 -0.2710593299792032
0.08058858671889936 0.04938474945642486 -0.13009083830837814
0.19031129663591945 0.116622912570424 -0.2613363859785819
-0.19616741749424663 -0.12021154804785045 -0.2693780392488915
-0.22812865220567335 -0.1397974178689383 -0.26755560169804027
0.22055627322048882 0.1351570580587219 -0.2586745058949574
-0.2635543624785886 -0.1615063210445978 -0.2639996331079724
0.2516009360766663 0.15418125192452597 -0.2520260115946987
-0.3086307522527572 -0.18912916822471135 -0.262987103277948
0.29315461271782745 0.17964537772034145 -0.2497997424057448
-0.3594335390812371 -0.22026115603290908 -0.25832838428361543
0.34091116549285 0.20891063089972153 -0.245016174036301
-0.4286476646754658 -0.26267562674746897 -0.25615365443634386
0.4047126181152232 0.24800821135118442 -0.24185041625084652
0.47476485664268114 0.2909362783317772 -0.23064130776491273
-0.47787583832095615 -0.29284269035611515 -0.23215262620533866
-0.47752625510649754 -0.2926284654867745 -0.18197323119299683
0.4711269540828283 0.2887069687759231 -0.17953461871420398
-0.4759621921972994 -0.29167000650331737 -0.1340171589950179
0.4686071865921194 0.28716285327168733 -0.13194620257923986
-0.4768194099337007 -0.29219531020779166 -0.0885728570333487
0.4676926021315305 0.28660239519341796 -0.08687748258803207
-0.47624938377775833 -0.2918459977301698 -0.04395950477641074
0.4662033607640744 0.28568978690971025 -0.04303222127390842
-0.4760420688430858 -0.29171895497480926 -9.575802890504959e-16
0.46428742770980364 0.2845157016240298 -9.339352933856184e-16
-0.47541196450942735 -0.29133282654253295 0.043882208012192336
0.46118288646289557 0.2826132363011115 0.04256881371572362
-0.47764938083834546 -0.29270391703229115 0.0887270304850717
0.4594002549917348 0.2815208383306212 0.085337115601321
-0.47351015258519524 -0.2901673946964696 0.13332673570521553
0.4555401926032906 0.2791553890567133 0.1282669157793698
0.45274291160384394 0.27744121305560354 0.17252892305555373
-0.4727265545174719 -0.28968720518298385 0.18014418616017405
-0.4708768769377525 -0.288553721304327 0.22875252279870809
0.44523856548657553 0.2728425438404666 0.21629740191255076
0.4421291405134817 0.27093708576629266 0.26420998971514775
-0.4683752000607941 -0.2870206917424554 0.27989425588906525
0.4367208779193988 0.26762289818617097 0.31387554724085126
-0.4668877602769679 -0.28610918747061603 0.3355567793212653
-0.4648379455876204 -0.2848530594134431 0.39609268976425427
0.428001543789893 0.2622796833595544 0.3647040529117822
-0.4574526666863053 -0.280327354682084 0.45822552521496795
0.42087028243042757 0.2579096407780422 0.4215813356407911
0.41284868454673385 0.252993999272773 0.4842003717470688
-0.4540759190968956 -0.27825808109794403 0.5325528142823015
-0.4170497685743642 -0.25556842687594883 0.5726947439222941
0.4055186775341397 0.2485021651983841 0.5568601943600183
-0.34516706248196233 -0.2115186479288935 0.5571889810072576
0.3749670972799232 0.22978013273967984 0.6052939505361041
-0.28610918747061365 -0.1753279355760691 0.5475788964629105
0.31168199108092054 0.19099896978341163 0.5965221957123711
-0.23253318093866263 -0.1424965165478991 0.5352457963723409
0.2551041159757194 0.1563280033276617 0.5871996639881815
-0.18571018606337247 -0.11380334838524904 0.525830319293794
0.2050337561861817 0.12564484738618298 0.5805441681297713
-0.14295402899482226 -0.08760234163580655 0.5160057900199094
0.15801790348908118 0.09683349579832878 0.570380238322113
-0.11564234231486833 -0.07086571851289973 0.564933534677825
0.11564234231486856 0.07086571851289936 0.564933534677825
-0.07604663356979734 -0.04660143698696083 0.5631209600018909
0.07801952947892504 0.047810429154991986 0.5777301410554089
-0.03774529954977033 -0.023130349312677274 0.5624875814652015
0.03840468778093253 0.023534422940423502 0.5723139094005234
-0.07766563145999471 -0.05642738422007775 0.534
0.07766563145999492 0.056427384220077474 0.54
-0.035751609501915665 -0.025975064747782526 0.5615052256474298
0.03643980940303822 0.026475071243716945 0.5723139094005234
-0.07190641085776557 -0.0522430655243936 0.5611738858697615
0.07390301916452333 0.05369368637102149 0.5767558684593149
-0.10898080613643679 -0.07917919039442965 0.5610978878077649
0.10879458135830773 0.07904389017334992 0.5601390920952884
-0.13514806694880965 -0.0981908182160268 0.5141337989454372
0.14869957128384748 0.10803656243388006 0.5656867849591949
-0.1755985035838233 -0.12757978070775056 0.5240091269183051
0.1930140540563535 0.14023291877466668 0.5759794296923014
-0.2177361915960591 -0.15819460308046182 0.5282105815159891
0.238056037025295 0.17295783494729586 0.5775049009022827
-0.2668744733417838 -0.19389565452184065 0.5383070598051752
0.2882006525254107 0.20939003065860684 0.5813236610914052
-0.3223285437997476 -0.23418539506055744 0.5483780726763834
0.3439963005326843 0.2499279418135087 0.5852414622364778
0.4077013453341531 0.2962123661102627 0.5900456314354691
-0.3878968462044447 -0.28182355524668645 0.5613835768997553
-0.4501425372940479 -0.32704769700836794 0.5564067756596782
0.414962237754602 0.3014877132449906 0.5129215339601172
-0.4523390432240914 -0.3286435519795605 0.47753513558414884
0.4206441645019641 0.3056158746679603 0.44407479552591383
-0.4579057639754048 -0.3326880113469197 0.4112249973240108
0.42875052738721686 0.3115054920515407 0.3850419635402235
-0.4600591062480381 -0.3342525060853395 0.34847794899236656
0.4320909819662391 0.3139324743660707 0.32729311762065444
-0.462934389821068 -0.33634152188122096 0.29155982470090014
0.43729294322971907 0.3177119204530253 0.27541063415115263
0.44014739220885807 0.3197857990303913 0.225353757169114
-0.46228490679565043 -0.3358696448420375 0.23668807875053718
0.4439878527257176 0.32257605692301516 0.1783156586842734
-0.4652452114575377 -0.3380204320747512 0.18685309929415037
0.4461826369030186 0.32417066096761765 0.1324063332854101
-0.4648011510076571 -0.33769780327290777 0.1379314456047267
-0.46739350227646 -0.33958125671722167 0.09150346504967549
0.449274532653483 0.3264170547224891 0.08795624307171215
0.45108871795720357 0.3277351374993244 0.043882208012192336
-0.4661926569201406 -0.33870879149629796 0.04535152915677036
-0.46683645516175376 -0.3391765382982849 -9.89698173274603e-16
0.45328060562646133 0.3293276371076507 -9.60959630313949e-16
-0.46619265692014056 -0.33870879149629785 -0.045351529156772465
0.45506201253021045 0.3306219049829068 -0.04426873272896406
0.45636209426765384 0.33156646965504255 -0.0893438028971952
-0.46660529918906596 -0.33900859365352476 -0.09134915542982158
0.4585926045707166 0.3331870302493717 -0.1360890366879373
-0.4671299407815062 -0.33938976808239313 -0.1386225225078736
0.4606878229519609 0.33470929550880424 -0.18502274801705518
-0.46676459924617336 -0.339124331919727 -0.18746332012038502
-0.47040877201163833 -0.3417719784132362 -0.24084746622292885
0.46450016469974686 0.33747912391986107 -0.23782228220289017
-0.40884814731575425 -0.297045566521099 -0.25749587151376757
0.38684302664536985 0.2810579105201726 -0.24363686845361557
0.3241445324355973 0.23550478803487493 -0.24552762961580643
-0.34307428532746786 -0.24925805855545324 -0.2598662251856009
-0.2941191073313825 -0.21369003977522466 -0.26413541527681145
0.27879373141920527 0.20255550241735729 -0.2503723702044777
-0.25126600035020863 -0.1825554350962381 -0.2652619652057795
0.23872841275412393 0.17344634450908872 -0.2520260115946987
0.20927207128056188 0.15204505970909774 -0.2586745058949574
-0.2170104205882316 -0.15766729957768183 -0.2682396316728764
0.18057450216015225 0.1311950552927467 -0.2613363859785819
-0.18613100945779892 -0.13523209415166018 -0.2693780392488915
0.15613845626460432 0.11344122873334028 -0.26563860807265244
-0.16023608934409117 -0.11641833342974989 -0.27260991785544425
0.06430199150008031 0.04671813146024765 -0.12970223622585164
-0.06562227276207251 -0.047677371946013916 -0.13236534864480812
0.0573072144235022 0.04163612844019663 -0.13902271750879489
-0.056729940062997995 -0.04121671406696354 -0.1376222960932233
0.04496842290356967 0.032671471656773726 -0.13419171316197712
-0.046378682581097286 -0.03369608528802892 -0.13840011430018295
0.036688724425904665 0.02665591859368885 -0.13957220175925672
-0.037259227045122204 -0.027070413008889037 -0.14174252269353826
0.02800310139883381 0.020345444082299203 -0.14417659039227093
-0.027290289650936883 -0.019827556032990398 -0.1405066123444964
0.019056142966492107 0.013845098284906774 -0.1487184476409093
-0.019153812600485424 -0.013916059427697742 -0.149480683544297
0.013028448185606235 0.009465721680757225 -0.14586863833921745
-0.01316325580280282 -0.009563665147749683 -0.1473779664862143
0.012182623218557152 0.010404943189248452 -0.1451182994964563
-0.01224561386439107 -0.010458742283220147 -0.14586863833921745
0.017099982326645023 0.014604764626954168 -0.14198341964687178
-0.01884280684089946 -0.01609327738273125 -0.15645432257831363
0.047206510083567334 0.0403181684905113 -0.2585845909858142
-0.027837337435874715 -0.023775332238709902 -0.15248546232811905
0.035020449157123865 0.02991028922135487 -0.14174252269353826
-0.034662295868613045 -0.029604397415202773 -0.1402929253341004
-0.04540357662926684 -0.03877831785001759 -0.14415185497936997
0.043368960058404495 0.03704059113451987 -0.13769214905671945
0.05332123447587719 0.04554063649091548 -0.1376222960932233
-0.05332123447587702 -0.045540636490915665 -0.1376222960932233
-0.1270407828966591 -0.10850307893819498 -0.2726329425105041
0.062305665940473265 0.05321406587469725 -0.1337096375913028
0.14675663728784247 0.125342009371114 -0.26563860807265244
-0.1506080577896937 -0.1286314332333441 -0.27260991785544425
0.16925027519714625 0.14455339105525924 -0.26060633430543384
-0.17494704185320248 -0.14941888942579024 -0.2693780392488915
-0.20397101613440843 -0.17420770527475685 -0.2682396316728764
0.195141565278414 0.1666666418354019 -0.2566281356359827
-0.23560631700060491 -0.20122680472340118 -0.26463075492130655
0.223823850171901 0.19116362737788975 -0.25139680121663005
-0.2752446752944182 -0.23508116094562803 -0.262987103277948
0.2602442516699537 0.22226958885420128 -0.24865469901719164
0.300860788273837 0.25695938827799797 -0.2424596025218272
-0.32055187965623366 -0.27377716910340105 -0.25832838428361543
-0.3829464445900775 -0.32706716189129365 -0.2566010369975014
0.36026648830926483 0.3076966492846933 -0.24140387200764374
-0.4567294379526238 -0.3900837914379241 -0.2487927976547846
0.4358958814302518 0.372290253202652 -0.23744419959739818
-0.4587236647939011 -0.39178702206549193 -0.19601155246338517
0.4508618289745479 0.3850723799398947 -0.19265220834745364
-0.45877414599270805 -0.39183013708237197 -0.14484621721905938
0.44928020845477457 0.3837215484022236 -0.1418487489639373
0.44671974651334445 0.3815347073121838 -0.09304695154200252
-0.4578413167494085 -0.39103342564283433 -0.09536345582663065
-0.4568799440412837 -0.3902123357812932 -0.04728688757933746
0.4456578722395742 0.3806277810045661 -0.04612540773191653
0.44178539558365004 0.37732037348783315 -9.964637177243542e-16
-0.45679137646563556 -0.3901366919255738 -1.030310276816718e-15
-0.45613157653510733 -0.3895731695486396 0.047209431848143454
0.4404235186474876 0.37615722070067864 0.04558365427329217
0.43856860307128975 0.3745729731338827 0.09134915542981963
-0.45709965917891243 -0.3903999902366459 0.09520897647674235
0.4346842963713559 0.37125546180505287 0.13724046257593384
-0.45658279828710324 -0.38995854933188023 0.14415435515895417
-0.4565792074050435 -0.38995548242886924 0.19509523082087407
0.43157908399405454 0.3686033598893377 0.1844127363745367
-0.4546450778425178 -0.3883035797263321 0.24765739069385165
0.42340725236867144 0.36162395633323846 0.23064130776491085
-0.453884723504958 -0.3876541757725139 0.30413467045859927
0.421724845624278 0.3601870452277585 0.2825852916081719
-0.451030297275132 -0.38521626546153914 0.36347916001302055
0.41381816901802876 0.3534341054521552 0.3334904137959604
-0.4486798081574575 -0.38320875810474136 0.428698585796138
0.40724865898414175 0.34782321381925385 0.38911250517564183
-0.4400689003301279 -0.3758543480451128 0.49428116696655083
0.4010948364240138 0.34256735282887923 0.45050587229225747
0.3926935485135766 0.3353919750915571 0.5164261805911853
-0.4369738232871598 -0.3732109025226924 0.5746585942975181
0.38516426210290666 0.3289613569928813 0.5930640073416408
-0.3675275775563019 -0.31389820536601637 0.5659075864517021
-0.3051733527059806 -0.2606426662643105 0.5523826801419669
0.33351859588476646 0.2848517909880747 0.6036893268643566
-0.25319531599635586 -0.21624922904230853 0.5433639690816024
0.277572299435008 0.2370691397671226 0.5956776322445209
-0.20601594191568506 -0.17595423688775153 0.5317278798387781
0.2275082734156777 0.19431042210747204 0.5871996639881815
-0.16504739777282537 -0.14096379462377734 0.5240091269183051
0.18285426592759887 0.15617229678336286 0.5805441681297713
-0.12725873817598377 -0.10868923033256099 0.5150697668933519
0.1411562982118064 0.12055886793422528 0.5713190517018994
-0.10278262285503915 -0.08778465298176558 0.5630156189129302
0.1031327524182504 0.08808369187911343 0.564933534677825
-0.06770305010935228 -0.05782386744536353 0.5621473982502735
0.06723410050569142 0.05742334664642063 0.5582536475376723
-0.03360341912973449 -0.028700031244240046 0.5615052256474298
0.03425026748270792 0.029252491928938307 0.5723139094005234
-0.06788225099390827 -0.06788225099390886 0.534
0.0678822509939085 0.06788225099390863 0.54
-0.031193386762973885 -0.031193386762974156 0.5605229212481067
0.03184956127397705 0.0318495612739771 0.5723139094005234
-0.06252145636053408 -0.06252145636053463 0.5582536475376723
0.0644844990011916 0.06448449900119173 0.5757816415770223
-0.09541549161991339 -0.09541549161991422 0.5620567301597414
0.09541549161991372 0.09541549161991389 0.5620567301597414
-0.1295369237706702 -0.12953692377067133 0.5638096937443191
0.129752552556261 0.12975255255626122 0.5647482184215099
-0.1524120546656316 -0.15241205466563293 0.5203673041085506
0.16789840368873157 0.16789840368873185 0.57324100697486
-0.189041393328136 -0.18904139332813763 0.5246939138365465
0.20743366958714637 0.20743366958714676 0.5757426034637535
-0.23143118290525067 -0.23143118290525266 0.5340938261749071
0.2518966068204221 0.25189660682042253 0.5813236610914052
-0.27802304567112057 -0.27802304567112296 0.5411712964963189
0.29983990996467935 0.2998399099646799 0.5836377787504384
0.35862266011972826 0.35862266011972893 0.5938186383882703
-0.3344815078207443 -0.3344815078207472 0.5538449619270008
-0.3984021209782886 -0.39840212097829203 0.5634256827657037
0.395424139374419 0.3954241393744197 0.5592141807930119
0.399623901928816 0.3996239019288167 0.4826867245060459
-0.4022899715504402 -0.40228997155044366 0.48590694333368933
0.4081588956036247 0.40815889560362545 0.4193776721277114
-0.4053247807364196 -0.40532478073642303 0.4164656579382554
-0.40508978177464433 -0.40508978177464783 0.3510634378620753
0.4104610105434137 0.4104610105434144 0.3557183122181911
-0.4071114991272162 -0.4071114991272198 0.2933555088229611
0.4158361908642358 0.41583619086423645 0.2996423280096543
-0.40727896055938523 -0.4072789605593887 0.23857849142647114
0.41825578452134743 0.41825578452134815 0.24500856603160578
-0.40730320827260036 -0.4073032082726039 0.18715820329788
0.4225822474228857 0.42258224742288647 0.19417901103375035
-0.40625110234520445 -0.40625110234520795 0.1379314456047267
