0.38578940335949413 0.3857894033594948 0.5902144292636794
-0.39827672195448127 -0.39827672195448477 0.5206614115703053
0.4003374524459196 0.4003374524459204 0.5233553748058976
-0.3672108136506113 -0.3672108136506145 0.5617912750088861
0.4011547702963935 0.40115477029639424 0.447237856779695
-0.3084368057133621 -0.30843680571336474 0.5533113714380666
0.40958466544223066 0.4095846654422314 0.3870359203861466
-0.25656639989798535 -0.2565663998979876 0.5430279595810634
0.4133021045089315 0.4133021045089322 0.32733429520442237
0.3772129395755635 0.4080666590359506 0.5557049576888795
-0.3667346278632529 -0.3967312852876641 0.5402684517904034
-0.37060864069471694 -0.40092216875782477 0.3966744887699945
0.2353886716688113 0.2756047240912352 0.5914551625513016
-0.14071885376791068 -0.16476060887801366 0.523098600606417
0.32645005298049634 0.38222390288963043 0.5885365332490835
-0.21289520972377077 -0.24926826393251741 0.5349364095598097
0.36165176641988067 0.4234398137965516 0.47560353650632337
-0.3059530326249979 -0.35822497549979776 0.5515837277836761
0.36493466347087883 0.42728359238430486 0.3443420146838889
-0.33865505757765557 -0.3965141272266188 0.4453608636676416
0.3687339546816272 0.4317319908499448 0.23517601651016823
-0.34139521014487334 -0.3997224336710279 0.3221308530865188
0.37063244895355574 0.4339548420444995 0.1370101560061277
-0.343273853927236 -0.4019220429284872 0.21893773685259033
0.37232649662393114 0.43593831702433244 0.04511943773743641
-0.34387220139039554 -0.4026226177961122 0.1271178065808608
0.3723264966239311 0.43593831702433244 -0.045119437737438504
-0.3442714670163993 -0.4030900977810824 0.04171966046378873
0.37125546180505176 0.43468429637135614 -0.13724046257593578
-0.34427146701639927 -0.4030900977810823 -0.041719660463790664
0.3705119982610841 0.4338138124034811 -0.23631004065112382
-0.3432506071673702 -0.4018948244697849 -0.12688802442954364
0.25858491474414164 0.3027640352314268 -0.24399340326563826
-0.3420909046020704 -0.400536987224384 -0.218183259792659
-0.2754069773408652 -0.3224601399239211 -0.2598662251856009
0.32314433294466005 0.40990663220422385 0.3792285497701113
-0.30626853616567684 -0.3884997860423271 0.4947044572267361
0.31364181784598727 0.3978527492656863 0.5066142516747822
0.29964056364059605 0.4124198544347094 0.401877339855333
-0.28061033964838095 -0.38622699818931033 0.44130663166566486
0.2904325628100719 0.39974612856789243 0.4567537182711879
-0.2795350551175408 -0.38474699600169954 0.5144724502129359
0.28586000476935375 0.39345254235034277 0.5261132526284782
-0.2520639847189512 -0.3469363113690897 0.543976969605529
0.2783962581993412 0.38317957651239887 0.6008044070780313
0.23299375102721118 0.3206883864966161 0.5932435172409952
0.1929707691027692 0.26560147777246945 0.5862244768661287
0.269007313359697 0.4025978953732846 0.4842003717470688
-0.255012183664818 -0.38165270362268033 0.45900980381686796
0.2748849690520069 0.4113944287533592 0.3594786193641764
0.18856546984779068 0.3077108801053509 0.5889219624414361
-0.11202997917106315 -0.18281631051930453 0.5176364364832141
0.2404307590442863 0.39234733978407504 0.5387732501430895
-0.16858258849229513 -0.27510178145169323 0.5265120328153406
0.24887563913857846 0.40612813161354605 0.40681427820991517
-0.2306846235018459 -0.37644309205616094 0.5169334608274149
0.25136492661015086 0.41019027957378007 0.2948077478857325
-0.23396762132216645 -0.3818004575880912 0.38244550299143487
0.2547845424999709 0.4157705855329153 0.2019818237087123
-0.23601457729148909 -0.3851407861401087 0.2768044330521076
0.2561765730109076 0.4180421728707222 0.11770856018961585
-0.23724385848658025 -0.3871467907322739 0.188076351613116
0.25753204408760727 0.4202541006340888 0.03879094183300921
-0.23874368166494916 -0.3895942797162902 0.10969845795365828
0.2580430380965929 0.4210879670697647 -0.038867910658190834
-0.23967409113568103 -0.39111256998082455 0.03610107534797064
0.2581719369755561 0.42129831092286985 -0.1186253942957676
-0.24018354033392153 -0.39194391551447977 -0.036177811484967765
0.25858288616568936 0.421968919052113 -0.20499298118768236
-0.23973846480071143 -0.391217618254711 -0.11015554303851077
0.2084745831471439 0.3401996002321387 -0.2445047651550323
-0.2391378636298143 -0.3902375262206911 -0.1895778344314648
-0.22200952293723478 -0.36228661456378813 -0.26037891741285557
0.20747846500053846 0.37047945707798624 0.584439610605083
0.14838712376288113 0.29122612797872444 0.5836339639567758
0.17646011363652694 0.34632247282568157 0.5817109016610305
0.19273960242396218 0.37827276854415537 0.5385333399478559
0.19699695499829847 0.3866282934321872 0.46941534107772087
0.1675332460955223 0.36340770365290953 0.5507807661660094
0.13731533084812375 0.33150853405529024 0.5855446966394476
-0.15748244314960527 -0.380196250087432 -0.2521806723741654
0.1556810843204967 0.37584738517149396 0.4763183211304653
-0.15715120107717723 -0.37939656098374774 -0.17009923431252127
0.1613203171141768 0.3894616974633756 0.36003797229615603
-0.1574161048565575 -0.38003609528065135 -0.09875594268511137
0.16356275192104588 0.39487541398685644 0.26191722664369194
-0.15730588927320915 -0.379770011324547 -0.03235113133289601
0.1654463659316815 0.399422860477609 0.1790778560511732
-0.15693489467837027 -0.3788743511421198 0.032274833522832336
0.16758003737514726 0.4045739990140722 0.1051323470445983
-0.15596686320601566 -0.37653731643275734 0.0978467521959398
0.1680851997716565 0.40579356892292573 0.03456797706717983
-0.15508062419270657 -0.37439774618732224 0.16785805804266282
0.1684575576254826 0.40669252030368874 -0.03464455524163898
-0.15364715777128288 -0.37093705211151473 0.24603913160232424
0.16903456394404404 0.40808553678353476 -0.10604485305917084
-0.1518716704432695 -0.3666506465244032 0.338950290042667
0.1692546158897883 0.4086167891753772 -0.1831998761025936
-0.14880819178737031 -0.3592547548052909 0.4552901747311967
0.15268897261565054 0.368623788513519 -0.2445047651550323
-0.12248415339385768 -0.2957029042992417 0.5223010861144972
0.11110483659270703 0.34194552648192283 0.5380938321563522
0.10010593749248314 0.3080943957941119 0.5784536667348666
0.08002304322187352 0.33331996353400756 0.5593845854715679
-0.0797817273053014 -0.3323148104021952 0.5576977163083381
0.08584161539529604 0.3575560608702191 0.4305402192609867
-0.0828549004462165 -0.3451154977794971 0.41556029486039386
0.08880932944433112 0.369917479516359 0.324916852982286
-0.08428440395024356 -0.35106980839616464 0.3083620094684694
0.09041810094127577 0.3766184950627106 0.23735011312167584
-0.0855608313797985 -0.356386511275027 0.22459964094987486
0.0916587436669038 0.3817861439225334 0.1626346058444127
-0.08620543055066252 -0.3590714600532274 0.15295852483212055
0.0935972186826282 0.38986047345985636 0.09625680177801992
-0.08720872717339465 -0.36325049124522607 0.08968678004532414
0.09347234172717221 0.38934032350600595 0.03151243919910577
-0.08760879649697613 -0.36491689990676035 0.029535655381096308
0.0939243679075899 0.3912231480513746 -0.03166483131065178
-0.0878338476102971 -0.3658543052573348 -0.02961152712448375
0.09425962376377234 0.39261958919205275 -0.09693802922783105
-0.08786827499959887 -0.3659977056540783 -0.0903650690507428
0.09439217847107828 0.39317171928391864 -0.16748467332508868
-0.0876717159041556 -0.3651789780990192 -0.155560226873636
0.0937281669856137 0.3904059123961756 -0.2460391316023257
-0.0875021364341084 -0.36447262877141956 -0.22969562250055536
0.029800584924254057 0.3786523333053417 -0.23275595721826917
-0.027518819359407636 -0.34965975287846246 -0.2149343429934751
0.02981805810695392 0.3788743511421187 -0.15742016852159968
-0.027637992559935563 -0.35117399196343557 -0.1459108246009249
0.029679655320328607 0.37711577699920035 -0.09081744765382843
-0.02768815904161028 -0.35181141755048817 -0.08472362321101823
0.029520244668705165 0.37509027262254585 -0.02961152712448375
-0.027708889310351235 -0.3520748205893467 -0.02779457069583983
0.029368982469025622 0.3731683041445734 0.02945979719205847
-0.027558340925815446 -0.35016192199273444 0.027643556785816488
0.02923628186736192 0.3714821831312208 0.08946075921114426
-0.027467504154756114 -0.3490077313820815 0.08404843633906178
0.028550948317697635 0.3627741947366169 0.1507306438099412
-0.02707717395790813 -0.3440481159862193 0.1429500630877309
0.027648937308617477 0.35131305818096054 0.2159506226368545
-0.02673887376609615 -0.33974960448676894 0.20884261749174868
0.026926575903255798 0.342134586270924 0.2931141149575534
-0.026343926481299903 -0.3347313234261512 0.28677157923149443
0.02584283063555716 0.3283642970176844 0.3856540373817237
-0.02574276998608824 -0.3270929059195101 0.38416082659554707
-0.02482875273600316 -0.315479215607533 0.5164072013026445
0.024585924576317465 0.31239379129484585 0.5113566773526673
1.767837037952301e-15 -0.34357798098166065 0.027040173530612395
1.7678370379523008e-15 -0.3435779809816606 -0.027040173530613654
-0.023211147557950403 0.294925593032872 0.4827630238566866
0.017953054003454524 -0.2281151798074804 -0.26791445013912546
-0.02529267983560436 0.3213739683176986 0.3774441055765323
0.026414300047830717 -0.33562550437046623 -0.20630755092592548
-0.026343926481302123 0.3347313234261511 0.28677157923149443
0.02644723649715264 -0.3360440016388332 -0.13962439845608504
-0.026803817759520267 0.34057479616357167 0.20934985925874425
0.026512943318298347 -0.33687888596087373 -0.08112755407604325
-0.027357483836713357 0.34760979069586156 0.14442991895900023
0.026335354972727487 -0.33462241208329196 0.05316286683409773
-0.02776174024473037 0.3527463553820362 0.08494877599632826
0.025888225368178547 -0.3289410917842886 0.13667317923808836
-0.02801017960892415 0.3559030768080074 0.02809679264381323
0.02550685634810899 -0.32409533893525083 0.1992200079301319
-0.028236312605437477 0.3587763689593103 -0.0283236248884366
0.025122495471252223 -0.31921157094133334 0.27347547092648555
-0.02827721085127064 0.35929603044421693 -0.08652607614760496
0.024493298741467245 -0.3112168684733543 0.3655148958584317
-0.0283400955540923 0.36009505635304234 -0.14961747683370477
0.02361526196338386 -0.30006035340513637 0.49116810128181715
-0.02849553402960343 0.3620700894467656 -0.222562923391069
-0.023036472837074533 0.2927061402671892 -0.2507676940299754
-0.01625536928191283 0.10263236242527798 -0.12166495449600527
0.05169397259158636 -0.3263828977496859 0.07933433843058396
-0.06854218409630362 0.2854987436578261 -0.2507676940299754
0.07396787839257261 -0.3080983868626511 0.19416780623659982
-0.08323432964238624 0.34669593412305844 -0.21849250703747822
0.07515939346727252 -0.31306140432935775 0.1333589992949937
-0.08265096439809785 0.3442660430051453 -0.1466516611486001
0.07538232451835061 -0.31398997898515935 0.11482507673461109
-0.08216381472430387 0.34223691858089167 -0.08449851543196732
0.07702722207787406 -0.32084147041166444 -0.1366731792380895
-0.08199644496296846 0.34153977335248115 -0.027643556785817775
0.07666329766887292 -0.3193256161545218 -0.20124335928936588
-0.08110116038259117 0.3378106446956702 0.02734172845474308
0.04315979623368486 -0.17977348932931242 -0.21646876107981583
-0.08041432878617809 0.33494978520503993 0.08269931751209388
-0.0778585183790756 0.3243040687039414 0.13814818905032542
-0.07569988968044591 0.31531273308182867 0.19871438563635963
-0.07371225571835296 0.307033641796499 0.2696828621957489
-0.0702048925229588 0.29242442268510027 0.35211394474392177
0.101826862543568 -0.3133908584925403 -0.07911042837604865
-0.10789549106527012 0.26048275784867864 0.4600916168235744
0.12567297719589493 -0.30340140597012943 -0.20124335928936588
-0.11776164291307296 0.2843017554480765 0.36030085665670575
0.12626955294131836 -0.30484166722571354 -0.1366731792380895
-0.12366832449710222 0.29856174623685927 0.27600548762674404
0.12322700745231766 -0.2974963126420311 0.11450348727764323
-0.1259889967074911 0.30416434456100244 0.20174940943263156
0.12252805801121809 -0.2958088994219154 0.13262341430831415
-0.12899612397277754 0.31142419198863885 0.1396243984560839
0.12093923111847717 -0.2919731319891972 0.19366309037317977
-0.13146383786864768 0.31738178034410497 0.08247463148418582
-0.13258119740901814 0.32007932490051433 0.027266313737320285
-0.13368154775758587 0.3227358056353885 -0.02749260900702304
-0.1343311435899491 0.3243040687039409 -0.08427345301983338
-0.1351462171131703 0.32627183025803264 -0.1462812113023181
-0.1361272139828764 0.3286401662055226 -0.21798399659072815
-0.10560985410510285 0.2549647421007816 -0.2357022252788056
-0.10048273328769768 0.19720846797230654 -0.25914675469904913
-0.1537963216421295 0.2509727869459096 -0.25139680121663005
0.15430565623917175 -0.2518039454674043 0.48192275055204326
-0.19020015559465744 0.31037844479929827 -0.22307201038170857
0.1611187073602029 -0.26292183443375355 0.36104552499174836
-0.18873094462227613 0.3079809103952697 -0.14961747683370477
0.16498313429170358 -0.2692280060417089 0.2696828621957489
-0.18733089931070884 0.3056962440915319 -0.08607520265309647
0.16856986316555161 -0.2750810156057712 0.1977034043349903
-0.18603209865057702 0.30357679404305177 -0.028021213217927148
0.17100827248377964 -0.27906013796563206 0.13556773266790226
-0.18402608177525556 0.3003032720206497 0.027719055541966277
0.17461075216750233 -0.2849388505153621 0.08023052221245536
-0.1814513709766618 0.29610172586009575 0.08337366438727858
0.17439051835460834 -0.28457946159622827 0.052862814393596746
-0.1761254445042063 0.28741060376049543 0.1396243984560839
0.17607478280671413 -0.28732793138396806 -0.08090321814475702
-0.1702941682515762 0.27789482576952707 0.19972571709729334
0.17612544450420692 -0.2874106037604945 -0.13962439845608504
-0.16536970746192278 0.26985883612173156 0.27031475805250166
0.17633827259246998 -0.287757907635395 -0.20681441006951912
-0.15779692592128558 0.25750117978838505 0.3536018560151829
-0.14919653394997132 0.24346661564002703 0.4659660946100116
-0.1938034530085059 0.22691468886611982 0.48696503527334667
0.22940373143243248 -0.26859725941225804 -0.21645886500926806
-0.21143057639687543 0.2475533986372044 0.38117505976605354
0.22993606141642892 -0.2692205377430489 -0.1466516611486001
-0.2214383162322825 0.2592709564812578 0.29121065095477777
0.22979882514489108 -0.26905985471406396 -0.08494877599632948
-0.22724962024959386 0.2660751192684749 0.21442630669458962
0.2293613495932676 -0.2685476366542608 -0.02779457069583983
-0.23226035918285315 0.2719419407743847 0.14813408250673823
0.22873819704320936 -0.26781801876140315 0.027719055541966277
-0.2371168331950257 0.27762814126437374 0.0876539935978469
0.22797197802706046 -0.26692089155879806 0.08427345301983218
-0.23997462370015266 0.2809741840373421 0.029080713273920103
0.22297279817260168 -0.2610676039952865 0.1422105390582588
-0.24247696115807457 0.28390404476421716 -0.029383952662346738
0.21971976326321793 -0.2572587894830856 0.20732134686339668
-0.24445068758724492 0.286214981497436 -0.0903650690507428
0.2161351198942923 -0.2530617113499109 0.2842364863928175
-0.24682007182100396 0.2889891739994867 -0.15742016852159968
0.20977492195202635 -0.24561487634881904 0.3781901831568022
-0.25046196861078973 0.29325328727563404 -0.23632882130972138
0.20150139718544097 -0.2359278234656413 0.5063074649331968
-0.21471887686223892 0.21471887686223778 0.5422209953866024
-0.19392579347559255 0.19392579347559155 0.5948996329211543
-0.25044622699978425 0.2139012852277134 0.5374643500358929
0.25712378320816015 -0.21960445701138273 0.5517945655490444
-0.2708572080003242 0.2313339098716362 0.41705754401253897
0.26939867144292395 -0.23008820196891716 0.4148117345730451
-0.28417479915479454 0.24270820725356837 0.31918240812596654
0.2756738205895275 -0.23544768565343369 0.3096341905572041
-0.29071948531069547 0.24829789729174348 0.23428686489255685
0.28059516974240806 -0.23965091491133092 0.22612781717292382
-0.29787742333384065 0.2544113539050563 0.16226183677065942
0.2835272082449134 -0.24215511236535592 0.15444488900629708
-0.30559510250033767 0.2610028746177651 0.09648384719252953
0.2869313368203596 -0.2450625128324788 0.09059123994466878
-0.3066779630885233 0.26192772493118405 0.03174104390609024
0.29050391444809204 -0.24811378238164394 0.030067036478673623
-0.31036131322185073 0.26507360313785827 -0.03212226914029515
0.291971942409394 -0.24936759670911218 -0.030218976773001303
-0.31279155325504393 0.2671492242112487 -0.09875594268511137
0.29194904095192864 -0.24934803701662206 -0.09217545184704218
-0.3170685581684758 0.27080213149944315 -0.1727157636011323
0.2924059477646749 -0.24973827230044526 -0.15928137700381337
-0.30974705172239786 0.2645489742553518 -0.24962092093757576
0.2932532872756361 -0.25046196861078734 -0.23632882130972138
-0.22606519142143774 0.19307791364865015 -0.2539142542053776
0.3216011110178794 -0.2148869923132566 0.532365763293084
-0.3473181287845092 0.21283682305443222 -0.24962092093757576
0.2909555849332549 -0.17829781176081091 0.5568543237844651
-0.41499601317515594 0.25430988394866344 -0.2016055355756464
0.347960641969695 -0.2132305556407027 0.47782122366131347
-0.4074664291601864 0.2496957489299243 -0.11473073726674565
0.3556000128719672 -0.21791196815050828 0.35620079306793895
-0.402758498607764 0.24681072537689186 -0.03717603580469934
0.3608599672530956 -0.22113527234084385 0.2593535720996255
-0.3977655435190772 0.2437510385633973 0.03671516836728809
0.36476977215308454 -0.22353120386503036 0.17720557051638383
-0.3912176182547111 0.23973846480071237 0.11015554303850922
0.3685190988326842 -0.22582879420928306 0.10376429781735028
-0.38096827924410237 0.23345766177709806 0.18507482369938327
0.3736737158065401 -0.2289875475534214 0.03449140734737686
-0.3694230493272222 0.22638273578477724 0.2655079425636387
0.37450325840620485 -0.2294958919122916 -0.034567977067181434
-0.35687677250161287 0.21869436745782211 0.3574797097613445
0.3758081797592946 -0.23029554874592562 -0.10581669175427229
-0.3392074210177965 0.20786657494261804 0.4658012586372866
0.3771087831476339 -0.2310925595273574 -0.1831998761025936
-0.29051492828900105 0.17802777702191447 0.5560109594692105
0.355155595800806 -0.21763962901903788 -0.2552537847943298
-0.2399035730315769 0.13435245633675807 0.5396440429792236
-0.3506661473065186 0.1963824783825836 0.5531836723164533
-0.3330884959304358 0.16971706561037725 0.5594820564767051
0.40637192323837784 -0.20705683684994644 0.4933865891136855
-0.39466511093016887 0.2010919180464614 0.5618705284234732
0.39794513059229436 -0.20276317153915452 0.566540174484798
-0.4087665114447924 0.2082769404821759 0.49629392015683466
0.33259855056422166 -0.16946742597742764 0.5586591050857079
-0.4454463096535212 0.20535356148861825 0.4905022935726189
0.44353846488015664 -0.20447403300114772 0.4884014741992489
-0.2270575367610603 0.09405031116545798 0.5933299368561141
0.3181305395501476 -0.13177398408673904 0.5619150976112313
-0.31049135079888984 0.1286097285004414 0.5484219714910439
0.44951453832493227 -0.186195018258064 0.569678062602381
-0.4489194796511188 0.1859485368849645 0.5689239337733207
0.47967078679377 -0.1986861453641492 0.4434317894975302
-0.491497917951743 0.20358510349374892 0.45436538411782784
0.48487743421143253 -0.20084280933903986 0.3216147380474655
-0.5058969348772012 0.2095493715891134 0.3355567793212653
0.4883280325578978 -0.2022720939724479 0.21893773685259033
-0.5194887499103227 0.21517928571309874 0.23290838052034746
0.4927167514562842 -0.20408996086160267 0.12803706771820325
-0.5290198941445454 0.2191272149198479 0.137470779734331
0.4988089375386072 -0.20661342696140142 0.04249159482617105
-0.5396490227333222 0.2235299441375268 0.045970602963682314
0.5006219361587002 -0.20736439557840758 -0.04264603713261112
-0.5469190329433219 0.2265412809650995 -0.04658990687942782
0.5024490565075015 -0.20812121360696897 -0.13056609843862202
-0.5556273120927845 0.23014836829373778 -0.1443849667668954
0.5026385969359741 -0.20819972382306032 -0.22535375716911585
-0.5439459428786818 0.22530978673816898 -0.24387355581493997
0.38405703380368855 -0.15908163212626714 -0.25474149466852747
-0.3794242855029174 0.15716268494902835 -0.2516686353724141
-0.5434635798434602 0.20049429970408236 0.2951514410771197
0.5280116155175233 -0.19479376910463575 0.4088962232603586
-0.5280116155175225 0.19479376910463778 0.4088962232603586
0.5253084011566 -0.19379650067608825 0.5599160651383379
-0.5049008100409751 0.18626774283264305 0.5381640084583876
-0.362860386948261 0.11790048670218262 0.5710059674111532
0.3581522883753916 -0.11637073274404978 0.5635971885061912
-0.42826651310681435 0.1391522253453907 0.5712105145502459
0.4265156492890137 -0.1385833352055639 0.5688752588352509
-0.5079910303840796 0.16505629128143454 0.5778222336997249
0.5022247321965451 -0.16318270742595034 0.5712632688763084
-0.5661812597824363 0.18396344294127154 0.5503064898148732
0.542610616911024 -0.1763048768194757 0.5273967281137679
-0.566212485219293 0.18397358870072977 0.4693369154907447
0.5462150123434701 -0.17747601588848935 0.45276089061995106
-0.5704774190044807 0.18535934969066636 0.40079723787501287
0.5493237386532376 -0.17848610229673026 0.3859354109678855
-0.5714979123520726 0.18569092807917364 0.33652491052865297
0.5526053903184929 -0.17955237555894715 0.32540010298413385
-0.5734736389210254 0.18633288055579705 0.2779802926224382
-0.5617599867528762 0.15843270184934025 0.29739669848222344
0.5432097031017311 -0.1532009807794366 0.4100605783836671
-0.5478374920857095 0.15450615225766814 0.41355402449954504
0.5348411464509166 -0.15084080370731798 0.5557049576888795
-0.5361920960861796 0.15122181090937153 0.5571086070058509
-0.3378439648729959 0.08110915984941393 0.5669768598341701
0.33734123339953426 -0.08098846470111369 0.5661331652834317
-0.47999768574550716 0.11523724875510712 0.5779745653385717
0.47686561943297995 -0.11448530616143746 0.5742031832687122
-0.5546711207801832 0.13316475437448153 0.48719513130247866
0.535610542399429 -0.12858871436947916 0.4704532807914025
-0.5570546476688476 0.13373698855214616 0.3510634378620753
0.5431086008389667 -0.13038883893515352 0.34227444890888714
-0.5636158963106918 0.13531220498409616 0.24009108398322
0.5485287244949434 -0.13169009549654115 0.2336641974117181
-0.5651832251575267 0.13568848734871478 0.13954410199486877
0.5521220942343601 -0.13255278724449632 0.1363193003649146
-0.5670165848909241 0.13612863807845627 0.04589320596273712
0.5555451313897376 -0.13337458575704444 0.044964729102887936
-0.5670165848909241 0.13612863807845627 -0.045893205962739256
0.5584123702113309 -0.13406294889531886 -0.045196797767705285
-0.5651832251575262 0.1356884873487146 -0.13954410199487075
0.5614506326706065 -0.13479237117630144 -0.1386225225078736
-0.5636158963106909 0.13531220498409596 -0.240091083983222
0.565391510160707 -0.1357384921538115 -0.24084746622292885
-0.4017762518132007 0.09645794396317199 -0.2532048746081581
0.40421450443085527 -0.09704331662594105 -0.25474149466852747
-0.291949040951927 0.07009076346636754 -0.25643330977849155
-0.10263236242527808 0.016255369281912277 -0.12166495449600527
0.5347178142448726 -0.08469098174072977 0.36174064844993203
-0.532281165118821 0.08430505443263468 0.36009223687391684
0.5319031008882563 -0.08424517494106809 0.424545453119694
-0.5272954417592114 0.08351539342870998 0.4208677894070843
0.5253864326112037 -0.0832130360832265 0.49171606344910557
-0.5217922313750921 0.08264377053203308 0.4883522033009079
0.521568911889038 -0.082608400200219 0.5712632688763084
-0.5189077404839835 0.08218691205662364 0.5683485447789971
0.4471866527427977 -0.07082740771526763 0.5743244517909958
-0.4611325056894696 0.07303621382907607 0.5922351928634982
0.374120157947817 -0.05925481183068949 0.5668897376845079
-0.3795535784620703 0.06011538109788864 0.5751227886565552
-0.3494656907756504 0.02750354634068679 0.5720395842154484
-0.49596900506787367 0.03903360723094778 0.5825007498008253
-0.5326063197322785 0.041917026428506934 0.45629537700554224
-0.5383279559867957 0.042367328967567036 0.33090787424785234
-0.5423749658429083 0.042685835550779136 0.225353757169114
-0.546946004814 0.04304558411976589 0.13171615506760034
-0.5499838814746675 0.04328467019808308 0.04341851498960014
-0.5490051329561557 0.04320764101912414 -0.04334124762113291
-0.5479012677985821 0.04312076494711886 -0.13194620257923986
-0.5478279687954397 0.04311499619046302 -0.22761944932048137
-0.41525227690200756 0.03268106295499564 -0.2552537847943298
-0.29931927488327326 0.023556937818819713 -0.25643330977849155
-0.4242928653450387 0.01667051208199597 0.584439610605083
-0.38648565807254487 -1.3257420416870533e-15 0.5784166630589337
-0.4515334461164927 -1.548872151504539e-15 0.572767445861027
-0.5146008105819957 -1.7652089153246941e-15 0.5566920205538725
-0.5173821915669392 -1.7747497446638164e-15 0.4782631784377626
-0.521432109836139 -1.7886419727523083e-15 0.4110639303464033
-0.5322360140754866 0.03138760021486644 0.35624660542072567
-0.5283475444374915 0.041581853543824696 0.4178035683700329
-0.5150620529013553 0.040536262683926794 0.47759071710897116
-0.5130144680223098 0.04037511425907764 0.5566920205538725
-0.4654413433620374 0.03663102814933403 0.5922351928634982
-0.3852942517717749 0.030323315244151623 0.5784166630589337
-0.3152413091844023 0.02481002909443863 0.5646444717165282
-0.5476390349563409 0.1089321769126752 0.47689125408750493
-0.5527727841119442 0.10995334311074956 0.34537589881736064
-0.55379498652063 0.11015667181180246 0.316216097882385
-0.5591133707783066 0.1342312442415546 0.3220158562653151
0.36724814743648837 -0.08816847951102114 0.5652434143138529
-0.5488253116426003 0.13176129977091142 0.37713358002580843
0.4372673532817727 -0.10497860356213172 0.5704320770679876
-0.5463460009969342 0.13116606994772578 0.4429430090758023
0.518720122316716 -0.12453368327567968 0.5770934035609174
-0.5342284909358503 0.12825691316912 0.5078681755108632
0.5335203678575475 -0.12808690785920343 0.5071949931892222
-0.5337906977296936 0.1281518083194522 0.5938599203867032
0.5387798413403677 -0.12934959572637364 0.43680884223041083
-0.4503983223140944 0.10813107031293227 0.587561931109929
0.5416229569889102 -0.13003216740319695 0.37218437353416134
-0.3725969902352676 0.08945262305266781 0.5734759899914009
-0.5570006505523849 0.15709043021904542 0.49428116696655083
0.5359530100343972 -0.15115438166903247 0.47560353650632337
-0.5619354655858925 0.15848219199867047 0.3577875449705632
-0.5501450576622905 0.20295922700732613 0.3593396272363288
0.5298017779028079 -0.19545419487575663 0.5220083656767329
-0.5395752174091593 0.1990598070680066 0.3842847615608854
0.5309295945417932 -0.19587026840048688 0.4833307393456455
-0.5245632343980486 0.19352159414516615 0.47753513558414884
0.5358908860223861 -0.19770058545929656 0.3500291941927034
-0.5195501919051501 0.19167218512995665 0.5119075810523122
-0.49394822349102585 0.2046000532800778 0.4214806884162653
0.483894300400803 -0.20043558198104955 0.4129017843453033
-0.47463854943318445 0.19660172440031604 0.4749010521727497
0.47867092477469864 -0.19827198895534812 0.47893565765249224
-0.463612061710228 0.19203440364012708 0.5428550856862009
0.480406229039505 -0.19899077551667477 0.5625198008597698
-0.42396737417995334 0.1756130363890439 0.5821105797708679
0.4131939020429765 -0.1711505181160579 0.5673185167638232
-0.349950427094856 0.14495421306094516 0.5668897376845079
0.3463936323252623 -0.1434809404288004 0.5611280346036704
-0.256931441276264 0.10642448757669408 0.545803135688812
-0.4354245652169626 0.2007334740217879 0.5613835768997553
0.4395183825038818 -0.20262074964116708 0.5666616479487764
-0.45783076049132676 0.21106287152556125 0.4305757297053769
0.4469011482845185 -0.20602425128397844 0.42029676604139476
-0.36614688809021384 0.20505210978456492 0.4913523060032904
0.37231191615676146 -0.2085046913933276 0.4996254904972863
-0.2972802895336381 0.16648496149780076 0.5560109594692105
-0.2609695884214428 0.15992236946521274 0.5465315266878708
0.34631161220263934 -0.2122200288997848 0.515216388119966
-0.31452673455664215 0.19274223082738823 0.5520764129219953
0.3168705402621778 -0.1941785168109858 0.5561904029404331
-0.3463116122026387 0.21222002889978606 0.515216388119966
0.17502142683698943 -0.2856090106676256 0.026362723178845637
0.17592767152761968 -0.2870878675949821 -0.013229159861306662
0.12513807688878648 -0.3021100423941907 0.05839506826056887
0.125031127431912 -0.3018518435649159 0.0784390317990129
0.11276160117135152 -0.3056536945534602 0.07821534572635423
-0.07353292659055881 0.30628668222172756 0.34075412983650544
0.07566444277942813 -0.3151650861131638 0.10531315489605639
-0.07450108060022087 0.31031933389558497 0.3191371178662862
0.07633699664233558 -0.3179664745637055 0.05839506826056887
0.06768650910868909 -0.2819346008286387 -0.26802316567840834
0.05838285357757973 -0.32693315355780633 -0.026137243789021325
0.05804730199659497 -0.32505412692874847 0.025987021712870033
0.026293051383503095 -0.33408489401753183 0.08045470177832391
0.026492697685217434 -0.3366216408019342 -0.0132667973970111
0.02274888740527943 -0.2890520208916492 -0.26802316567840834
0.04490046483161474 0.32462056547506424 0.49045431665809053
0.05660918961131794 0.3170009642537931 0.5750006854897786
0.10111523634926431 0.3585275840722072 0.4725311422936894
0.10269031533936722 0.36411239290451736 0.4092601427806619
0.1609844588384038 0.38865086385896913 0.3316315878112086
-0.15108392091667694 -0.36474885093355053 0.36495057827478217
0.15550994532997192 0.3754342190995182 0.37564185607118417
0.1462172596638396 0.35299969133347137 0.5718292847475296
0.12415517154813734 0.2997370989902725 0.5793169813381516
-0.15884979992579387 -0.36316081710217707 0.42880410677279485
-0.15663655211363048 -0.35810091218388107 0.4958031133777059
0.21855544635732357 0.3902588305137501 0.5237094252289062
-0.20693517766857833 -0.36950934774263533 0.4958645724127568
0.23722284900402024 0.40474107518333463 0.31346767292633887
-0.222098936203085 -0.37893720024578575 0.3462595281105537
0.23850068027657637 0.40692126484604496 0.26414486503376366
-0.22273612785446417 -0.38002435367624093 0.29432483408872456
-0.22462117506725707 -0.38324055329141465 0.2487730009954758
0.23760007797630214 0.3877280881075616 0.49193305706987217
-0.23093287196006487 -0.3768481967215327 0.4781291094212999
0.23207820394255327 0.3787172086494758 0.5634269989338001
-0.2224649889692613 -0.3630298675765805 0.5400885519340667
0.20567645583161867 0.33563347145149774 0.5891242384743315
-0.18499036971200866 -0.30187684691712313 0.5298725624234474
0.17103169942661767 0.27909836726183074 0.5844974415538732
-0.1387512695444366 -0.22642149329735273 0.5211778895663207
0.26387347150665497 0.3949145580714086 0.5561063593039471
-0.25171709974944684 -0.3767212620464696 0.5304871274742133
0.2729807151409669 0.40854451137651837 0.419654514315345
0.3293539648780857 0.4177835127605486 0.45436538411782784
-0.3074523977752378 -0.39000150733494254 0.42415073662405645
0.3225602075169538 0.4091656726315337 0.48162575187234785
0.3644235069367056 0.4266851049780525 0.37493376585981336
-0.3396524251819091 -0.3976818946533137 0.41228914699880026
0.3553052964004118 0.4160090521279101 0.4312894792334416
-0.33554040411064556 -0.39286733656617917 0.47759071710897116
0.35066479910586285 0.4105757278840411 0.49911799240313376
-0.3328946434889185 -0.3897695488901924 0.5545068575719527
0.34645433183536534 0.40564590410724805 0.5770934035609174
-0.2801001105534991 -0.32795509290964175 0.5470880962903014
0.3068042124433793 0.35922157902083074 0.5992462201739608
-0.23350437224700216 -0.2733984929307859 0.5380938321563522
0.2570789014115671 0.30100072017442214 0.5924196189387224
-0.17449938148945174 -0.20431252510383296 0.5273313549804283
0.2135288394866174 0.2500101490654205 0.5870880343456036
0.39689509498121206 0.4293586947970952 0.35830489081505645
-0.36623109491033246 -0.39618656640807326 0.46079929439893935
-0.36998024448389777 -0.40024237356684234 0.33400697761156933
0.4163438705053928 0.38486431515536157 0.34744386656348264
-0.4417611188571659 -0.40835977785585886 0.3686548598561784
0.395633325061894 0.3657196838703361 0.46015582679158934
-0.44047267719866395 -0.4071687546376834 0.40079723787501287
0.3948883680722095 0.3650310527123774 0.4970990920500265
-0.43550025012709626 -0.40257229033226233 0.5065245139140586
0.38284012303163734 0.3538937695557043 0.6104241476766585
0.25074567084331684 0.21415703443085715 0.5888152283671981
-0.2767412269092028 -0.2363593367746147 0.54467289013522
0.29807073986348714 0.2545764618192101 0.5866529290175289
-0.3316856708423834 -0.283286325111475 0.5533113714380666
0.35175049878057413 0.3004233071106295 0.5867831142358562
-0.39488985364305335 -0.33726779688202996 0.5617912750088861
0.4035967885550022 0.34470422181991056 0.5741782229653254
-0.4415964059274914 -0.37715896107275837 0.5368284012181546
0.41112933802917406 0.35113762683809874 0.49979099074533273
-0.4473778277129896 -0.38209676175427015 0.46381046120986436
0.4118692169913147 0.35176954316924386 0.4269975838262587
-0.4498529313050524 -0.3842106999267722 0.39529163696950614
0.41855101555424334 0.3574763382659988 0.3677862354118829
-0.4536497458993308 -0.3874534859380313 0.33410582796464405
-0.45509781726646015 -0.3886902557238691 0.275909155021389
0.40713898481439675 0.3209624956691762 0.4427888022727275
-0.45453463595477445 -0.35832621430402317 0.35468378714004956
-0.4467855975754635 -0.3522173650166141 0.48590694333368933
0.3022218762560817 0.20193820162620385 0.5931440805034037
-0.45378920569620357 -0.30321225336457286 0.5045024144671526
-0.4561184590175173 -0.3047686106761773 0.46852219295354425
-0.46370870396090774 -0.3098402502039258 0.34175760009758926
0.2815725042402908 0.17254785251698476 0.5896788646777399
-0.46511128441006405 -0.2850205616592658 0.3644883709336378
0.33328695951227405 0.20423851146588343 0.5850054983102844
-0.4624903880727733 -0.283414474318141 0.4276106601656082
0.3944164257775656 0.2416986965718275 0.5867831142358562
-0.4566526614693296 -0.27983711085460516 0.49508033505838744
0.4238466515458053 0.25973356211774096 0.5377587681135829
-0.45025397635765324 -0.2759159915751106 0.5712632688763084
0.43307869786427483 0.2653909673778435 0.46952260423800324
-0.3766248445980671 -0.23079600160277694 0.5603141369585931
0.43267144147586944 0.26514140034205363 0.40004057488690814
-0.31265195805326723 -0.1915933663085368 0.5487856914242762
0.43972076715790964 0.18213830541390824 0.4399639583318267
-0.3408059162971995 -0.14116643266729137 0.5520764129219953
0.4350244802929777 0.18019303970165876 0.5093811637554938
-0.41035960104707336 -0.16997651220371215 0.5634269989338001
0.42510170202380104 0.1760828903661448 0.5836680209303674
-0.47356297149990345 -0.19615620543296564 0.5545068575719527
0.3672363029962417 0.15211425729679878 0.5948913770502108
-0.4746385494331832 -0.19660172440031928 0.4749010521727497
0.3046514672924118 0.1261907695493805 0.5888152283671981
-0.4795868129296911 -0.19865136225076865 0.4092262517726048
0.27517363374088144 0.11398065110295995 0.5845552860662406
-0.2672169978627477 -0.11068490461137365 -0.2673647844133394
0.17961396979237051 0.04312149898120581 0.5685027336618877
-0.49644897637544094 -0.11918685419481174 0.40248963669009097
0.3140586684025547 0.07539881538843907 0.5767271204297872
-0.49035727396761336 -0.1177243658400551 0.46616168606461844
0.37794735076736785 0.09073713096984712 0.5817109016610305
-0.4892539699823047 -0.11745948598837407 0.5443113282009672
0.4492043242424785 0.10784441673755646 0.5860043147114145
-0.43488063919570014 -0.10440560420607313 0.5673185167638232
0.46570262730716366 0.11180530886425374 0.5181096754828788
-0.35976244619904946 -0.08637132164709628 0.5537219312089867
0.47480786520075785 0.11399128307887708 0.45137952825258965
0.4973701150264249 0.0391438769761365 0.3933074186611255
-0.367748514215872 -0.028942435751007856 0.5520764129219953
0.4795516243233039 0.037741531344762276 0.4446637116075846
-0.444024105036564 -0.034945454937652776 0.5649835478362881
0.4741074069923409 0.03731306214849132 0.5144724502129359
-0.5089871642381939 -0.04005815857737 0.5523218360450292
0.4666656985717556 0.03672738699410012 0.5937930824968586
-0.5085359362046007 -0.040022646160959095 0.47153938264240997
0.39242676976693014 0.03088465658432902 0.5891242384743315
-0.5144026297998174 -0.040484364960319735 0.40677629066698506
0.3268073277487742 0.025720294496621054 0.5853609458963865
0.10303048582917894 0.008108675089726056 0.5787356636480014
0.07209954264974854 0.005674357067809591 0.5724914476405425
0.13337458575704816 0.010496807546106149 0.557262987202161
0.14257311985456309 0.011220747879865023 0.5570026932717229
0.4889323396368772 0.077439274969953 0.3902477750728852
0.2452484116922008 0.05887893434543306 0.5766164129235302
0.43078144749025316 0.2412492022659547 0.5341190568630209
0.4393573777939927 0.24605195400124713 0.465489560044213
-0.24661217935696253 -0.1511241378748542 -0.2673647844133394
0.27591300800355245 0.17969392490917394 0.5879516182180026
0.3382673224957647 0.22602299879782856 0.5837206716795142
-0.4597188494052243 -0.3071743146214131 0.36943540699072397
-0.45876787074860664 -0.30653889099794396 0.4349689058709144
0.37620418102681374 0.29657546274668356 0.5837211740844552
-0.4446171184271287 -0.3505078738963437 0.5233553748058976
0.40994200762732597 0.32317222067958146 0.5647054685085893
-0.4510267158102701 -0.3555607930444954 0.45276089061995106
0.4177379076237769 0.32931801268716554 0.49171606344910557
-0.45359368776483394 -0.3575844305628362 0.3859354109678855
-0.45698148956430623 -0.36025515815451314 0.32588362833786966
0.39321565215445986 0.3634848100227642 0.5792799355954406
-0.4444330314547617 -0.41082966845561825 0.33894433771428834
0.40916567263153303 0.3782288572935244 0.43926231781296693
-0.43889582429758295 -0.4057111268091805 0.47117930450877205
0.4120489464848818 0.3808941282284067 0.37493376585981336
-0.4307310138909931 -0.3981636537031367 0.5422190503313266
0.39196580994138824 0.4240262242834906 0.45521595419853017
-0.36503105271237524 -0.39488836807221145 0.4970990920500265
0.3856750612372151 0.41722093067549537 0.5048895345973649
-0.3697799092843277 -0.4000256521689288 0.4294499927773868
0.3803553193457119 0.4114660663194584 0.5179676701426573
-0.3708410179981086 -0.40117355310836567 0.3650379701572647
0.37854234756370664 0.4293720105754805 0.32056569940548413
-0.351498223512105 -0.39869647323329804 0.35514802702417547
-0.35287764204354116 -0.40026111642864926 0.29883173931341644
0.32522103624176246 0.41254091777824453 0.4141271166496078
-0.3072525630483531 -0.38974801819234084 0.4587693808607552
0.31608525902167783 0.4009522396209387 0.5523218360450292
-0.30691783000797196 -0.3893234113548333 0.5363028314247771
-0.21004227468480238 -0.2890983894108046 0.5348049776183023
0.29708766934207287 0.4157336719186653 0.34142265706587016
-0.2783424053032356 -0.38950223165994236 0.3774036525286074
0.26281007432810455 0.39332307172598774 0.4372788882163073
-0.2541320390629549 -0.3803354741395531 0.49484021040407195
0.26197324469256317 0.39207066767106724 0.510108430254994
0.25665597614407926 0.38411281291976623 0.5860043147114145
0.26012740985221927 0.40635914426673997 0.44600670007790066
0.2515477347369053 0.4104885953238451 0.32168284109941
0.22293750842280824 0.39808356535983924 0.359685059918575
-0.21129261905746685 -0.37729011920728056 0.399730653165844
0.2104375884427191 0.37576335218624707 0.5463102822793723
-0.19530638325002186 -0.3723985571582374 0.4549007927980106
-0.19262825933527059 -0.36729207028797656 0.5260949427708235
0.14111885940509167 0.3605559009514432 0.49114652580395923
0.14739895376349268 0.3766014181062654 0.4374984803513924
-0.11988189477556656 -0.3249540949009846 0.518367791738744
-0.11950383511371643 -0.3629391749675792 0.30122912984465267
0.12275867102382666 0.3829224534678424 0.2686869987897293
-0.11462714879967648 -0.36244767757996943 0.25400255466223826
-0.08063050813170665 -0.3417570548653627 0.4454187205407699
0.07771327215329271 0.33527801945402724 0.5150818352477722
0.07265657700033373 0.3652692789164632 0.34426643126863476
-0.06900277538611592 -0.346900377764919 0.32695373509958525
0.07304410644535736 0.3672175209997921 0.2951624142474215
0.038031645734190864 0.33250948461077673 0.4245362606028191
0.026392067655506807 -0.3353430150418236 0.019837364429944455
0.026431407196800198 -0.33584287130772467 -0.026513138354032156
0.026486735788951683 -0.33654588772736566 -0.046693878410832744
0.029068268615382257 -0.3356249234701201 -0.026513138354032156
0.028985802744747644 -0.3346727648848649 0.02643792131697409
0.07675829820013978 -0.31972132184556606 0.018095303665382655
0.07636922640459659 -0.31810072118504146 0.051813824795319235
0.08249457350729773 -0.31613598914435936 0.0784390317990129
0.10138669378372432 -0.31203615834679055 -0.012890857527023479
-0.10442209864383543 0.29365672088816347 0.33716280280011374
0.11570475572955186 -0.30620375110322584 0.025761838286086594
0.1256306378519963 -0.3032991897518674 0.025836879238044716
0.12582871012106941 -0.3037773785101937 0.018095303665382655
0.17638849014704586 -0.2878398552365531 -0.046693878410832744
0.20026232502356872 -0.2756374435139584 0.026814192310116773
-0.20351254669416818 0.1881250630972351 -0.2561886101541506
-0.25744093209408414 0.20295006652331204 0.5853609458963865
-0.3228105798203211 0.18078261103949747 0.5537219312089867
0.36934456789881104 -0.20684289652206173 0.5369782177351372
-0.36399728932569203 0.2038482766340101 0.5292039809722643
-0.27357294630507845 0.13939237843560928 0.548255969309977
-0.43860672995207495 0.20220047205822267 0.5224749807791562
0.44166098245643126 -0.20360850174858403 0.5261132526284782
-0.45004583750909605 0.20747397287342256 0.4580974729474664
0.4434459690856962 -0.20443139185584347 0.45137952825258965
-0.5049120496627781 0.18627188934804156 0.582195504400406
0.5300626695187538 -0.19555044287429368 0.445397115700495
-0.5359047557388659 0.19770570226785034 0.4503060604380566
0.5295342251099893 -0.1953554894393307 0.37713358002580843
-0.5491805678273809 0.20260340792175355 0.32781788087181407
-0.5650459529152061 0.15935944015317116 0.32878509687669044
0.5456059965262908 -0.1538768054209731 0.37878361277646266
-0.5559075614503488 0.156782147208718 0.3859354109678855
0.5430223104121084 -0.1531481305750364 0.44478356590151513
-0.5467678152752911 0.1542044721964737 0.44785146749083254
0.5357911502740379 -0.15110873249543674 0.5146008105819946
-0.5435037352201034 0.1532839064132375 0.5220083656767329
-0.531800463319185 0.10578168913241627 0.5865692639900195
-0.5459953394771719 0.10860522555366246 0.5146008105819946
-0.5464951214306234 0.10870463836519714 0.43926231781296693
-0.550411658413213 0.10948368600833402 0.40773193250080986
-0.5535751115703312 0.11011293596491104 0.37713358002580843
-0.556140416404801 0.10608945829529595 0.2610074023465715
-0.5348442595346677 0.059047355974016225 0.3595428038430068
-0.526447405640231 0.1047168997567757 0.5367611200524862
-0.5622917029374467 0.14437197111118774 0.2676280530235507
-0.2890665599630109 0.11313847069619044 0.5542925313944599
-0.23673537992201196 0.21036829638147203 0.5655073295464329
0.13816017693212107 -0.29969259120397834 -0.012965966509680155
0.12641516669852543 -0.3051932099332309 -0.04305008988649027
0.10167957814219414 -0.3129375637151492 -0.04551202703519522
0.08637493537990526 -0.3157335874217989 0.025761838286086594
0.0770383437490982 -0.32088779550625735 -0.012965966509680155
0.07711604969270844 -0.32121146405531176 -0.04305008988649027
0.06456750160669217 -0.32460275073521205 -0.0130035361115203
0.01079362930092746 0.34345885336930265 0.31764683786991815
0.06767087279532227 0.340204451270551 0.44000180034952446
0.11334657979600639 0.37365359808160903 0.36094395893159786
-0.10769077810257968 -0.35500891858102085 0.3429334688239034
0.1138267007276957 0.3752363446802526 0.30912322434985423
-0.1171183376112564 -0.351047593894913 0.4694303801585153
0.17668805988570832 0.39545393865420037 0.2894089008595008
-0.16636476052187207 -0.37234887204146133 0.27249969531350243
0.16890606551289447 0.37408546830264255 0.44402230060859144
0.164622440590605 0.3645982907390565 0.5074490500968067
-0.15283287493321668 -0.3150967123330465 0.5241194274366797
-0.19282312994458045 -0.3676636379373895 0.4860891789548701
0.2213295154985174 0.3952122873909427 0.43551979686853537
-0.2094580455582569 -0.3740142525097165 0.4458448901473617
0.25935839283402207 0.40515782104740405 0.37923787272722737
-0.24408116372695077 -0.381292432350986 0.4184942849616543
-0.2829788610162247 -0.3894869881782601 0.32168284109941
0.32842980489037676 0.4199931182601434 0.35624660542072567
-0.30637362486225994 -0.39178787108409313 0.3920834937359047
0.3929195048939461 0.42505792567069023 0.4034315586297462
0.36004825155045567 0.31243395745052116 0.6047001560999187
0.4127156155615948 0.32535875686941995 0.5255401982722154
0.32154746033910503 0.23555269004368723 0.5965393205503342
0.35838783317400846 0.23946709421705822 0.5932610486287446
0.40739554819759505 0.27221300248905544 0.587559314950137
0.4328499208716412 0.24240760301899436 0.49610533155772435
0.3083588029615174 0.17268922712330587 0.5922822633438345
0.4737312568694704 0.12361850385429136 0.3859652338873261
0.31698953869144625 0.07610245509042093 0.5875091903020706
0.2887429306669253 0.06932104448767148 0.5827925126329383
0.2807673347818136 0.06740627332464938 0.5835906939251172
0.21088458307745622 0.050628909014363385 0.5739480866700948
0.21516427860226617 0.0169337959736861 0.5711764874077782
0.1832361757073901 0.014420999780187304 0.5656867849591949
0.49395700700108286 0.027184098928098047 0.4947044572267361
0.4927704198859492 0.034890016988039 0.49400404856640556
0.2536951338864362 0.019966240049962652 0.5756215147999686
0.23784303355895048 0.018718652697434432 0.5759794296923014
0.13388068224565416 0.012655450529484314 0.5601390920952884
0.1823798579634126 0.017239972424066923 0.5638096937443191
0.2898189823097604 0.027395959832328395 0.5713373949583557
0.31962424204093987 0.03021338639245198 0.5732743629209797
0.3520798154230676 0.03328134135394455 0.5771032454330342
0.3869617921671255 0.03657865896280651 0.5817109016610305
0.41925609219268756 0.03963136910367592 0.5796289190010149
0.45808470772433557 0.043301753917576805 0.5836680209303674
0.4831092569601721 0.04566727028307959 0.5681698216768314
0.48484542304859746 0.04583138629798546 0.5268409625103495
0.4955386956074602 0.04684219816118369 0.4601132573911399
0.4951615240030293 0.04680654494743442 0.4247931408310181
0.49514825928044054 0.046805291061976916 0.3920834937359047
0.500540038234136 0.04731496423266784 0.3652847714923673
0.5048981627919533 0.047726928295127494 0.31078125027874814
0.5092421392480689 0.04813755496821796 0.26062850844781393
0.511714826341179 0.04837129271631466 0.21290409705679603
0.515579639714161 0.048736625142375326 0.16826876264460833
0.5176078012091829 0.048928342849781085 0.12482059683149002
0.5199591587916031 0.04915061158237423 0.08272055711736377
0.5209141736611634 0.049240887066737724 0.041179591059018986
0.5225249436786408 0.049393149663018464 -9.00190409374019e-16
0.5238417057719346 0.04951762032787663 -0.041411019922410065
0.5238275037310596 0.04951627783975439 -0.08333597400752606
0.5261810389628158 0.04973875242081633 -0.12688802442954364
0.524902344650905 0.049617880220770134 -0.17131139641710855
0.5289370911834779 0.04999927605985236 -0.22006959345591542
0.49088622717664215 0.04640241041078838 -0.25123401098647236
0.40719973885201965 0.03849170817045149 -0.25064469090919866
0.2981780738401658 0.028186126625326727 -0.25580339823159054
0.26024473439477835 0.02460037031816673 -0.26140485840932715
0.25982622282515944 0.02868508205339963 -0.26140485840932715
0.2969655962336147 0.03278530705012859 -0.2551735846345435
0.4040541818592215 0.044607996970537925 -0.2491091020584187
0.48573642822227964 0.053625800923324494 -0.24899878669020503
0.5271810910218785 0.05820133429388025 -0.21969228924883571
0.5249892820419204 0.05795935632971694 -0.17161575322491174
0.5253348629468738 0.05799750881681732 -0.12688802442954364
