0.096 0.0 1.724
-0.096 -3.2930390389303353e-16 1.703
-0.096 -3.2930390389303353e-16 1.703
0.096 0.0 1.724
0.096 3.342781520550305 1.9241259589401598
-0.3936975344698019 -1.5582243529485458e-15 0.22149648062469043
-0.4148065615108994 -1.6455044245618454e-15 -0.23606480057738605
-0.08855156828059718 -9.82968360878316e-16 -0.25678525939969177
0.096 0.07447309564436164 -0.22920462042713224
0.039077774276835904 0.04108880345940326 -0.08749719949915422
-0.038273802684409094 -0.04024345770060625 -0.0836929734339736
-0.38645043831851583 -0.14521037044595442 -0.2310421452459523
3.3120012807557626 1.2416756968376086 2.003944510516625
-0.36718115429439185 -0.13765692612295607 0.21700668709851428
0.09130142556433472 0.029665631459994988 1.723
-0.09130142556433464 -0.029665631459995307 1.704
0.07766563145999492 0.056427384220077474 1.722
-0.07766563145999471 -0.05642738422007775 1.702
3.1215808168159893 2.6168406053868702 2.2204523316677864
-0.3432210419395369 -0.28772433323917407 0.2394556547293951
-0.3582340813838593 -0.30099254031456624 -0.2526395631711174
0.25254303164850495 0.21218966196902364 -0.17478840553389435
0.042438190347845475 0.09977816968177848 -0.13314791228132164
-0.033764811564704046 -0.07938583313667097 -0.09035036904803968
0.025309998224235603 0.1127323888236615 -0.09605670814581062
-0.026246191699473814 -0.1169022558433948 -0.10271410375987669
2.3774624892179035 3.775672171852719 2.3277085103486614
-0.3266546202390314 -0.5187634989140713 0.3162810106217427
0.056427384220077335 0.07766563145999501 1.723
-0.05642738422007709 -0.0776656314599952 1.702
0.029665631459994818 0.09130142556433479 1.724
-0.02966563145999448 -0.0913014255643349 1.702
1.144677610347164 4.064889983376427 2.1316541930389694
-0.027094188960767672 -0.2698470984948288 -0.2539320898508063
0.015126288091561853 0.1506516751032929 -0.11983312105318947
-1.2673270279930788e-16 0.23911712611187014 -0.20828137706863886
4.556308926664245e-16 -0.2865588944702293 -0.25678525939969177
1.3338325700520758e-15 -0.29978659076082775 -0.14264341141271838
-6.15412362728364e-15 4.140113162704614 2.0648061560936797
1.573854422945482e-14 -3.5293058807646585 1.7599990622610537
-1.6465195194651677e-16 0.096 1.727
4.939558558395502e-16 -0.096 1.702
-0.029665631459995147 0.09130142556433468 1.727
0.029665631459995505 -0.09130142556433457 1.703
-0.4426479844654889 1.571897049396993 0.8231288131322955
0.9519067264053256 -3.380337033149467 1.7724707109448765
-0.013032053940667821 0.129793955021475 -0.09225248208062999
0.013727214911104341 -0.13671747545350255 -0.10176304724358154
-0.03143503606234255 0.14001370828515022 -0.13695213834650227
0.025441959145902356 -0.11332015140661489 -0.09700776466210577
0.23784450401171445 -0.37858192074386193 -0.23003761417966553
-0.4428485207204667 0.7032922048668947 0.43102017851291113
-0.05642738422007763 0.0776656314599948 1.73
0.05642738422007789 -0.07766563145999461 1.704
-0.07766563145999512 0.05642738422007719 1.728
0.07766563145999529 -0.056427384220076954 1.703
-0.42535342948950733 0.35657642433362924 0.2988207024643909
-0.4922020522979219 0.413554024499544 -0.35007907660093207
0.3465594545234286 -0.2911833798282901 -0.24410104910768002
-0.03394112549695404 0.07980037205327072 -0.09130142556433483
0.06531892910940867 -0.1535740129041913 -0.23110673345972255
0.08477159464408138 -0.08913412945668933 -0.25868737243228207
-0.08117876136971863 0.08535640099071178 -0.24632363772044502
