0.096 0.0 1.725
-0.096 -3.2930390389303353e-16 1.704
-0.096 -3.2930390389303353e-16 1.703
0.096 0.0 1.725
0.096 3.343648199710417 1.9246248248875129
-0.39454468147103827 -1.561577295175201e-15 0.22199534657204334
-0.4156538184306659 -1.6488654249402828e-15 -0.2365670661105294
-0.08884278894752709 -9.86201061407333e-16 -0.2577363159159869
0.096 0.07478211263873659 -0.2301556769434274
0.03928169324808207 0.04130321655447414 -0.08844825601544937
-0.038273802684409094 -0.04024345770060625 -0.0836929734339736
-0.387255521506915 -0.14551288382525324 -0.23154441077909566
3.3111772552329124 1.2413667680726221 2.0034456445692723
-0.3679860903196308 -0.13795869819830386 0.2175055530458672
0.09130142556433472 0.029665631459994988 1.724
-0.09130142556433464 -0.029665631459995307 1.703
0.07766563145999492 0.056427384220077474 1.722
-0.07766563145999471 -0.05642738422007775 1.703
3.112467886184343 2.609201178983908 2.213967074352199
-0.3445962359855219 -0.2888771669574087 0.2404533866241009
-0.35892126996626755 -0.30156992434317453 -0.2531418287042608
0.2532174782486348 0.21275634003241561 -0.17529067106703772
0.057953106042730226 0.13625592422583602 -0.20067292493827762
-0.03394112549695386 -0.07980037205327152 -0.09130142556433483
0.025309998224235603 0.1127323888236615 -0.09605670814581062
-0.026246191699473814 -0.1169022558433948 -0.10271410375987669
-0.3266546202390314 -0.5187634989140713 0.3162810106217427
2.3677855421748717 3.7603041145964773 2.318230057348956
0.056427384220077335 0.07766563145999501 1.724
-0.05642738422007709 -0.0776656314599952 1.702
0.029665631459994818 0.09130142556433479 1.725
-0.02966563145999448 -0.0913014255643349 1.702
1.144677610347164 4.064889983376427 2.1316541930389694
-0.027004348671880195 -0.2689523257699715 -0.2529810333345111
0.020157530205722557 0.20076079954680862 -0.17879862506348906
-1.2673270279930788e-16 0.23911712611187014 -0.20828137706863886
4.571293317682112e-16 -0.2875013043448673 -0.2577363159159869
1.3380483060314094e-15 -0.30073410182418625 -0.14314567694586175
-6.158581817126775e-15 4.143112356671009 2.0663027539357386
1.5743001967883065e-14 -3.530305510858798 1.7604979282084066
-1.6465195194651677e-16 0.096 1.727
4.939558558395502e-16 -0.096 1.702
-0.029665631459995147 0.09130142556433468 1.727
0.029665631459995505 -0.09130142556433457 1.703
-0.4426479844654889 1.571897049396993 0.8231288131322955
0.9527098892993326 -3.383189162669043 1.7739673087869352
-0.013100097793482599 0.13047164411115633 -0.09320353859692515
0.013727214911104341 -0.13671747545350255 -0.10176304724358154
-0.031586326734104365 0.14068756684030867 -0.13790319486279742
0.025309998224235852 -0.11273238882366092 -0.09605670814581062
0.23734707151842002 -0.37779014735589017 -0.22953534864652217
-0.4428485207204667 0.7032922048668947 0.43102017851291113
-0.05642738422007763 0.0776656314599948 1.73
0.05642738422007789 -0.07766563145999461 1.703
-0.07766563145999512 0.05642738422007719 1.728
0.07766563145999529 -0.056427384220076954 1.703
-0.42604576713023634 0.35715681528206716 0.29931956841174384
-0.4915090363042463 0.4129717442106077 -0.3495768110677887
0.3465594545234286 -0.2911833798282901 -0.24410104910768002
-0.03376481156470423 0.07938583313667018 -0.09035036904803968
0.06531892910940867 -0.1535740129041913 -0.23110673345972255
0.08477159464408138 -0.08913412945668933 -0.25868737243228207
