0.096 0.0 1.724
-0.096 -3.2930390389303353e-16 1.702
0.096 0.0 1.724
-0.096 -3.2930390389303353e-16 1.702
0.096 1.0216774601787553 1.7749589199084828
-0.3643402137738783 -2.505237449425575e-15 0.6274757119207722
0.096 3.3395233072888413 1.939749488999701
-0.3928045870075632 -1.5582243529485458e-15 0.22300589671565696
-0.4035808322983039 -1.384393420490301e-15 0.0015393764437312712
-0.4141332267562802 -1.6354231487961372e-15 -0.23137919815793526
-0.15638798068958618 -1.0608956626391761e-15 -0.2536439094774713
-0.08855156828059718 -9.82968360878316e-16 -0.25678525939969177
0.096 0.07447309564436164 -0.22920462042713224
-0.07719643690973554 -0.039566479117850425 -0.22254722481306616
-0.40063463520973713 -0.07305087533389952 -0.22642461147361118
-0.3899838300285179 -0.061767846922992455 0.0015040336172170328
3.3147956065411592 0.6071514820174887 1.9487902685962815
-0.37962502590867186 -0.06953366796931681 0.21798324138422323
1.0205429077248167 0.3240111258843333 1.7931591822708257
-0.3505762124590004 -0.11130408378452782 0.6110088078786525
0.09481808069713321 0.015017708643862182 1.724
-0.09481808069713317 -0.015017708643862532 1.703
0.09130142556433472 0.029665631459994988 1.723
-0.09130142556433464 -0.029665631459995307 1.703
0.9746356534804423 0.6347964260679457 1.778425636548929
-0.33992459297225036 -0.22139854619603064 0.6153422036792103
3.324221105074067 1.2490900002918448 2.0296550194323646
-0.3671514591199903 -0.13795869819830386 0.21898777245051
3.2320039070598794 1.0501498250101633 0.013339953518763081
-0.3755199363544955 -0.12201476445900827 0.0015040336172170328
-0.3849672849369551 -0.14400059311942506 -0.22592915280517875
0.07733066371498773 0.049690278608833516 -0.11129273579113536
-0.07057571293816733 -0.0453497573981761 -0.09576351684353507
0.03928169324808207 0.04130321655447414 -0.08844825601544937
-0.038273802684409094 -0.04024345770060625 -0.0836929734339736
0.03796944520145444 0.0626062610972499 -0.0941545951132203
-0.036610391953421424 -0.06036537393021428 -0.08749719949915422
-0.06544064631209207 -0.06594124101192601 -0.09403804807157948
0.07426736773194778 0.0748354833107562 -0.11560640772102432
-0.37127001362417766 -0.2177810929390643 -0.2328655741632325
0.2793971691155428 0.1638899416090643 -0.17241961661447855
3.226552726621795 1.6440234047867748 0.014215670220171433
-0.3613242543876159 -0.18410532269600363 0.0015472304051788797
3.50870827440921 2.067478168938563 2.2868149724017703
-0.3545111781628128 -0.20889286431763066 0.2260194899145172
0.921089072719866 0.9407704139605098 1.794025861430937
-0.32551080064404914 -0.33246614224426546 0.6292090702409954
0.08553662632208328 0.043583087974996534 1.723
-0.08553662632208316 -0.043583087974996826 1.703
0.07766563145999492 0.056427384220077474 1.723
-0.07766563145999471 -0.05642738422007775 1.702
0.8298809075024354 1.2086288424366411 1.780158994869152
-0.3183780729438029 -0.46368209978146846 0.6786097823673546
3.0900216055749388 2.5962729428088194 2.218004594361129
-0.3431285906389027 -0.2883007271446434 0.24158972144196172
3.527333007302021 2.5627772008393372 0.017117708975062783
-0.34933624045492156 -0.25380959229295486 0.001653258884721595
-0.3584768041654929 -0.2998378935147594 -0.24822479288463717
0.2530099559673292 0.21162309905129406 -0.17192415794604612
0.06222940754407702 0.08941293740327444 -0.10180265754537962
0.05591287865957126 0.13145906195725954 -0.19211341629162124
-0.03394112549695386 -0.07980037205327152 -0.09130142556433483
-0.03108732465514114 -0.10060069582264372 -0.09986093421099122
0.029665631459994648 0.09600000000000007 -0.09130142556433483
-0.11092294971858914 -0.21936385299315025 -0.25450664386344907
0.049307428067311226 0.09751153777887012 -0.08541070421180155
0.22054689286834558 0.2539015557258366 -0.17142869927761373
2.9126344043426204 2.9126568627286007 0.016171306620625957
-0.33919938925379295 -0.3392020047110586 0.0018456809401880038
2.796752841566836 3.2343117505892995 2.296860283064638
-0.3335513707982081 -0.385736308895081 0.2697165912979905
0.731332799809322 1.4659906207066957 1.7948925405910485
-0.3070034577616139 -0.6154027136761775 0.7496774734965027
0.0678822509939085 0.06788225099390863 1.723
-0.06788225099390827 -0.06788225099390886 1.702
0.056427384220077335 0.07766563145999501 1.723
-0.05642738422007709 -0.0776656314599952 1.702
0.6038224927830315 1.6659592955790024 1.7827590323494868
-0.32591373316549715 -0.5187634989140713 0.31843634801289755
2.2501135691145295 3.581551402361857 2.2230272496925623
-0.3322209217869294 -0.45726639615654857 0.0021873282631589747
0.08657209335556205 0.23564625057463262 -0.2372519561438932
-0.09277057255003884 -0.2525182970370465 -0.2562321126354047
0.025309998224235603 0.1127323888236615 -0.09605670814581062
-0.026246191699473814 -0.1169022558433948 -0.10271410375987669
-0.039937313287049046 -0.2536475082134484 -0.2548831463671014
0.018653926416234264 0.11847371704418447 -0.08749719949915422
0.06686610079565886 0.25952773319025646 -0.2372519561438932
-0.0714352485694196 -0.2772619894161347 -0.2553693782494269
0.6139888421333585 1.3872636806336174 -0.7699427707439643
-0.32346438292514046 -0.6348394910907728 0.0027724483910058096
1.7705068822237011 4.018458883941012 2.2647152889434623
0.4715807078231692 1.855266442374692 1.8026926530320528
-0.29229004579294215 -1.14991114861966 1.1154160790635825
0.04358308797499638 0.08553662632208338 1.724
-0.04358308797499605 -0.08553662632208354 1.703
0.029665631459994818 0.09130142556433479 1.725
-0.02966563145999448 -0.0913014255643349 1.702
0.31868019940036546 1.9660528214494493 1.7896924656303794
-0.28157347609954314 -1.737128093218483 1.5808227880434924
1.1410127863058195 4.06108671793919 2.144171560989053
1.2527875015200172 3.8557131989407303 0.015916052873578678
0.045661197942569856 0.277916875327557 -0.238114690529871
-0.0487723762786602 -0.2968530618647716 -0.2562321126354047
-0.027004348671880195 -0.2689523257699715 -0.2529810333345111
0.01520235521515014 0.15140927270552668 -0.12078417756948463
0.011914342310555647 0.24343061442878253 -0.21588982919900007
0.023040488101173803 0.2876887084150134 -0.2372519561438932
-0.024690165041976346 -0.30828694515017635 -0.2562321126354047
-0.29463393470061944 -1.8602597952444122 0.007386650741475819
0.5700445920600447 4.162211130182573 2.116044691133024
-0.3485647703793986 -2.545064345965908 1.2933337478441815
0.1624956376706845 2.0565786939664545 1.8026926530320528
-0.15088102082004382 -1.9095816797942187 1.6735574581754298
0.015017708643862022 0.09481808069713325 1.725
-0.015017708643861677 -0.09481808069713331 1.703
-1.6465195194651677e-16 0.096 1.727
4.939558558395502e-16 -0.096 1.702
-1.772176578207678e-15 2.071225965461036 1.7931591822708257
4.916566256336166e-15 -1.9154072673977196 1.6579572332934216
-6.1831635882179224e-15 4.169105419631411 2.0934427421415727
1.568950467614053e-14 -3.526306991740793 1.7704860043303845
1.2872814946534003e-14 -2.501842521023256 0.009817451809510658
7.578375828743934e-16 -0.2912747843531946 -0.2372519561438932
-1.2721829379844006e-16 0.24003333101884 -0.209232433584934
4.571293317682112e-16 -0.2875013043448673 -0.2577363159159869
-0.006461246586139981 0.13201443986097297 -0.08844825601544937
0.006771179190090285 -0.1383468988624444 -0.09700776466210577
-0.07568724613756174 0.9450479516401636 -0.8213231354508593
0.06305540365119175 -0.4583257039305494 -0.22493823546831393
0.404658734659387 -2.55493439900661 0.01015124517103402
-0.44577181425642526 3.254826784891762 1.6544626661742659
0.4801171053203887 -3.505600767711469 1.7820381115926822
-0.16304133750173302 2.063485184884706 1.8087594071528337
0.14908834547691346 -1.8868932066219435 1.6536238374928638
-0.015017708643862348 0.0948180806971332 1.729
0.015017708643862733 -0.09481808069713313 1.702
-0.029665631459995147 0.09130142556433468 1.728
0.029665631459995505 -0.09130142556433457 1.703
-0.31929616764106894 1.9698529511714375 1.7931591822708257
0.29358186499387295 -1.8112121653106963 1.6484237625321945
-0.44191077252298605 1.5728465012365918 0.8292403952197063
0.9481450207296692 -3.37463277938527 1.7815358460595387
-0.4653953951193126 1.4323507901464132 0.005902252027877807
0.14158130930322127 -0.4357458246840626 0.00175928736426431
-0.013032053940667821 0.129793955021475 -0.09225248208062999
0.013798439551056677 -0.13742684388893742 -0.10271410375987669
-0.01865392641623439 0.11847371704418426 -0.08749719949915422
0.03351629197098146 -0.13008695253150132 -0.09490078245755727
0.17952303683618767 -0.4056194050278798 -0.22047910745242225
-0.471893444561759 0.9261501729666004 0.004064425049137412
0.20134975977912314 -0.3951742008609551 0.001700382653407246
-0.4498981150228354 1.0211183561800963 0.5735872388497303
-0.39603205010223624 1.5580471390594632 1.5132218135547906
0.43221884247285186 -1.7004111934591395 1.6518904791726408
-0.04358308797499667 0.08553662632208323 1.73
0.043583087974997006 -0.08553662632208306 1.704
-0.05642738422007763 0.0776656314599948 1.73
0.05642738422007789 -0.07766563145999461 1.704
-0.3883731113807131 1.0715298002158418 1.1448831705073759
0.528849819872908 -1.4591080721782907 1.5608891673609264
1.8080517227220532 -2.8779125960322753 1.7860562358578291
-0.44538036678270415 0.7089209625373482 0.4374732793678766
-0.4700967163937814 0.6470376103774498 0.003118022694700585
0.2595416304346653 -0.35723116221309825 0.0016925286919596374
0.2484246432592577 -0.3936389388343678 -0.23633378484225936
-0.04163173699015807 0.11332015140661517 -0.08799890736973494
-0.031586326734104365 0.14068756684030867 -0.13790319486279742
0.025441959145902356 -0.11332015140661489 -0.09700776466210577
-0.029205784510484903 0.09451190401213995 -0.08844825601544937
0.030766207462558023 -0.09956153875869879 -0.0979588211784009
0.11160317597089166 -0.2207090845434311 -0.2562321126354047
-0.047542550547729844 0.09402127418834504 -0.07937156350995699
0.30307149798998667 -0.34890686436354124 -0.23980199552128623
-0.46390212462490454 0.463905701624801 0.002548610489748967
0.3184437723825395 -0.3184462277999204 0.0017278715184738758
-0.4332292005181675 0.5010089819554123 0.35259040426664684
-0.3715826374812386 0.7448546838142304 0.9091464389570304
0.6372641001845804 -1.277425535990251 1.563489204841261
-0.06788225099390874 0.06788225099390839 1.73
0.06788225099390897 -0.06788225099390816 1.704
-0.07766563145999512 0.05642738422007719 1.729
0.07766563145999529 -0.056427384220076954 1.703
0.7266902769072141 -1.0583432155724568 1.5582891298805917
-0.3648911560003275 0.5314232096498086 0.7791445649402959
-0.42507945047024304 0.35715681528206716 0.3013593198860229
-0.45487128885032385 0.3304858843689526 0.002175547320987562
-0.49443225242335576 0.413554024499544 -0.34533469189738947
0.3529569403456213 -0.2952209578552994 -0.2442611235371779
-0.07389060953966477 0.10616807561248617 -0.13199836105460241
0.12574303291300098 -0.18067107456847362 -0.2519184407055157
-0.03394112549695404 0.07980037205327072 -0.09130142556433483
0.06531892910940867 -0.1535740129041913 -0.23110673345972255
-0.05836671969038089 0.09623849052674537 -0.17974968157978422
0.13934271109906624 -0.1404086269566783 -0.2536439094774713
-0.4863359642947055 0.28527695195682123 -0.3076798330965263
0.38644842450271183 -0.22668450767470522 -0.24277474753188066
-0.44488996579438184 0.22668450767470694 0.0019242205546640889
-0.41120117253294775 0.24229698816922826 0.26368940490027004
2.015354069417724 -1.1875311981883543 1.312922103636773
0.8016680207351231 -0.8187976364748857 1.5608891673609264
-0.3484381407032822 0.3558833815073923 0.6742763865667967
-0.08553662632208345 0.043583087974996236 1.73
0.08553662632208361 -0.0435830879749959 1.704
-0.09130142556433483 0.02966563145999468 1.729
0.09130142556433495 -0.02966563145999433 1.703
0.9054474638459991 -0.5897330063692826 1.6518904791726408
-0.3389842741778837 0.22078610091157802 0.6136088453589872
-0.40095268474106216 0.15065965026687497 0.2400829248425316
2.0114744318551647 -0.7558199407487858 1.2275369630024
-0.43388277148267224 0.14097814533953962 0.0017514334028167014
1.8406438420206723 -0.5980660494814755 0.00759085373911364
-0.4742606160043434 0.1774015940315344 -0.28042960633274383
0.41249337951828374 -0.154296984789745 -0.24277474753188066
0.14964841485468927 -0.09615941555740737 -0.2553693782494269
0.08477159464408138 -0.08913412945668933 -0.25868737243228207
-0.08117876136971863 0.08535640099071178 -0.24632363772044502
-0.058000009142163196 0.029727487982920263 -0.15597326867240532
0.08516467449240686 -0.04365054204279148 -0.2491768072693305
-0.14594353594275797 0.04571313793934992 -0.238114690529871
0.15541241977532502 -0.04867902738401456 -0.2553693782494269
-0.4637942268906138 0.0845672622174317 -0.2635840116060419
0.4266976440228491 -0.07780314945177272 -0.24178383019501584
-0.4216737418983535 0.06678707457977698 0.0016336239811025736
2.4927347475141897 -0.3948134421183841 0.00990384538543435
