0.096 0.0 1.725
-0.096 -3.2930390389303353e-16 1.702
0.096 0.0 1.724
-0.096 -3.2930390389303353e-16 1.702
0.096 3.343648199710417 1.9246248248875129
-0.392850472678412 -1.5548717479758644e-15 0.22099761467733753
-0.4148065615108994 -1.6455044245618454e-15 -0.23606480057738605
-0.08826046864218041 -9.797370038286013e-16 -0.2558342028833966
0.096 0.07447309564436164 -0.22920462042713224
0.03887500747495316 0.040875601826893954 -0.08654614298285906
-0.038075828535660695 -0.04003529536182158 -0.08274191691767845
-0.387255521506915 -0.14551288382525324 -0.23154441077909566
3.3120012807557626 1.2416756968376086 2.003944510516625
-0.3663763042025729 -0.1373551862642139 0.21650782115116138
0.09130142556433472 0.029665631459994988 1.724
-0.09130142556433464 -0.029665631459995307 1.702
0.07766563145999492 0.056427384220077474 1.721
-0.07766563145999471 -0.05642738422007775 1.702
3.1082619224047146 2.605675293399262 2.2109738786680815
-0.34390861158154673 -0.2883007271446434 0.239954520676748
-0.35892126996626755 -0.30156992434317453 -0.2531418287042608
0.25119455068268237 0.21105665220652187 -0.1737838744676076
-0.033764811564704046 -0.07938583313667097 -0.09035036904803968
0.04750789408087834 0.11169775803285387 -0.15597326867240532
0.025309998224235603 0.1127323888236615 -0.09605670814581062
-0.026246191699473814 -0.1169022558433948 -0.10271410375987669
-0.32715830892505604 -0.5195634119994407 0.31677987656909556
2.362183106851275 3.75140683052077 2.312742531928074
0.056427384220077335 0.07766563145999501 1.723
-0.05642738422007709 -0.0776656314599952 1.701
0.029665631459994818 0.09130142556433479 1.724
-0.02966563145999448 -0.0913014255643349 1.701
1.1441421083625172 4.062988350432974 2.1306564611442633
-0.026914547296905986 -0.26805794061185795 -0.252029976818216
0.016605914681678872 0.16538815393929043 -0.13790319486279742
-1.2721829379844006e-16 0.24003333101884 -0.209232433584934
4.556308926664245e-16 -0.2865588944702293 -0.25678525939969177
1.3380483060314094e-15 -0.30073410182418625 -0.14314567694586175
-6.161553944652231e-15 4.145111819963365 2.0673004858304442
1.573854422945482e-14 -3.5293058807646585 1.7599990622610537
-1.6465195194651677e-16 0.096 1.726
4.939558558395502e-16 -0.096 1.702
-0.029665631459995147 0.09130142556433468 1.728
0.029665631459995505 -0.09130142556433457 1.702
-0.44238061830179 1.5709475994987074 0.8226299471849425
0.9505681226819916 -3.375583487856448 1.769976381208112
-0.012964356323410834 0.1291197142970797 -0.09130142556433483
0.01365628652457703 -0.13601105758164717 -0.10081199072728637
-0.03143503606234255 0.14001370828515022 -0.13695213834650227
0.025309998224235852 -0.11273238882366092 -0.09605670814581062
0.23635234482175402 -0.37620682069882155 -0.2285308175802354
1.8243835831710098 -2.8973219796328378 1.785940091523405
-0.44335482976295193 0.7040962793668033 0.431519044460264
-0.05642738422007763 0.0776656314599948 1.73
0.05642738422007789 -0.07766563145999461 1.703
-0.07766563145999512 0.05642738422007719 1.727
0.07766563145999529 -0.056427384220076954 1.702
-0.42535342948950733 0.35657642433362924 0.2988207024643909
-0.4922020522979219 0.413554024499544 -0.35007907660093207
0.345873174411688 -0.290606759107553 -0.24359878357453665
-0.03376481156470423 0.07938583313667018 -0.09035036904803968
0.06485416332048359 -0.1524812829981903 -0.22920462042713224
0.08477159464408138 -0.08913412945668933 -0.25868737243228207
