0.096 0.0 1.725
-0.096 -3.2930390389303353e-16 1.704
0.096 0.0 1.725
-0.096 -3.2930390389303353e-16 1.704
0.096 1.023672923968167 1.778425636548929
-0.3643402137738783 -2.505237449425575e-15 0.6274757119207722
0.096 3.3395233072888413 1.939749488999701
-0.39449512264296394 -1.56493057248808e-15 0.22401042778194372
-0.40455219205062687 -1.3877254520002888e-15 0.0015433034244550755
-0.4149841037502906 -1.638783284720709e-15 -0.23187465682636768
-0.15638798068958618 -1.0608956626391761e-15 -0.2536439094774713
-0.08884278894752709 -9.86201061407333e-16 -0.2577363159159869
0.096 0.0741640786499867 -0.22825356391083707
-0.07747889652557319 -0.039711251764608 -0.2234982813293613
-0.40063463520973713 -0.07305087533389952 -0.22642461147361118
-0.39094194750515165 -0.06191959899339657 0.001507960597940837
3.3173570253916624 0.6076206419403755 1.9502970651957117
-0.3804589805980298 -0.06968641851133514 0.21848550691736662
1.0195585196586006 0.32369859352216834 1.7914258239506022
-0.3495998007112371 -0.11099408381556543 0.6092754495584295
0.09481808069713321 0.015017708643862182 1.724
-0.09481808069713317 -0.015017708643862532 1.703
0.09130142556433472 0.029665631459994988 1.724
-0.09130142556433464 -0.029665631459995307 1.703
-0.33898427417788296 -0.2207861009115827 0.6136088453589872
0.9751095850774135 0.635105105606688 1.7792923157090406
3.3258654240705954 1.249707860040319 2.030659550498651
-0.36795465464267557 -0.1382605022793062 0.21949003798365335
1.9973889568287786 0.6489960172724855 0.008238805558541343
-0.3764425187441789 -0.12231453196020692 0.001507960597940837
-0.38577571973782976 -0.14430299567512117 -0.22642461147361118
-0.07057571293816733 -0.0453497573981761 -0.09576351684353507
0.07927266760913745 0.050938149892020716 -0.11560640772102432
0.03928169324808207 0.04130321655447414 -0.08844825601544937
-0.038273802684409094 -0.04024345770060625 -0.0836929734339736
0.03796944520145444 0.0626062610972499 -0.0941545951132203
-0.036610391953421424 -0.06036537393021428 -0.08749719949915422
-0.06577942672782525 -0.06628261296197434 -0.09490078245755727
0.07390158051843222 0.07446689797175331 -0.11474367333504652
-0.37202834562114306 -0.21822591844354727 -0.2333610328316649
0.2793971691155428 0.1638899416090643 -0.17241961661447855
3.226552726621795 1.6440234047867748 0.014215670220171433
-0.3621899894133726 -0.1845464401254336 0.001551157385902684
3.4925321147852424 2.057946496806189 2.2762673962057596
-0.35526472409106297 -0.2093368852034115 0.22652175544766057
0.9202010424934874 0.9398634087767302 1.7922925031107142
-0.3263921355137032 -0.33336630900850034 0.6309424285612185
0.08553662632208328 0.043583087974996534 1.722
-0.08553662632208316 -0.043583087974996826 1.702
0.07766563145999492 0.056427384220077474 1.722
-0.07766563145999471 -0.05642738422007775 1.703
0.8298809075024354 1.2086288424366411 1.780158994869152
-0.3191792708589294 -0.46484895504945667 0.6803431406875776
3.0753341670691783 2.583932382107601 2.207457018165118
-0.3438146554383268 -0.2888771669574087 0.2420919869751051
3.5338035272184376 2.5674783449856493 0.017149124820853217
-0.3509139527020188 -0.2549558761759837 0.0016611128461692035
-0.3598572637527808 -0.30099254031456624 -0.249215710221502
0.2536873208651598 0.21218966196902364 -0.17241961661447855
0.06222940754407702 0.08941293740327444 -0.10180265754537962
-0.033764811564704046 -0.07938583313667097 -0.09035036904803968
0.03575262228144916 0.08405945643127725 -0.10081199072728637
-0.03108732465514114 -0.10060069582264372 -0.09986093421099122
0.029665631459994648 0.09600000000000007 -0.09130142556433483
-0.11092294971858914 -0.21936385299315025 -0.25450664386344907
0.049307428067311226 0.09751153777887012 -0.08541070421180155
0.22054689286834558 0.2539015557258366 -0.17142869927761373
-0.33919938925379295 -0.3392020047110586 0.0018456809401880038
2.250313402025136 2.250330753467145 0.012491725682421361
-0.3341532903900617 -0.3864324002979063 0.2702188568311339
2.7790248750022837 3.2138101997473374 2.2822945826034804
0.7316851731113518 1.4666969693839298 1.7957592197511605
-0.30770466542755714 -0.6168083170645506 0.7514108318167259
0.0678822509939085 0.06788225099390863 1.722
-0.06788225099390827 -0.06788225099390886 1.701
0.056427384220077335 0.07766563145999501 1.723
-0.05642738422007709 -0.0776656314599952 1.702
0.6038224927830315 1.6659592955790024 1.7827590323494868
2.24909727663967 3.5799337490182643 2.2220227186262758
-0.3284266405334303 -0.5227633445357162 0.32094767567861443
-0.33280017722050625 -0.45806367901020234 0.002191255243882779
0.086291537865147 0.23488258821148628 -0.2363892217579154
-0.09248780674274189 -0.25174861826762396 -0.2553693782494269
0.025309998224235603 0.1127323888236615 -0.09605670814581062
-0.026246191699473814 -0.1169022558433948 -0.10271410375987669
0.018557134900546078 0.1178589804795575 -0.08654614298285906
-0.039937313287049046 -0.2536475082134484 -0.2548831463671014
0.06686610079565886 0.25952773319025646 -0.2372519561438932
-0.0714352485694196 -0.2772619894161347 -0.2553693782494269
0.6132016438096431 1.3854850625724948 -0.7689518534070995
-0.32436410048868397 -0.6366052998484485 0.002780302352453418
1.7689369515730087 4.014895666066071 2.2627062268108893
0.47112822915859454 1.8534863261223735 1.8009592947118296
-0.29296760900815466 -1.1525767799207662 1.1180161165439173
0.04358308797499638 0.08553662632208338 1.723
-0.04358308797499605 -0.08553662632208354 1.702
0.029665631459994818 0.09130142556433479 1.724
-0.02966563145999448 -0.0913014255643349 1.702
0.31898818320000427 1.967952884331862 1.7914258239506022
-0.28265109667022753 -1.7437763222814513 1.5868895421642735
1.1394099252153727 4.055381823162165 2.141157967790193
1.2509339345049453 3.8500084622663437 0.015892490989235855
0.045513642918300956 0.2770187816915715 -0.2372519561438932
-0.04862371749632071 -0.29594825020543336 -0.2553693782494269
-0.027094188960767672 -0.2698470984948288 -0.2539320898508063
0.014899428746707312 0.14839224832864104 -0.116979951504304
0.011869834145016984 0.24252123564800201 -0.2149387726827049
0.02296582044340933 0.2867563912727589 -0.2363892217579154
-0.024614909125595923 -0.3073472828787434 -0.2553693782494269
-0.29463393470061944 -1.8602597952444122 0.007386650741475819
0.5704502997743324 4.165173426795032 2.1175514877324546
-0.34978136699359474 -2.553947391326009 1.2978541376424721
0.16226176750725552 2.053618784382683 1.800092615551718
-0.15095896443422507 -1.9105681504377001 1.6744241373355413
0.015017708643862022 0.09481808069713325 1.724
-0.015017708643861677 -0.09481808069713331 1.702
-1.6465195194651677e-16 0.096 1.726
4.939558558395502e-16 -0.096 1.702
-1.7704671846470434e-15 2.069228116955692 1.7914258239506022
4.914002632392563e-15 -1.9144085248452065 1.65709055413331
-6.184646286284051e-15 4.170105154549463 2.093945007674716
1.568950467614053e-14 -3.526306991740793 1.7704860043303845
1.2872814946534003e-14 -2.501842521023256 0.009817451809510658
-2.964857454159523e-15 1.7286676950761821 0.006777968729286158
1.3610654455643843e-15 -0.304527502863042 -0.14318755517696638
7.553816471741321e-16 -0.29033084576048757 -0.2363892217579154
-1.233438052235738e-16 0.23272301132462173 -0.20162398145457278
4.556308926664245e-16 -0.2865588944702293 -0.25678525939969177
-0.006394352904987651 0.13064768628953266 -0.08654614298285906
0.006771179190090285 -0.1383468988624444 -0.09700776466210577
-0.07576594964909254 0.946030661358838 -0.8221858698368372
0.06292246567145902 -0.45735942840756405 -0.22444277679988153
0.404658734659387 -2.55493439900661 0.01015124517103402
-0.44428446706023084 3.243966839651207 1.6489377453096887
0.4798466623858685 -3.5036261141355594 1.7810335805263953
-0.16280746567007676 2.0605252541875014 1.8061593696724991
0.149166286762535 -1.8878796477946866 1.6544905166529753
-0.015017708643862348 0.0948180806971332 1.727
0.015017708643862733 -0.09481808069713313 1.703
-0.029665631459995147 0.09130142556433468 1.728
0.029665631459995505 -0.09130142556433457 1.703
-0.3188341912198945 1.967002852395291 1.7905591447904907
0.29358186499387295 -1.8112121653106963 1.6484237625321945
-0.44244429474439556 1.574745410725684 0.830244926285993
0.9484121340904529 -3.375583487856448 1.7820381115926822
-0.4616948212753499 1.4209615071303314 0.005855128259192156
0.1412791689066952 -0.43481592498965693 0.0017553603835405056
-0.15106558503649328 0.9194606636399639 -0.8299504793106373
0.02525178241121274 -0.15369497035540225 -0.11215547017711315
-0.013032053940667821 0.129793955021475 -0.09225248208062999
0.013727214911104341 -0.13671747545350255 -0.10176304724358154
-0.018557134900546203 0.11785898047955731 -0.08654614298285906
0.0333436747273751 -0.1294169723560517 -0.09403804807157948
0.1791375737709105 -0.4047484789230556 -0.21998364878398985
-0.4705373214788252 0.9234886110349877 0.004052644106965999
0.20134975977912314 -0.3951742008609551 0.001700382653407246
-0.4495069243030798 1.0202304839899905 0.5730849733165869
-0.3964843285568274 1.5598264676568636 1.5149551718750136
0.4324450362944446 -1.7013010725396698 1.652757158332752
-0.04358308797499667 0.08553662632208323 1.729
0.043583087974997006 -0.08553662632208306 1.703
-0.05642738422007763 0.0776656314599948 1.73
0.05642738422007789 -0.07766563145999461 1.703
-0.386618403610786 1.0666885235902206 1.1396830955467065
0.528849819872908 -1.4591080721782907 1.5608891673609264
-0.4433595969798945 0.7057044622591193 0.4354642172353031
-0.46776267739087496 0.6438250565213974 0.003102314771805368
0.2589679407418464 -0.3564415400034661 0.0016886017112358331
-0.04163173699015807 0.11332015140661517 -0.08799890736973494
-0.03143503606234255 0.14001370828515022 -0.13695213834650227
-0.02905417155698509 0.09402127418834504 -0.08749719949915422
0.030606725447046387 -0.09904544411531446 -0.09700776466210577
0.11126300816462646 -0.22003636063159976 -0.2553693782494269
-0.047542550547729844 0.09402127418834504 -0.07937156350995699
0.3036739998367658 -0.34960048626968265 -0.24029745418971865
-0.46390212462490454 0.463905701624801 0.002548610489748967
0.3191346571217139 -0.3191371178662845 0.00173179849919768
-0.43444084479422346 0.5024101909794413 0.35359493533293357
-0.37193392240960826 0.7455588507958287 0.9100131181171419
0.6372641001845804 -1.277425535990251 1.563489204841261
-0.06788225099390874 0.06788225099390839 1.728
0.06788225099390897 -0.06788225099390816 1.703
-0.07766563145999512 0.05642738422007719 1.728
0.07766563145999529 -0.056427384220076954 1.703
0.7266902769072141 -1.0583432155724568 1.5582891298805917
-0.3636872504373883 0.529669855676023 0.7765445274599613
-0.4243886831241823 0.35657642433362924 0.3008570543528795
-0.4532771105526258 0.329327637107649 0.0021676933595399534
-0.493736096328275 0.4129717442106077 -0.3448392332289571
0.3529569403456213 -0.2952209578552994 -0.2442611235371779
-0.0725097395219391 0.10418400330118367 -0.12854742351069123
0.1253544764583888 -0.18011278588591995 -0.2510557063195379
-0.03394112549695404 0.07980037205327072 -0.09130142556433483
0.06531892910940867 -0.1535740129041913 -0.23110673345972255
-0.05351517885448291 0.08823898380009557 -0.1607285512538811
0.07502139831894718 -0.12369970712284178 -0.24251941165526442
0.13934271109906624 -0.1404086269566783 -0.2536439094774713
-0.4871008495581774 0.2857256215033484 -0.3081752917649587
0.3856889362573456 -0.22623900393327556 -0.24227928886344827
-0.4440156222129919 0.22623900393327726 0.0019202935739402846
-0.41120117253294775 0.24229698816922826 0.26368940490027004
2.01458412335647 -1.187077513655926 1.3124198381036298
0.8012241583939408 -0.8183442899193539 1.560022488200815
-0.3484381407032822 0.3558833815073923 0.6742763865667967
-0.08553662632208345 0.043583087974996236 1.729
0.08553662632208361 -0.0435830879749959 1.702
-0.09130142556433483 0.02966563145999468 1.728
0.09130142556433495 -0.02966563145999433 1.702
-0.3380440033378512 0.2201736868605867 0.611875487038764
0.9054474638459991 -0.5897330063692826 1.6518904791726408
-0.39853410766772845 0.14975085980386246 0.23857612824310148
2.0090091612437186 -0.7548936049933 1.2260301664029698
-0.4320234473879565 0.14037400966122632 0.0017435794413690928
1.8368443378201182 -0.5968315062117036 0.007575145816218423
-0.47344615098229037 0.17709693581552555 -0.2799341476643114
0.41249337951828374 -0.154296984789745 -0.24277474753188066
0.14964841485468927 -0.09615941555740737 -0.2553693782494269
0.08477159464408138 -0.08913412945668933 -0.25868737243228207
-0.058000009142163196 0.029727487982920263 -0.15597326867240532
0.08287628941601564 -0.04247764671286196 -0.24156835513896927
-0.14594353594275797 0.04571313793934992 -0.238114690529871
0.15541241977532502 -0.04867902738401456 -0.2553693782494269
-0.4629499509450705 0.08441331872022759 -0.26308855293760947
0.4258558729776514 -0.07764966269282032 -0.24128837152658345
-0.4197492021085128 0.06648225507193382 0.001625770019654965
2.576628832400984 -0.40810106225548765 0.010237638746957713
