0.096 0.0 1.728
-0.096 -3.2930390389303353e-16 1.704
0.096 0.0 1.728
-0.096 -3.2930390389303353e-16 1.704
0.096 3.3445148788705286 1.925123690834866
-0.3962392289168842 -1.5682841827377555e-15 0.22299307846674918
-0.4173485470910294 -1.6555882778741956e-15 -0.23757159717681617
-0.08913412945669039 -9.894350922473317e-16 -0.25868737243228207
0.096 0.07540014662748647 -0.2320577899760177
0.03969291656833488 0.041735602341445806 -0.09035036904803968
-0.03867341096509842 -0.04066363071224389 -0.0855950864665639
-0.3880606772834439 -0.1458154244798458 -0.23204667631223905
3.3161214101246568 1.2432203413203593 2.0064388402533897
-0.3695962179244774 -0.13856233815682742 0.218503284940573
0.09130142556433472 0.029665631459994988 1.725
-0.09130142556433464 -0.029665631459995307 1.705
0.07766563145999492 0.056427384220077474 1.725
-0.07766563145999471 -0.05642738422007775 1.704
3.1110658979617707 2.6080258835408623 2.2129693424574928
-0.3445962359855219 -0.2888771669574087 0.2404533866241009
-0.35960850628685725 -0.30214734848197133 -0.25364409423740414
0.2538920608002219 0.21332313232384062 -0.1757929366001811
0.057271284253104855 0.13465286505530216 -0.19781975538939217
-0.03411836015989003 -0.08021707573754717 -0.09225248208062999
0.02557452918937746 0.11391062705797772 -0.0979588211784009
-0.026246191699473814 -0.1169022558433948 -0.10271410375987669
2.3682948547581493 3.7611129590498287 2.3187289232963093
-0.32715830892505604 -0.5195634119994407 0.31677987656909556
0.056427384220077335 0.07766563145999501 1.726
-0.05642738422007709 -0.0776656314599952 1.703
0.029665631459994818 0.09130142556433479 1.726
-0.02966563145999448 -0.0913014255643349 1.703
1.1449453613869165 4.065840800016581 2.132153058986322
-0.027004348671880195 -0.2689523257699715 -0.2529810333345111
0.01708657613922352 0.1701753464942892 -0.14360953396056836
-1.2770423799038331e-16 0.24095020232404868 -0.21018349010122914
4.5862838750304975e-16 -0.2884441020371192 -0.25868737243228207
1.3380483060314094e-15 -0.30073410182418625 -0.14314567694586175
-6.164526072947078e-15 4.14711128377332 2.06829821772515
1.5743001967883065e-14 -3.530305510858798 1.7604979282084066
-1.6465195194651677e-16 0.096 1.728
4.939558558395502e-16 -0.096 1.703
-0.029665631459995147 0.09130142556433468 1.73
0.029665631459995505 -0.09130142556433457 1.704
-0.442915351175864 1.5728465012365918 0.8236276790796484
0.9527098892993326 -3.383189162669043 1.7739673087869352
-0.01316848251467717 0.1311527281112145 -0.0941545951132203
0.013869955880495942 -0.13813911743298513 -0.10366516027617184
-0.03173793572165716 0.1413628431948363 -0.13885425137909257
0.025574529189377707 -0.11391062705797714 -0.0979588211784009
0.23933707462234166 -0.3809576756555216 -0.23154441077909566
1.8238743450516006 -2.8965132534363067 1.785441225576052
-0.4438611459273534 0.7049003651770985 0.43201791040761695
-0.05642738422007763 0.0776656314599948 1.731
0.05642738422007789 -0.07766563145999461 1.704
-0.07766563145999512 0.05642738422007719 1.729
0.07766563145999529 -0.056427384220076954 1.704
-0.426738133574039 0.3577372303763008 0.2998184343590967
-0.4935881397406322 0.41471863167166967 -0.3510836076672188
0.345873174411688 -0.290606759107553 -0.24359878357453665
-0.03411836015989022 0.08021707573754637 -0.09225248208062999
0.06555150646628922 -0.15412083506575747 -0.2320577899760177
0.0850487887965411 -0.08942558863678046 -0.2596384289485772
