0.096 0.0 1.727
-0.096 -3.2930390389303353e-16 1.704
0.096 0.0 1.727
-0.096 -3.2930390389303353e-16 1.704
0.096 1.0241717899155198 1.7792923157090406
-0.3653293121961848 -2.5120385828581527e-15 0.6292090702409954
0.096 3.3412527341698812 1.9407540200659874
-0.39449512264296394 -1.56493057248808e-15 0.22401042778194372
-0.4055236909928944 -1.3910579609701259e-15 0.0015472304051788797
-0.4158350541605541 -1.642143710568021e-15 -0.23237011549480008
-0.15686873987045832 -1.064157008731838e-15 -0.25450664386344907
-0.08884278894752709 -9.86201061407333e-16 -0.2577363159159869
0.096 0.07478211263873659 -0.2301556769434274
-0.07776152809327361 -0.039856112544057444 -0.22444933784565646
-0.4014742861235552 -0.07320397551256283 -0.22692007014204357
-0.3919002117643702 -0.062071374312057497 0.0015118875786646413
3.321626059494148 0.6084025756369789 1.9528083928614284
-0.38129302432829026 -0.0698391853624483 0.21898777245051
1.0205429077248167 0.3240111258843333 1.7931591822708257
-0.3500880002552197 -0.11114908179037343 0.610142128718541
0.09481808069713321 0.015017708643862182 1.726
-0.09481808069713317 -0.015017708643862532 1.704
0.09130142556433472 0.029665631459994988 1.725
-0.09130142556433464 -0.029665631459995307 1.704
0.9760574497816221 0.6357224656678336 1.7810256740292636
-0.33945442760568134 -0.22109231966584666 0.6144755245190987
3.3250432645149948 1.2493989301445376 2.030157284965508
-0.36875793478589197 -0.13856233815682742 0.21999230351679672
3.2329545768086616 1.0504587187179169 0.013343880499486885
-0.3764425187441789 -0.12231453196020692 0.001507960597940837
-0.38658422930524927 -0.14460542619793873 -0.22692007014204357
0.07810437646515582 0.050187442350512465 -0.11301820456309095
-0.07130597210315816 -0.045818999217938416 -0.09748898561549066
0.03948674653846403 0.04151882234326654 -0.08939931253174453
-0.038473003144081884 -0.040452909459003095 -0.08464402995026875
0.038167590425579746 0.06293297463153896 -0.09510565162951545
-0.036610391953421424 -0.06036537393021428 -0.08749719949915422
-0.06577942672782525 -0.06628261296197434 -0.09490078245755727
0.07537023755379668 0.07594678964444501 -0.1181946108789577
-0.37202834562114306 -0.21822591844354727 -0.2333610328316649
3.2274434132183707 1.6444772357745712 0.014219597200895237
-0.3630558466882445 -0.18498761984437925 0.0015550843666264883
3.4917618223046785 2.0574926081489644 2.2757651306726165
-0.3560183424463158 -0.20978094876622194 0.22702402098080393
0.9206450573761642 0.940316911133182 1.7931591822708257
-0.3268328184889225 -0.33381640826306885 0.63180910772133
0.08553662632208328 0.043583087974996534 1.724
-0.08553662632208316 -0.043583087974996826 1.704
0.07766563145999492 0.056427384220077474 1.724
-0.07766563145999471 -0.05642738422007775 1.703
0.8310903622404009 1.2103902781639988 1.7827590323494868
-0.3183780729438029 -0.46368209978146846 0.6786097823673546
3.0767329693019883 2.5851076723977506 2.2084615492314046
-0.34450077454908107 -0.28945365240320026 0.24259425250824845
3.528950636742637 2.563952486484678 0.017125562936510394
-0.3509139527020188 -0.2549558761759837 0.0016611128461692035
-0.3591670097043396 -0.3004151966274163 -0.2487202515530696
0.25436482342754174 0.21275634003241561 -0.17291507528291095
0.0625472726807438 0.08986965484104432 -0.1026653919313574
0.035383612025907916 0.08319186128666999 -0.09890987769469607
-0.03411836015989003 -0.08021707573754717 -0.09225248208062999
-0.03124893770611838 -0.10112368664165723 -0.10081199072728637
0.02982054023557644 0.09650129532809401 -0.09225248208062999
-0.11126300816462531 -0.22003636063160203 -0.2553693782494269
0.049307428067311226 0.09751153777887012 -0.08541070421180155
0.22113881020562687 0.2545829923620196 -0.17192415794604612
-0.339892215878037 -0.3398948366774656 0.001849607920911808
1.7259555500642758 1.725968858351739 0.009577905985358598
2.777190950291216 3.211689352972983 2.2807877860040504
-0.3341532903900617 -0.3864324002979063 0.2702188568311339
0.7316851731113518 1.4666969693839298 1.7957592197511605
0.0678822509939085 0.06788225099390863 1.723
-0.06788225099390827 -0.06788225099390886 1.703
0.056427384220077335 0.07766563145999501 1.725
-0.05642738422007709 -0.0776656314599952 1.702
0.6044083078663763 1.6675755720431178 1.7844923906697099
2.2501135691145295 3.581551402361857 2.2230272496925623
-0.3274214249385723 -0.5211633224866706 0.31994314461232765
-0.33280017722050625 -0.45806367901020234 0.002191255243882779
0.08657209335556205 0.23564625057463262 -0.2372519561438932
-0.09277057255003884 -0.2525182970370465 -0.2562321126354047
0.025441959145902106 0.11332015140661547 -0.09700776466210577
-0.026110714383578922 -0.11629883101037271 -0.10176304724358154
0.018653926416234264 0.11847371704418447 -0.08749719949915422
-0.04006941426610968 -0.25448650015891194 -0.2558342028833966
0.06686610079565886 0.25952773319025646 -0.2372519561438932
-0.0714352485694196 -0.2772619894161347 -0.2553693782494269
0.6132016438096431 1.3854850625724948 -0.7689518534070995
1.771291847785786 4.0202404934158 2.265719820009749
0.4715807078231692 1.855266442374692 1.8026926530320528
-0.29206419332689454 -1.1490226124810214 1.114549399903471
0.04358308797499638 0.08553662632208338 1.724
-0.04358308797499605 -0.08553662632208354 1.703
0.029665631459994818 0.09130142556433479 1.725
-0.02966563145999448 -0.0913014255643349 1.702
0.31898818320000427 1.967952884331862 1.7914258239506022
-0.28157347609954314 -1.737128093218483 1.5808227880434924
1.1402113556179638 4.058234270043022 2.142664764389623
0.6909757429784766 2.1266210663161065 0.008772874936978724
0.045661197942569856 0.277916875327557 -0.238114690529871
-0.0487723762786602 -0.2968530618647716 -0.2562321126354047
-0.027094188960767672 -0.2698470984948288 -0.2539320898508063
0.015355140545355247 0.15293095243205848 -0.12268629060207493
0.011914342310555647 0.24343061442878253 -0.21588982919900007
0.023040488101173803 0.2876887084150134 -0.2372519561438932
-0.024690165041976346 -0.30828694515017635 -0.2562321126354047
-0.29479016473021447 -1.8612462004361998 0.007390577722199623
0.31291422617393727 1.9756779031677327 0.007846107486160917
0.5707207716669921 4.167148291810348 2.118556018798741
-0.3489703019313986 -2.5480253563199837 1.2948405444436117
-0.15095896443422507 -1.9105681504377001 1.6744241373355413
0.1624176808697206 2.055592056428301 1.801825973871941
0.015017708643862022 0.09481808069713325 1.726
-0.015017708643861677 -0.09481808069713331 1.703
-1.6465195194651677e-16 0.096 1.727
4.939558558395502e-16 -0.096 1.703
-1.772176578207678e-15 2.071225965461036 1.7931591822708257
4.916566256336166e-15 -1.9154072673977196 1.6579572332934216
-6.186128984538659e-15 4.171104889594602 2.094447273207859
1.5685057052068162e-14 -3.525307362486284 1.7699837387972412
1.287795649251028e-14 -2.5028417848517712 0.009821378790234462
-4.991974780173775e-15 2.9105836184518044 0.0114235869255466
7.578375828743934e-16 -0.2912747843531946 -0.2372519561438932
-1.2673270279930788e-16 0.23911712611187014 -0.20828137706863886
4.571293317682112e-16 -0.2875013043448673 -0.2577363159159869
-0.006461246586139981 0.13201443986097297 -0.08844825601544937
0.00680646167421275 -0.13906778101981665 -0.0979588211784009
-0.013039159226893995 0.16280987018724 -0.11560640772102432
0.404658734659387 -2.55493439900661 0.01015124517103402
-0.44698873782681064 3.2637122175399957 1.658983055972556
0.4798466623858685 -3.5036261141355594 1.7810335805263953
-0.16304133750173302 2.063485184884706 1.8087594071528337
0.149166286762535 -1.8878796477946866 1.6544905166529753
-0.015017708643862348 0.0948180806971332 1.729
0.015017708643862733 -0.09481808069713313 1.703
-0.029665631459995147 0.09130142556433468 1.729
0.029665631459995505 -0.09130142556433457 1.703
-0.31945016010155297 1.9708029860715859 1.794025861430937
0.29358186499387295 -1.8112121653106963 1.6484237625321945
-0.44244429474439556 1.574745410725684 0.830244926285993
0.9478779074240091 -3.3736820711102884 1.7810335805263953
-0.46570378173162386 1.4332999138645397 0.005906179008601612
0.14158130930322127 -0.4357458246840626 0.00175928736426431
-0.012964356323410834 0.1291197142970797 -0.09130142556433483
0.013798439551056677 -0.13742684388893742 -0.10271410375987669
-0.01865392641623439 0.11847371704418426 -0.08749719949915422
0.03351629197098146 -0.13008695253150132 -0.09490078245755727
0.17952303683618767 -0.4056194050278798 -0.22047910745242225
-0.471441399794297 0.9252629783162013 0.004060498068413607
0.20134975977912314 -0.3951742008609551 0.001700382653407246
-0.4502893081462684 1.022006233825746 0.5740895043828735
-0.39671046836800644 1.5607161342526454 1.5158218510351251
0.4326712304158654 -1.702190952799767 1.6536238374928638
-0.04358308797499667 0.08553662632208323 1.73
0.043583087974997006 -0.08553662632208306 1.704
-0.05642738422007763 0.0776656314599948 1.73
0.05642738422007789 -0.07766563145999461 1.704
-0.38808065716265666 1.070722912713429 1.1440164913472641
0.528849819872908 -1.4591080721782907 1.5608891673609264
-0.44538036678270415 0.7089209625373482 0.4374732793678766
-0.46892967555631176 0.6454313040826899 0.0031101687332529765
0.2595416304346653 -0.35723116221309825 0.0016925286919596374
-0.04163173699015807 0.11332015140661517 -0.08799890736973494
-0.031586326734104365 0.14068756684030867 -0.13790319486279742
0.025309998224235852 -0.11273238882366092 -0.09605670814581062
-0.029205784510484903 0.09451190401213995 -0.08844825601544937
0.030606725447046387 -0.09904544411531446 -0.09700776466210577
0.11160317597089166 -0.2207090845434311 -0.2562321126354047
-0.047542550547729844 0.09402127418834504 -0.07937156350995699
0.3024690432616813 -0.3482132967018901 -0.23930653685285383
-0.46390212462490454 0.463905701624801 0.002548610489748967
-0.43565255191122587 0.5038114726760384 0.3545994663992203
-0.37193392240960826 0.7455588507958287 0.9100131181171419
0.637616353544029 -1.2781316442370012 1.5643558840013727
-0.06788225099390874 0.06788225099390839 1.729
0.06788225099390897 -0.06788225099390816 1.704
-0.07766563145999512 0.05642738422007719 1.729
0.07766563145999529 -0.056427384220076954 1.704
0.7266902769072141 -1.0583432155724568 1.5582891298805917
-0.36408854723100753 0.5302542996302829 0.7774112066200728
-0.425770246554049 0.3577372303763008 0.3018615854191663
-0.45487128885032385 0.3304858843689526 0.002175547320987562
-0.493736096328275 0.4129717442106077 -0.3448392332289571
0.3529569403456213 -0.2952209578552994 -0.2442611235371779
0.12652053409385688 -0.18178820981302177 -0.2536439094774713
-0.03394112549695404 0.07980037205327072 -0.09130142556433483
0.06531892910940867 -0.1535740129041913 -0.23110673345972255
-0.05738695154389661 0.0946229910094858 -0.17594545551460358
0.1397710706657868 -0.14084026330229404 -0.25450664386344907
-0.4863359642947055 0.28527695195682123 -0.3076798330965263
0.38644842450271183 -0.22668450767470522 -0.24277474753188066
-0.44488996579438184 0.22668450767470694 0.0019242205546640889
-0.4119590945158302 0.2427435876100529 0.2641916704334134
2.015354069417724 -1.1875311981883543 1.312922103636773
0.8016680207351231 -0.8187976364748857 1.5608891673609264
-0.3488792920182115 0.35633395910890453 0.6751430657269083
-0.08553662632208345 0.043583087974996236 1.73
0.08553662632208361 -0.0435830879749959 1.703
-0.09130142556433483 0.02966563145999468 1.729
0.09130142556433495 -0.02966563145999433 1.703
-0.3389842741778837 0.22078610091157802 0.6136088453589872
0.9054474638459991 -0.5897330063692826 1.6518904791726408
-0.40095268474106216 0.15065965026687497 0.2400829248425316
2.009830917595161 -0.7552023833834306 1.226532431936113
-0.4329530629833689 0.14067606240711458 0.0017475064220928971
1.8387440874947854 -0.597448777058455 0.007582999777666031
-0.4750751212666014 0.17770626729976613 -0.28092506500117626
0.41249337951828374 -0.154296984789745 -0.24277474753188066
0.14964841485468927 -0.09615941555740737 -0.2553693782494269
0.08477159464408138 -0.08913412945668933 -0.25868737243228207
-0.08173016021183964 0.08593617604369076 -0.24822575075303535
0.08487815911368465 -0.04350369064390618 -0.24822575075303535
-0.058000009142163196 0.029727487982920263 -0.15597326867240532
0.15541241977532502 -0.04867902738401456 -0.2553693782494269
-0.14594353594275797 0.04571313793934992 -0.238114690529871
-0.4629499509450705 0.08441331872022759 -0.26308855293760947
0.4258558729776514 -0.07764966269282032 -0.24128837152658345
-0.42071141311525145 0.06663465549881178 0.0016296970003787693
2.562810718323762 -0.40591247111563494 0.010182661016824454
