0.096 0.0 1.724
-0.096 -3.2930390389303353e-16 1.702
-0.096 -3.2930390389303353e-16 1.702
0.096 0.0 1.724
0.096 1.0216774601787553 1.7749589199084828
-0.3643402137738783 -2.505237449425575e-15 0.6274757119207722
0.096 3.3395233072888413 1.939749488999701
-0.3928045870075632 -1.5582243529485458e-15 0.22300589671565696
-0.40260961274337925 -1.3810618698960067e-15 0.001535449463007467
-0.4141332267562802 -1.6354231487961372e-15 -0.23137919815793526
-0.15590737903815116 -1.057635385185523e-15 -0.2527811750914935
-0.08855156828059718 -9.82968360878316e-16 -0.25678525939969177
0.096 0.0741640786499867 -0.22825356391083707
-0.07719643690973554 -0.039566479117850425 -0.22254722481306616
-0.40063463520973713 -0.07305087533389952 -0.22642461147361118
-0.3899838300285179 -0.061767846922992455 0.0015040336172170328
3.3182108319439374 0.6077770286305675 1.950799330728855
-0.37962502590867186 -0.06953366796931681 0.21798324138422323
1.0205429077248167 0.3240111258843333 1.7931591822708257
-0.3495998007112371 -0.11099408381556543 0.6092754495584295
0.09481808069713321 0.015017708643862182 1.724
-0.09481808069713317 -0.015017708643862532 1.704
0.09130142556433472 0.029665631459994988 1.723
-0.09130142556433464 -0.029665631459995307 1.702
0.9741617223878725 0.6344877468577286 1.7775589573888173
-0.33898427417788296 -0.2207861009115827 0.6136088453589872
3.3225767865365747 1.2484721407158554 2.028650488366078
-0.3671514591199903 -0.13795869819830386 0.21898777245051
3.2291518991542767 1.0492231443225395 0.013328172576591668
-0.3755199363544955 -0.12201476445900827 0.0015040336172170328
-0.38577571973782976 -0.14430299567512117 -0.22642461147361118
0.07927266760913745 0.050938149892020716 -0.11560640772102432
-0.07021267603471781 -0.04511648117874287 -0.09490078245755727
0.039077774276835904 0.04108880345940326 -0.08749719949915422
-0.038273802684409094 -0.04024345770060625 -0.0836929734339736
0.03796944520145444 0.0626062610972499 -0.0941545951132203
-0.036610391953421424 -0.06036537393021428 -0.08749719949915422
-0.06544064631209207 -0.06594124101192601 -0.09403804807157948
0.4351277999265592 0.43845635309143155 -0.8290877449246594
-0.37202834562114306 -0.21822591844354727 -0.2333610328316649
0.2793971691155428 0.1638899416090643 -0.17241961661447855
3.223880667870141 1.6426619123523136 0.01420388927800002
-0.3621899894133726 -0.1845464401254336 0.001551157385902684
3.502545923951319 2.0638470534269207 2.2827968481366234
-0.35526472409106297 -0.2093368852034115 0.22652175544766057
0.921089072719866 0.9407704139605098 1.794025861430937
-0.3263921355137032 -0.33336630900850034 0.6309424285612185
0.08553662632208328 0.043583087974996534 1.723
-0.08553662632208316 -0.043583087974996826 1.703
0.07766563145999492 0.056427384220077474 1.722
-0.07766563145999471 -0.05642738422007775 1.702
0.8298809075024354 1.2086288424366411 1.780158994869152
-0.31877866812728345 -0.46426552191893267 0.6794764615274661
3.0676407602259985 2.577468290080241 2.2019320973005407
-0.3438146554383268 -0.2888771669574087 0.2420919869751051
-0.34933624045492156 -0.25380959229295486 0.001653258884721595
-0.3591670097043396 -0.3004151966274163 -0.2487202515530696
0.2530099559673292 0.21162309905129406 -0.17192415794604612
0.06191261348479051 0.08895775891916866 -0.10093992315940184
-0.03394112549695386 -0.07980037205327152 -0.09130142556433483
0.03631201591759915 0.08537466974949819 -0.10366516027617184
-0.03108732465514114 -0.10060069582264372 -0.09986093421099122
0.029511527432541144 0.09550130889155403 -0.09035036904803968
-0.11058300164167675 -0.21869156362329212 -0.2536439094774713
0.04905137162971896 0.0970051545022223 -0.08454796982582376
0.22054689286834558 0.2539015557258366 -0.17142869927761373
-0.33919938925379295 -0.3392020047110586 0.0018456809401880038
2.7894171252037196 3.225828343232171 2.2908330966669177
-0.3335513707982081 -0.385736308895081 0.2697165912979905
0.7320375467776695 1.467403318791396 1.7966258989112718
0.0678822509939085 0.06788225099390863 1.723
-0.06788225099390827 -0.06788225099390886 1.701
0.056427384220077335 0.07766563145999501 1.723
-0.05642738422007709 -0.0776656314599952 1.701
0.6041154001701916 1.6667674333847573 1.7836257115095984
2.24909727663967 3.5799337490182643 2.2220227186262758
-0.3274214249385723 -0.5211633224866706 0.31994314461232765
-0.3316416963535551 -0.4564691545949495 0.0021834012824351705
0.086291537865147 0.23488258821148628 -0.2363892217579154
-0.09248780674274189 -0.25174861826762396 -0.2553693782494269
0.025309998224235603 0.1127323888236615 -0.09605670814581062
-0.02638222384174325 -0.11750815190940676 -0.10366516027617184
0.018557134900546078 0.1178589804795575 -0.08654614298285906
-0.039937313287049046 -0.2536475082134484 -0.2548831463671014
0.06664940681294758 0.25868667774572135 -0.2363892217579154
-0.07121691760730163 -0.27641458035519834 -0.25450664386344907
0.6135952424891133 1.3863743705131364 -0.769447312075532
1.7697219168193719 4.016677274824277 2.263710757877176
0.4715807078231692 1.855266442374692 1.8026926530320528
-0.29364518090199326 -1.1552424453648378 1.120616154024252
0.04358308797499638 0.08553662632208338 1.724
-0.04358308797499605 -0.08553662632208354 1.701
0.029665631459994818 0.09130142556433479 1.724
-0.02966563145999448 -0.0913014255643349 1.702
0.31898818320000427 1.967952884331862 1.7914258239506022
-0.28249715017991567 -1.7428265709878366 1.5860228630041617
1.1402113556179638 4.058234270043022 2.142664764389623
1.264835724319428 3.892794101819393 0.016069205121807047
0.045513642918300956 0.2770187816915715 -0.2372519561438932
-0.04862371749632071 -0.29594825020543336 -0.2553693782494269
-0.027094188960767672 -0.2698470984948288 -0.2539320898508063
0.01636781184135526 0.16301674652430043 -0.13505002531391197
0.011869834145016984 0.24252123564800201 -0.2149387726827049
0.02296582044340933 0.2867563912727589 -0.2363892217579154
-0.024614909125595923 -0.3073472828787434 -0.2553693782494269
-0.29400901674347624 -1.8563141881228802 0.007370942818580602
0.6227854605200474 3.9321429639304792 0.015629383280740965
0.5701798279481646 4.16319856226521 2.1165469566661677
-0.3530256530217422 -2.5776357195795105 1.309908510437913
0.1624956376706845 2.0565786939664545 1.8026926530320528
-0.1508030773053811 -1.9085952104102646 1.6726907790153183
0.015017708643862022 0.09481808069713325 1.725
-0.015017708643861677 -0.09481808069713331 1.702
-1.6465195194651677e-16 0.096 1.726
4.939558558395502e-16 -0.096 1.703
-1.7713218809829972e-15 2.0702270406890158 1.7922925031107142
4.916566256336166e-15 -1.9154072673977196 1.6579572332934216
-6.189094381612784e-15 4.173104360065778 2.095451804274146
1.568950467614053e-14 -3.526306991740793 1.7704860043303845
1.2872814946534003e-14 -2.501842521023256 0.009817451809510658
-3.7391392609029645e-15 2.1801146758828995 0.008552964016445685
1.3610654455643843e-15 -0.304527502863042 -0.14318755517696638
7.553816471741321e-16 -0.29033084576048757 -0.2363892217579154
-1.2770423799038331e-16 0.24095020232404868 -0.21018349010122914
4.556308926664245e-16 -0.2865588944702293 -0.25678525939969177
-0.0064277049883149475 0.1313291270208142 -0.08749719949915422
0.006771179190090285 -0.1383468988624444 -0.09700776466210577
-0.07608077196560495 0.9499616034994718 -0.8256368073807483
0.06278954030417108 -0.4563932445596343 -0.2239473181314491
0.404658734659387 -2.55493439900661 0.01015124517103402
0.48025232682948304 -3.5065880948048793 1.7825403771258255
-0.44685352395814126 3.262724946233558 1.6584807904394128
-0.16304133750173302 2.063485184884706 1.8087594071528337
0.14901040429444376 -1.885906766754711 1.652757158332752
-0.015017708643862348 0.0948180806971332 1.728
0.015017708643862733 -0.09481808069713313 1.703
-0.029665631459995147 0.09130142556433468 1.728
0.029665631459995505 -0.09130142556433457 1.703
-0.31929616764106894 1.9698529511714375 1.7931591822708257
0.2934279030288411 -1.8102623185479656 1.6475570833720827
-0.44244429474439556 1.574745410725684 0.830244926285993
0.9481450207296692 -3.37463277938527 1.7815358460595387
-0.4672457272404071 1.4380455707640931 0.005925813912220633
0.1412791689066952 -0.43481592498965693 0.0017553603835405056
-0.012964356323410834 0.1291197142970797 -0.09130142556433483
0.013727214911104341 -0.13671747545350255 -0.10176304724358154
-0.018557134900546203 0.11785898047955731 -0.08654614298285906
0.03351629197098146 -0.13008695253150132 -0.09490078245755727
0.17952303683618767 -0.4056194050278798 -0.22047910745242225
-0.47234549305472207 0.9270373749287633 0.004068352029861216
0.20134975977912314 -0.3951742008609551 0.001700382653407246
-0.4498981150228354 1.0211183561800963 0.5735872388497303
-0.3955797732091183 1.5562678166051234 1.5114884552345673
0.43199264895155814 -1.6995213155600288 1.651023800012529
-0.04358308797499667 0.08553662632208323 1.729
0.043583087974997006 -0.08553662632208306 1.704
-0.05642738422007763 0.0776656314599948 1.73
0.05642738422007789 -0.07766563145999461 1.703
-0.38808065716265666 1.070722912713429 1.1440164913472641
0.528849819872908 -1.4591080721782907 1.5608891673609264
1.8070355615454903 -2.876295151678844 1.7850517047915424
-0.44538036678270415 0.7089209625373482 0.4374732793678766
0.2589679407418464 -0.3564415400034661 0.0016886017112358331
-0.4695131906609299 0.6462344499157592 0.003114095713976781
0.24792413127488427 -0.3928458572631605 -0.23583832617382697
-0.04184866687166166 0.11391062705797743 -0.08886164175571272
-0.031586326734104365 0.14068756684030867 -0.13790319486279742
0.025441959145902356 -0.11332015140661489 -0.09700776466210577
-0.029205784510484903 0.09451190401213995 -0.08844825601544937
0.03044797620623423 -0.09853172078066985 -0.09605670814581062
0.11160317597089166 -0.2207090845434311 -0.2562321126354047
-0.047542550547729844 0.09402127418834504 -0.07937156350995699
0.3000597012090843 -0.34543957503447487 -0.2373247021791242
-0.4646016263590192 0.4646052087525482 0.002552537470472771
-0.43444084479422346 0.5024101909794413 0.35359493533293357
-0.3705287994157337 0.7427422163846598 0.9065464014766956
0.6372641001845804 -1.277425535990251 1.563489204841261
-0.06788225099390874 0.06788225099390839 1.729
0.06788225099390897 -0.06788225099390816 1.703
-0.07766563145999512 0.05642738422007719 1.728
0.07766563145999529 -0.056427384220076954 1.703
0.726287260243395 -1.0577562668193636 1.5574224507204801
-0.3644898490908924 0.5308387509629928 0.7782778857801844
-0.42507945047024304 0.35715681528206716 0.3013593198860229
-0.4540741786175934 0.32990674541984616 0.0021716203402637577
-0.49443225242335576 0.413554024499544 -0.34533469189738947
0.35226718428879145 -0.2946440306993002 -0.24376566486874549
0.1261317191903213 -0.18122954978389225 -0.2527811750914935
-0.03394112549695404 0.07980037205327072 -0.09130142556433483
0.06531892910940867 -0.1535740129041913 -0.23110673345972255
-0.06133078156314602 0.10112581059503088 -0.19116235977532609
0.13848641434692943 -0.1395457798777987 -0.2519184407055157
-0.4863359642947055 0.28527695195682123 -0.3076798330965263
0.3849295056485927 -0.22579353400056773 -0.24178383019501584
-0.44488996579438184 0.22668450767470694 0.0019242205546640889
-0.41120117253294775 0.24229698816922826 0.26368940490027004
2.0115043430879176 -1.1852627778693117 1.3104107759710564
0.800780296752181 -0.8178909440781894 1.5591558090407034
-0.34799699789238864 0.3554328125916254 0.6734097074066852
-0.08553662632208345 0.043583087974996236 1.729
0.08553662632208361 -0.0435830879749959 1.702
-0.09130142556433483 0.02966563145999468 1.729
0.09130142556433495 -0.02966563145999433 1.702
-0.33851413273860015 0.22047988996563334 0.6127421661988757
0.9054474638459991 -0.5897330063692826 1.6518904791726408
-0.40014642645387766 0.15035669533928683 0.23958065930938824
2.009830917595161 -0.7552023833834306 1.226532431936113
-0.4329530629833689 0.14067606240711458 0.0017475064220928971
1.8387440874947854 -0.597448777058455 0.007582999777666031
-0.4742606160043434 0.1774015940315344 -0.28042960633274383
0.4108720920925273 -0.1536905271501972 -0.24178383019501584
0.14964841485468927 -0.09615941555740737 -0.2553693782494269
0.08477159464408138 -0.08913412945668933 -0.25868737243228207
-0.08145439718033426 0.08564622163322141 -0.2472746942367402
-0.058000009142163196 0.029727487982920263 -0.15597326867240532
0.08287628941601564 -0.04247764671286196 -0.24156835513896927
-0.14547191664763984 0.045565415069999615 -0.2372519561438932
0.15541241977532502 -0.04867902738401456 -0.2553693782494269
-0.4637942268906138 0.0845672622174317 -0.2635840116060419
0.425014166583902 -0.0774961877222768 -0.24079291285815102
-0.4216737418983535 0.06678707457977698 0.0016336239811025736
2.535174798211246 -0.40153533762535404 0.010072705556557935
