0.096 0.0 1.72
-0.096 -3.2930390389303353e-16 1.699
0.096 0.0 1.72
-0.096 -3.2930390389303353e-16 1.7
0.096 0.0 1.72
-0.096 -3.2930390389303353e-16 1.7
0.096 0.0 1.6947827120379633
-1.732661536480798 -5.9434605009211304e-15 1.6453277731906153
0.096 0.0 1.7968267445067574
-1.2476986815733997 -4.279917153378244e-15 1.006417141002434
0.096 0.0 2.010225562840255
-0.838513565781735 -2.87631031957493e-15 0.25741115631433004
-0.8136829849517563 -2.7911352445411436e-15 -1.3858205955498495e-15
-0.42693325005204275 -1.4644873535820659e-15 -0.24451866495366972
-0.14720201652821863 -0.023314509002465632 -0.09222793735874421
-0.14720201652821863 -0.023314509002465632 -0.09222793735874421
-0.4149431418619576 -0.06572053729031246 -0.2404041681876224
-0.796800084326571 -0.12620073540661045 -1.3738147240537492e-15
-0.8232842970450339 -0.13039542261546025 0.2558660713424553
3.2202725220082553 0.5100410610907612 1.007086384667949
3.4355010748974744 0.54412991498198 2.043729322220926
-1.0227115728473462 -0.16198160007885723 0.6060065951135388
2.214452766827138 0.3507348620990376 1.8121980673998812
-1.2215053616247482 -0.19346744305436092 0.9975179540643095
1.769516641549841 0.280263902916825 1.7014401076520294
-1.713301943586238 -0.2713603694418534 1.6472298862232058
0.09481808069713321 0.015017708643862182 1.719
-0.09481808069713317 -0.015017708643862532 1.701
0.09130142556433472 0.029665631459994988 1.718
-0.09130142556433464 -0.029665631459995307 1.7
0.09130142556433472 0.029665631459994988 1.718
-0.09130142556433464 -0.029665631459995307 1.7
1.6972402279385301 0.5514667792960566 1.6947827120379633
-1.6469094500459613 -0.5351133182320437 1.6443767166743202
2.1161691382325363 0.6875850335719678 1.798444778495507
-1.206545921306728 -0.3920305342420393 1.0234064978843078
3.270056083283938 1.062505629245186 2.020217912129227
-0.954482233994784 -0.3101300775292951 0.5871974670401797
3.214916678958595 1.044589750741332 1.0441684239929425
-0.8097574660866722 -0.26310614990321296 0.2614283772412043
-0.7804697988099399 -0.25359000994828657 -1.3978264670459497e-15
0.47954472662457714 0.15581352690494993 -0.15296341221559998
-0.7002489046483995 -0.22752466138578634 -0.2255824058937131
-0.40511100483471446 -0.13162854463150458 -0.24393087970137725
0.13279285753367986 0.06766134042449796 -0.09222793735874421
0.13279285753367986 0.06766134042449796 -0.09222793735874421
-0.3777962225746846 -0.19249679012466528 -0.2427553091967923
-0.5625293322493321 -0.28662301086814457 -0.19282660448996847
1.9950161361583387 1.0165114935247175 -0.6912710164167619
2.5221083500939825 1.2850783907552905 -4.852087208923915e-15
-0.7665975942247105 -0.3906009837786971 -1.4664314470236649e-15
3.552581900760162 1.8101308898505963 1.2317417395785346
-0.7931664809836252 -0.4041385077470998 0.27348004002182724
3.125039720574226 1.592287268313529 2.0607750945374077
-0.9057465893694946 -0.46150093807654197 0.5948386753199819
1.9976867010104253 1.017872214281381 1.8121980673998812
-1.1792349325896687 -0.6008502090872891 1.06790243257493
1.5954142979944161 0.8129041873154446 1.7004890511357342
-1.5438127332146299 -0.7866118768264144 1.6453277731906153
0.08553662632208328 0.043583087974996534 1.716
-0.08553662632208316 -0.043583087974996826 1.7
0.07766563145999492 0.056427384220077474 1.717
-0.07766563145999471 -0.05642738422007775 1.701
0.07766563145999492 0.056427384220077474 1.717
-0.07766563145999471 -0.05642738422007775 1.701
1.4437587718635105 1.0489521479396318 1.6947827120379633
-1.4009448549642078 -1.0178460165218084 1.6443767166743202
1.8017375167317835 1.309038930208413 1.8000628124842573
-1.1635343615170748 -0.8453571964377266 1.1609393869280489
2.7727801441593076 2.0145426955405754 2.01375227435401
-0.8916894148487363 -0.6478502816598276 0.6453882070171344
-0.5323657632930827 -0.38678636748646333 0.20117006333808987
3.0671578790079685 2.2284206392060137 -6.5003218528885266e-15
-0.7555789953613392 -0.5489602733975832 -1.5933506599824382e-15
1.813053292718954 1.3172603227004744 -0.6918890504055117
-0.41904971813605424 -0.3044574415745055 -0.15728965013684928
0.26563860807265166 0.1929977458449299 -0.18456456921983722
-0.3461846015892556 -0.2515178355951887 -0.2451064502059622
0.2072980945402054 0.20729809454020576 -0.22409770744186094
-0.23150053995617276 -0.23150053995617476 -0.2532223192393591
0.2072980945402054 0.20729809454020576 -0.22409770744186094
-0.23150053995617276 -0.23150053995617476 -0.2532223192393591
0.23082460874005592 0.2308246087400563 -0.18338899871525227
1.5627667772255702 1.562766777225573 -0.6823095235798883
3.0618178423936304 3.0618178423936357 -7.424773958088242e-15
2.4694429533803754 2.4694429533803794 2.0519583157530206
-0.8737963149384377 -0.8737963149384452 0.7241514308243258
1.585373142197128 1.5853731421971307 1.8121980673998812
-1.137640540768475 -1.1376405407684849 1.2992812929661648
1.2668340459586636 1.2668340459586656 1.7014401076520294
-1.223764683262263 -1.2237646832622735 1.643425660158025
0.0678822509939085 0.06788225099390863 1.717
-0.06788225099390827 -0.06788225099390886 1.701
0.056427384220077335 0.07766563145999501 1.718
-0.05642738422007709 -0.0776656314599952 1.701
0.056427384220077335 0.07766563145999501 1.717
-0.05642738422007709 -0.0776656314599952 1.701
1.050712954730624 1.4461823144960808 1.6976358815868489
-0.9943716182015461 -1.3686351175222848 1.606334456022514
-1.1211517964504778 -1.5431330627382285 1.5411773742842738
1.310800649140536 1.8041623148189159 1.8024898634673818
-0.8676445024293251 -1.194210206539941 0.8658076766268116
2.0186555812422298 2.7784410456800397 2.0178667711200573
2.888340187329211 3.9754592140102574 1.5182004933641098
-0.7374812520213786 -1.0150558619686796 -2.145620748803046e-15
1.1452210919969634 1.5762616059668784 -0.6013470710536516
-0.2372206904511148 -0.32650626949860606 -0.2304118188986503
0.13825259320922834 0.27133599184576246 -0.23380591137436035
0.1378218254644842 0.27049056254449483 -0.23299689437998541
-0.19603612576933466 -0.3847425598934301 -0.2474575912151321
0.5162143490764264 1.0131277045899008 -0.3501162546268177
-0.30009149783469496 -0.588962726263156 -0.20209711432121694
1.9885020729257412 3.9026550585428414 -7.510530183060384e-15
-0.734942054622049 -1.442404997338792 -2.7716411910996985e-15
2.0248127448333424 3.9739187646906506 1.3779067779178844
-0.7521640286048962 -1.4762050244030647 0.5111141086961607
1.595464013518606 3.1312744340870378 2.064889591303455
-0.8528005807463923 -1.6737153788737844 1.102685133300678
1.0224079741923517 2.006588631062155 1.8202882373436307
-0.9516546213290085 -1.867727357432862 1.694081586221139
0.8151708840996655 1.5998629409159302 1.70524433371721
-0.7399272207450974 -1.4521889367435754 1.5473689520122147
0.04358308797499638 0.08553662632208338 1.719
-0.04358308797499605 -0.08553662632208354 1.701
0.029665631459994818 0.09130142556433479 1.719
-0.02966563145999448 -0.0913014255643349 1.701
0.029665631459994818 0.09130142556433479 1.719
-0.02966563145999448 -0.0913014255643349 1.701
0.5542439254724444 1.705787405005939 1.7033422206846196
-0.5024111727479488 -1.5462625952593017 1.543564725947034
0.6928334678709218 2.132322158070387 1.8121980673998812
-0.6422048245811187 -1.9765032161078653 1.67951928032239
1.0767149424768743 3.313787852691693 2.047256033734681
-0.8435201750738824 -2.5960881561001212 1.6034781682538641
-0.7558199407487898 -2.3261745887113667 0.7552375342523681
-0.73513220510636 -2.262504285303226 -4.076850935175732e-15
-0.13343559922267614 -0.4106725470007526 -0.2474575912151321
-0.05151446552395214 -0.32524953472953894 -0.254840353228109
0.0476385970004169 0.3007782639683791 -0.23380591137436035
-0.05151446552395214 -0.32524953472953894 -0.254840353228109
0.0476385970004169 0.3007782639683791 -0.23380591137436035
-0.06739693491308854 -0.42552749989198224 -0.24686980596283964
-0.39997209175024523 -2.5253244001159403 -4.382143096076566e-15
-0.41232196132194027 -2.603298407830272 0.8139507631836077
0.5600803251770066 3.5362080014260497 2.103683417954758
-0.4676673676473044 -2.9527355508473563 1.756302333849907
0.35448588251002017 2.238135777628581 1.8316144752648797
-0.3243236588954993 -2.047698992596479 1.675474195350515
0.282294650326687 1.782338276084799 1.7138038423638664
-0.2541807342513951 -1.6048339958810136 1.5426136694307386
0.015017708643862022 0.09481808069713325 1.719
-0.015017708643861677 -0.09481808069713331 1.701
-1.6465195194651677e-16 0.096 1.721
4.939558558395502e-16 -0.096 1.701
-1.6465195194651677e-16 0.096 1.721
4.939558558395502e-16 -0.096 1.7
-3.0898990108069765e-15 1.8015596021225608 1.710950672814981
8.344991612668476e-15 -1.621843703936973 1.5397604998818535
-3.881390405198331e-15 2.263037118564342 1.8291874242817552
1.0590413677194322e-14 -2.0582400248756216 1.663338940434891
-6.090917846074201e-15 3.5512977909491057 2.0866376456382763
1.516631635124101e-14 -2.947563739768828 1.7316153532536231
-6.763025374021086e-15 3.9431687765045003 1.218144991826037
1.697148625042907e-14 -3.2983973381022484 1.018829030454197
1.3191698098823271e-14 -2.5637979639589386 -4.3941489675726655e-15
2.226823490604232e-15 -0.4327817001676481 -0.24804537646742458
-0.2173376400544799 1.3722158540898546 -0.8146703596773707
0.06754944537579581 -0.4264904130568733 -0.2474575912151321
0.4040365487169379 -2.550986371445544 -4.426736333062081e-15
-0.6201316533107881 3.9153571653888783 1.224634348707911
0.5202049788098457 -3.2844449729020346 1.0271724893023204
-0.5660227199648938 3.5737268055187914 2.126019257541872
0.4618823148728606 -2.916210165130025 1.7345542795150857
-0.3577680839962299 2.258858782233556 1.8486038321467537
0.32276100034861216 -2.0378327548290027 1.6673840254067658
-0.2827632902652942 1.7852971522069778 1.7166570119127518
0.2537122522042566 -1.6018761166461792 1.5397604998818535
-0.015017708643862348 0.0948180806971332 1.721
0.015017708643862733 -0.09481808069713313 1.7
-0.029665631459995147 0.09130142556433468 1.722
0.029665631459995505 -0.09130142556433457 1.7
-0.029665631459995147 0.09130142556433468 1.722
0.029665631459995505 -0.09130142556433457 1.7
-0.5570211116308873 1.7143347051254285 1.711901729331276
0.499634899251993 -1.5377181040260437 1.5350052173003774
-0.70394803839723 2.166529288801952 1.8413226791973791
0.6357224656678447 -1.9565525667983459 1.662529923440516
-1.0479875710912645 3.2253740947118414 1.992592005271481
0.9025082960204589 -2.7776349248262 1.7157451514417266
1.06343231913097 -3.27290814148942 1.0630184606498143
-0.9043613981370231 2.7833381867030904 0.903874708546717
0.8413583976908676 -2.58943488943728 -4.666853762984085e-15
-0.4327148321959559 1.331759315341036 -0.8211359974525878
0.13373690020628878 -0.4115998560777363 -0.24804537646742458
0.1495008017639922 -0.2934118441234496 -0.254840353228109
-0.06560123448584344 0.12874967197602244 -0.08737383539249452
0.1495008017639922 -0.2934118441234496 -0.254840353228109
-0.06560123448584344 0.12874967197602244 -0.08737383539249452
0.19603612576933896 -0.38474255989342787 -0.2474575912151321
-0.6330029440587012 1.2423382280252897 -0.8176092859388331
0.3140226393971791 -0.6163041310473502 -0.2116766411468404
-0.9058521257721429 1.7778348984745713 -3.4182431273896655e-15
1.2179285813035063 -2.39031942862121 -4.598248783006369e-15
1.3939783284627236 -2.73583651188741 0.9483731557367093
-0.8981433020013428 1.7627054799569113 0.6106175808848933
-1.002450911289355 1.967420689749689 1.2966542665571938
1.3349896917013937 -2.6200647936741985 1.727500856487576
-1.042819340216494 2.04664819245283 1.8566940020905034
0.9335144256127385 -1.8321252187481396 1.6617209064461411
-0.8237844953966741 1.6167681049377634 1.7233144075268179
0.7344888635828192 -1.441515559844159 1.5359562738166728
-0.04358308797499667 0.08553662632208323 1.721
0.043583087974997006 -0.08553662632208306 1.699
-0.05642738422007763 0.0776656314599948 1.722
0.05642738422007789 -0.07766563145999461 1.699
-0.05642738422007763 0.0776656314599948 1.722
0.05642738422007789 -0.07766563145999461 1.699
-1.0671475573687619 1.4688026044373304 1.7242654640431132
0.9486018143883362 -1.3056383870502415 1.532152047751492
-1.2790903985398012 1.7605168991984406 1.7588029457711347
1.203344568999046 -1.6562617088674425 1.6544397534967665
-1.0237148815304227 1.4090226546557554 1.0221585537366091
1.717847727576173 -2.3644145543583046 1.7169207219463114
-0.9151595531359222 1.2596090632827548 0.48021240925866604
1.8141952534236552 -2.4970255470169063 0.9533174276467085
-0.8975602054047582 1.2353856392534954 -2.6138497371509532e-15
1.5134237559300132 -2.083049095673622 -4.413015337066537e-15
-0.9814614543878559 1.3508658014587809 -0.5151313296230406
0.2543827008206086 -0.35012775029010884 -0.24804537646742458
0.23285295789403376 -0.23285295789403093 -0.254840353228109
0.23352944139872525 -0.23352944139872242 -0.25564937022248396
0.30533342430857635 -0.3053334243085727 -0.2474575912151321
-0.8914216174179331 0.8914216174179286 -2.1559114957997035e-15
-0.901292682761823 0.9012926827618183 0.39276059985055634
1.7987467859596133 -1.7987467859595916 0.7855211997011127
-1.0042671457336465 1.0042671457336412 0.832891702498433
-1.2640096914185461 1.2640096914185395 1.4440953349592804
1.446213158562743 -1.4462131585627254 1.6528217195080166
-1.2894295250226002 1.2894295250225936 1.7318739161734744
1.141169794552947 -1.1411697945529333 1.532152047751492
-0.06788225099390874 0.06788225099390839 1.724
0.06788225099390897 -0.06788225099390816 1.699
-0.07766563145999512 0.05642738422007719 1.725
0.07766563145999529 -0.056427384220076954 1.699
-0.07766563145999512 0.05642738422007719 1.725
0.07766563145999529 -0.056427384220076954 1.699
-1.471226265674584 1.0689084503310922 1.7271186335919984
1.367019693911625 -0.9931979442476542 1.6044323429899237
-1.245882231313362 0.905186425935364 1.2434591203542935
1.559293109136455 -1.132892757413325 1.557357714171773
-0.9884386749270963 0.7181427336597971 0.7159224372922312
-0.8868538610730895 0.6443370461953535 0.337446557857441
-0.8771833681902276 0.6373110218491811 -1.852334459398313e-15
1.4768815185246404 -1.0730172320332751 -3.1266719624843754e-15
0.3509166584865106 -0.2549558761759801 -0.24863316171971706
0.2942642630681186 -0.1499351309099274 -0.25564937022248396
0.2942642630681186 -0.1499351309099274 -0.25564937022248396
0.3847425598934304 -0.196036125769334 -0.2474575912151321
-0.8702721214330101 0.4434257938556213 0.3003645185324475
-0.9634187014978194 0.49088634693201166 0.6330447167189925
-1.204118757010038 0.6135291509102079 1.0905549084174284
1.7235484281618125 -0.8781917875845487 1.5630208331323976
-1.622106681615462 0.8265046360780283 1.7290207466245888
1.526020295591376 -0.7775461770488037 1.6263066428647124
-0.08553662632208345 0.043583087974996236 1.726
0.08553662632208361 -0.0435830879749959 1.699
-0.09130142556433483 0.02966563145999468 1.727
0.09130142556433495 -0.02966563145999433 1.698
-0.09130142556433483 0.02966563145999468 1.727
0.09130142556433495 -0.02966563145999433 1.698
-1.6991395898909487 0.5520839194046664 1.6966848250705535
1.623170137379195 -0.5273999479715605 1.6206003037669414
1.8397081494400114 -0.5977574130732368 1.5630208331323976
-0.9478555797622207 0.3079769470490029 0.5830829702741325
2.020206125661344 -0.6564047606777252 1.247280305364626
-0.8541869507805273 0.2775421645737186 0.2759521759768268
1.7532739130455774 -0.5696732272398348 0.5689002866442756
-0.8513501811430353 0.27662044224482196 -1.5264608045041658e-15
0.406964406769822 -0.1322307514252524 -0.2451064502059622
-0.164595985697584 0.05348047767401424 -0.08464107633011644
-0.30077826396837914 0.04763859700041632 -0.23380591137436035
-0.30077826396837914 0.04763859700041632 -0.23380591137436035
-0.15333046344858098 0.024285159638004726 -0.07170980077968198
-0.8340775116442052 0.13210489986904642 -1.4389894550325786e-15
3.2015146276656474 -0.5070701024936173 -5.55700337819494e-15
-0.8321149708479463 0.1317940639434169 0.2586472242918298
3.3071524015765963 -0.523801482191632 1.0342798801729443
2.797752884115144 -0.44312052471691465 1.6640200492399888
2.023033592976349 -0.32041704338128063 1.6552487704911414
-1.1210924005840917 0.1775635924185983 0.914998220638065
-1.7123157698095353 0.27120417486015475 1.6462788297069104
1.6876620011000705 -0.2672994015012098 1.6225024167995317
