0.096 0.0 1.717
-0.096 -3.2930390389303353e-16 1.699
0.096 0.0 1.717
-0.096 -3.2930390389303353e-16 1.699
0.096 0.0 1.717
-0.096 -3.2930390389303353e-16 1.699
0.096 0.0 1.6773381126859919
-1.683738994024905 -5.775643998638857e-15 1.6345538361884941
0.096 0.0 1.7392447352156934
-1.5419912451113333 -5.289413924833767e-15 1.3712590407258975
0.096 0.0 1.8417032486832736
-1.150013912959317 -3.944834073633399e-15 0.8714252365776348
0.096 0.0 2.0208056973815194
-0.8573913925390201 -2.9410659659102463e-15 0.32604628437505545
0.096 0.0 0.44224023266872853
-0.8136829849517563 -2.7911352445411436e-15 0.12639904775250535
-0.8196413849971218 -2.8115740403317197e-15 -0.06386570392246736
-0.4699106298010293 -1.6119104674407606e-15 -0.24034933976933748
-0.3648561360317242 -1.2515473953601506e-15 -0.2489015869776654
0.096 0.0 -0.21708178182427065
-0.2894358526560292 -0.02277909562026927 -0.23362340503302173
-0.2894358526560292 -0.02277909562026927 -0.23362340503302173
-0.15871036669415098 -0.012490776749591304 -0.08980256121069177
-0.44312050326523056 -0.03487433993595908 -0.22676437708672273
-0.8121646349687884 -0.06391874299463964 -0.06347340844382812
2.6724557294200584 0.21032682731858954 0.41908793184277454
-0.8062251134012556 -0.06345129250955314 0.1256168754273042
-0.8497952813722083 -0.0668803390955026 0.32413286721323
3.464612900986724 0.2726709487942483 2.0419659664640486
-0.9429683969427203 -0.07421322232106965 0.5531059224072165
2.444321766888439 0.1923722950826875 1.8629946157200745
1.9582917929053414 0.1541209065622928 1.748154800457577
-1.5193285092602058 -0.11957374690608653 1.355220923290507
1.7243341692569045 0.13570804225652908 1.6792828525267873
-1.6805391837013057 -0.13226130214294957 1.6364985760292894
0.09570406403838029 0.007532073189873124 1.718
-0.09570406403838026 -0.007532073189873443 1.7
0.09481808069713321 0.015017708643862182 1.717
-0.09481808069713317 -0.015017708643862532 1.7
0.09481808069713321 0.015017708643862182 1.717
-0.09481808069713317 -0.015017708643862532 1.7
1.705412602455816 0.2701108205623757 1.6763657427655945
-1.6630093730037838 -0.26339480879766897 1.6345538361884941
1.9302978248342486 0.3057291406460427 1.7392447352156934
-1.5170921847695562 -0.2402837966054602 1.3659130015807674
2.398007218312 0.3798070311665447 1.8447448725456737
3.393046857407544 0.5374058275054213 2.0184545563723497
2.638831913543443 0.4179499157371039 1.0217647644147865
-0.8438911140829239 -0.13365922179887668 0.3248982340779602
3.1788078321929647 0.5034736994011358 0.503249674034418
-0.8007229033274686 -0.12682204889856208 0.12592974435738466
3.2637122175399966 0.5169212329554242 -0.25915039318907823
-0.8026844155815152 -0.12713272191910896 -0.06331649025237243
-0.35383711712697036 -0.08494877599633016 -0.24819448019647886
0.13905909792728502 0.03338513566918296 -0.07495331880577423
-0.45597514277066065 -0.10946994644776083 -0.23982684120462153
-0.5793236037940719 -0.13908329190470395 -0.18170199269247025
-0.7950633062251624 -0.19087781194867456 -0.06370878573101167
2.6426059239716566 0.6344335509648795 -0.2130949039968321
-0.7921664462359678 -0.19018233739723983 0.1265554822175456
2.795177928739003 0.6710628485397896 0.44943621806057904
-0.8356341395377168 -0.20061800726519902 0.3268116512397856
3.2471128417584763 0.779562821642485 1.2773972972346657
3.396798646998187 0.8154992040163428 2.052546101005313
2.3841344527487953 0.572380040896083 1.8629946157200745
-1.1172699639077766 -0.26823278649246957 0.8706648306120347
1.9081297360830778 0.4581014192026952 1.7463727874092003
-1.4925925787959669 -0.35833977412953216 1.365021995056579
1.6838170849001262 0.4042487162607211 1.6812275923675826
-1.6381879406626092 -0.3932941279342967 1.635526206108892
0.09334751235817695 0.022410754930166945 1.718
-0.09334751235817687 -0.02241075493016728 1.7
0.09130142556433472 0.029665631459994988 1.717
-0.09130142556433464 -0.029665631459995307 1.701
0.09130142556433472 0.029665631459994988 1.717
-0.09130142556433464 -0.029665631459995307 1.701
1.6431110879224067 0.5338791555646694 1.6773381126859919
-1.6013309420076307 -0.5203039632454799 1.6345538361884941
1.8587060809007696 0.6039302151925346 1.7392447352156934
-1.4893025781135476 -0.4839037412795445 1.3926431973064184
2.311919801499299 0.7511882796179943 1.847026090442474
-1.1107884114967153 -0.36091703324255003 0.8851125439584354
3.2786122637020627 1.065285700787557 2.025507979399859
-0.9213533951271945 -0.2993658652678889 0.5666249832099433
3.256746504066966 1.0581810848090196 1.309925388985698
-0.8286600779733552 -0.2692479808154426 0.33140385242816667
-0.7851926284797481 -0.2551245503299604 0.1282762613329881
2.9667994231698427 0.9639715673603082 0.4877626619954352
-0.7889711729185298 -0.2563522738412119 -0.06465029487974583
2.481084807400059 0.8061533219485071 -0.2045428625624968
-0.3479164405947402 -0.11304490419247848 -0.24960869375885195
-0.13769214905671906 -0.05703395557159142 -0.0972009787363667
-0.13698675590068213 -0.05674177215955576 -0.09634833857201261
-0.33797452936004585 -0.13999363379759633 -0.24960869375885195
0.14053905314299064 0.058213181854899945 -0.08343860018001283
-0.6674171222374292 -0.276453223790768 -0.2212561679724638
0.4604007910068811 0.19070425176235126 -0.1511093102493503
-0.7792747238756617 -0.3227861594438513 -0.06574872221993568
2.7638232605017694 1.144813078502062 0.46773905047028586
-0.7792747238756617 -0.3227861594438513 0.13109208170371223
3.245876889118469 1.3444862292662623 1.343984214466191
-0.8215112698235872 -0.3402811096032767 0.33829215421073827
3.236641553292112 1.340660827913915 2.0584239535282376
-0.9115746639075556 -0.37758658890620955 0.5772051177512078
2.272627223152113 0.9413530180479128 1.8690778634448748
-1.0974631155402117 -0.45458410666099164 0.900320663270436
1.8157429672739254 0.7521053628284277 1.7490458069817654
-1.465188179193406 -0.6069008152506561 1.410463327790186
1.5998480707793015 0.6626787686532188 1.6812275923675826
-1.5564943721891527 -0.6447210787181501 1.635526206108892
0.08869243512108352 0.03673760950704866 1.717
-0.0886924351210834 -0.03673760950704896 1.7
0.08553662632208328 0.043583087974996534 1.716
-0.08553662632208316 -0.043583087974996826 1.7
0.08553662632208328 0.043583087974996534 1.717
-0.08553662632208316 -0.043583087974996826 1.7
1.5402541944665458 0.7847987107712472 1.6783104826063897
-1.5002224287065469 -0.7644015073283342 1.6345538361884941
1.7431266886298098 0.8881674095498402 1.7410267482640702
-1.4593046734566189 -0.7435528696923115 1.456795667047981
2.16594449566535 1.103603842733873 1.847026090442474
-1.0894998830121307 -0.5551279176158889 0.9269348720664371
3.0760530148489273 1.5673272950595947 2.0284469056613217
-0.9039725562064017 -0.4605970230316991 0.593663104815397
3.608699291770796 1.8387241287297442 1.5494852176462437
-0.8153152753102689 -0.41542388213214276 0.3482419234522306
2.7572102952933837 1.40486881506003 0.48385180036942954
-0.7719104805286139 -0.39330803456080626 0.1346900743996375
-0.7745670947634055 -0.3946616471229218 -0.0677886587088597
2.510531959414986 1.2791799250910516 -0.22094081356961678
2.0083690257305062 1.0233151305860257 -0.6959062713323861
-0.5625293322493321 -0.28662301086814457 -0.19282660448996847
0.3139290507931933 0.15995484071476138 -0.1771270134387074
0.29767619884689855 0.15167359902125915 -0.2262741699796958
-0.32680875566714107 -0.1665173781300166 -0.2503158005400385
-0.12448546399569718 -0.07628479044852902 -0.09379041807895032
0.1357412782021349 0.08318236226539016 -0.10828530087296992
-0.12448546399569718 -0.07628479044852902 -0.09379041807895032
0.1357412782021349 0.08318236226539016 -0.10828530087296992
-0.3127365104292748 -0.19164518007119333 -0.2503158005400385
0.2734463666600927 0.16756814900330588 -0.2163746750430841
0.2995911105972975 0.1835896686937417 -0.17660451487399145
-0.4710032425453779 -0.2886311582482736 -0.1681052449399725
1.8997412199998487 1.164162916877825 -0.6878718294786375
-0.764947015626037 -0.46876013406092837 -0.06998551338923942
2.2856891090748546 1.4006720874839318 -0.21019191745490176
2.7381986309261652 1.677970279115239 0.5021546327791364
-0.7666425267017968 -0.469799144584454 0.13985241174596508
2.9870675654572483 1.830477358339432 2.0584239535282376
-0.8930627322861361 -0.54726954620335 0.6130600181410485
2.0956833748782944 1.284236423817173 1.8675570515136748
-1.0774403217422515 -0.6602562783373993 0.9581115166560384
1.676584581094695 1.0274123526780883 1.7499368135059539
-1.4322184932103759 -0.8776646214279118 1.4942179410638923
1.477336817235001 0.9053131659497485 1.6821999622879804
-1.4364747465637404 -0.8802728568373769 1.635526206108892
0.08185345577799281 0.05015986221273114 1.717
-0.08185345577799266 -0.05015986221273141 1.701
0.07766563145999492 0.056427384220077474 1.717
-0.07766563145999471 -0.05642738422007775 1.701
0.07766563145999492 0.056427384220077474 1.717
-0.07766563145999471 -0.05642738422007775 1.7
1.3977137751533946 1.0154984996278653 1.6773381126859919
-1.3621734602579219 -0.9896769493976095 1.6345538361884941
1.5859580904051391 1.1522660003135061 1.7445907743608238
-1.4154849961418563 -1.0284100474505722 1.556588397757078
1.970678383875377 1.4317816549063376 1.850828120270474
-1.0707229127134277 -0.777925731796084 1.0037358745920402
2.7841019562199514 2.022768473496717 2.0219812678861047
-0.8884656898552368 -0.6455081083534564 0.6430370660079645
3.5864043644531596 2.605675293399262 1.6960529722420727
-0.800657515417043 -0.5817117353175948 0.3769431808796122
-0.7587979951991854 -0.5512990136774208 0.14595335588253402
2.8665904995340337 2.08269990828761 -0.2779021170680336
1.813053292718954 1.3172603227004744 -0.6918890504055117
-0.4182547442985757 -0.3038798592729257 -0.15698063314247432
0.28582010528469065 0.20766046184829784 -0.17764951200342335
-0.36908557616983956 -0.26815636756075284 -0.23303435986331417
-0.2967361406091693 -0.21559142574874204 -0.2503158005400385
0.26950953506763764 0.1958101389295912 -0.22556706319850925
-0.2358987169845738 -0.20147653790213885 -0.2515288484844577
-0.2358987169845738 -0.20147653790213885 -0.2515288484844577
-0.2789062938074285 -0.23820847859512562 -0.2503158005400385
0.2489502240763573 0.21262357802541917 -0.22132442251138995
1.1641912184117988 0.9943132338316989 -0.798377806885973
-0.36030085665670464 -0.3077260026264352 -0.24243933402820128
1.684361006383343 1.438580202899822 -0.6838546085517632
3.1474065457158633 2.6881391399972103 -0.3246637381218304
-0.7578466947328965 -0.6472622245137003 -0.0778314229620241
-0.7533056023965489 -0.6433837652583196 0.15424438252966619
3.569331751901021 3.048497309310145 1.795933348089361
-0.7949414310309483 -0.6789441223182272 0.3983734530920572
2.654820627431005 2.2674310212588265 2.051370530500728
-0.8790240338928594 -0.7507574494060814 0.677128610640928
1.867463546484913 1.5949645458598731 1.8660362395824746
-1.0609993240566904 -0.9061790299666207 1.0584851041152423
1.4967393412326082 1.2783361625200853 1.7517188265543306
-1.3425817395599073 -1.1466731324140689 1.570844502144092
1.3167669314715758 1.1246252034268707 1.6812275923675826
-1.2810843452915706 -1.0941493957631505 1.635526206108892
0.07299897269760293 0.062347012639697684 1.717
-0.07299897269760271 -0.06234701263969794 1.701
0.0678822509939085 0.06788225099390863 1.717
-0.06788225099390827 -0.06788225099390886 1.702
0.0678822509939085 0.06788225099390863 1.718
-0.06788225099390827 -0.06788225099390886 1.702
1.2216466346697792 1.2216466346697814 1.6773381126859919
-1.190583260423221 -1.1905832604232314 1.6345538361884941
1.387590717755058 1.3875907177550602 1.7463727874092003
-1.2477700108593677 -1.2477700108593783 1.5699534956199037
1.7224360655768893 1.7224360655768924 1.850828120270474
-1.0536567277818665 -1.0536567277818756 1.1307236708472452
2.43056701203649 2.430567012036494 2.0196301268769346
-0.8730913468818674 -0.873091346881875 0.7235636455720332
3.22158664325515 3.2215866432551556 0.712558988258245
1.5740698840902823 1.574069884090285 -0.6872537954898875
-0.2600394200885693 -0.26003942008857156 -0.25102290732122506
0.23285295789403215 0.23285295789403254 -0.22273863607376304
-0.20456685718435372 -0.2395170159753086 -0.2557920493062281
-0.20394840323121757 -0.23879289943261858 -0.2549394091418741
0.14995922789530985 0.17557969691579528 -0.17905443451435973
0.2132445631840146 0.24967730427986198 -0.2220315292925765
-0.2350759725001929 -0.2752386004053367 -0.24678026663410574
1.4346871858289243 1.6798028690350193 -0.6820005065855134
2.568674339725965 3.0075312361525652 -0.3102272645079065
3.1855034186430546 3.7297452955682386 0.767154616557285
3.247838717821774 3.8027305535651372 1.9134171618254427
-0.7721172557646466 -0.9040331539000497 0.4534798673526299
-0.8647175782811004 -1.0124542013403217 0.7805788150444031
2.2700278323313885 2.6578611025485994 2.053721671509898
1.5956134977354446 1.8682233715068604 1.866796645548075
-1.040337325899835 -1.2180785066405126 1.2158891389944488
1.2802821915408615 1.4990178484672316 1.7543918461268957
-1.1492670904872728 -1.3456188742444566 1.5744085282408453
1.1259221042922487 1.3182854072870993 1.683172332208378
-1.0947977892110543 -1.2818435164787423 1.6364985760292894
0.06234701263969756 0.07299897269760304 1.718
-0.06234701263969729 -0.07299897269760328 1.702
0.056427384220077335 0.07766563145999501 1.718
-0.05642738422007709 -0.0776656314599952 1.702
0.056427384220077335 0.07766563145999501 1.718
-0.05642738422007709 -0.0776656314599952 1.702
1.017259135728982 1.4001370828515056 1.6802552224471852
-0.9902637790472265 -1.3629811619780756 1.635526206108892
1.155788493420255 1.5908063862322581 1.7499368135059539
-1.037213657328036 -1.4276021256121045 1.5699534956199037
1.4329563128594378 1.9722951618447693 1.8523489322016742
-1.037213657328036 -1.4276021256121045 1.3398353113872536
2.024531143601845 2.786528063484415 2.023744623642982
-0.8641252874937859 -1.1893664227284126 0.8622809651130567
2.968851815124215 4.086273962895006 1.9325513334436974
-0.7720634803346739 -1.062654215788706 0.501315296398266
-0.7415837541012591 -1.0207024716601225 -0.09870154242563137
1.1452210919969634 1.5762616059668784 -0.6013470710536516
-0.28196298101205836 -0.3880887493071574 -0.24557432541649699
0.19524736213412472 0.26873493926109787 -0.2248599564173227
-0.21559142574873952 -0.29673614060917114 -0.2503158005400385
0.15367143809525738 0.25076899551925375 -0.2370339656904381
-0.1615965666697657 -0.2637016299542799 -0.2506762083201036
0.15367143809525738 0.25076899551925375 -0.2370339656904381
-0.16209333779425586 -0.2645122867518961 -0.2515288484844577
0.17256063892499923 0.28159336976178256 -0.22344574285494959
-0.19164518007119064 -0.31273651042927647 -0.2503158005400385
-0.24757391312744662 -0.4040039078261045 -0.24243933402820128
-0.7467694550883854 -1.2186169951822416 -0.11188267050790963
1.7301974900799517 2.8234256932529735 -0.25969960685917315
-0.7326944668392285 -1.195648701861537 0.2188518165912809
2.4458076888891847 3.9911954035063912 1.7909584634686146
-0.7775300070628268 -1.2688136538187473 0.5682848970621565
1.8346557807546875 2.993886131125131 2.0631262355465774
-0.857842879058729 -1.3998723494834202 0.963380028507362
1.2873690288435384 2.1007953216756845 1.8721194873072748
-1.025324855778627 -1.6731780957574534 1.4903956925760597
1.0310654965994428 1.6825459701660883 1.7561738591752722
-0.9235730802170568 -1.5071342891389532 1.5726265151924688
0.9068782579768109 1.4798908152998802 1.6851170720491733
-0.8802728568373646 -1.4364747465637482 1.635526206108892
0.050159862212731 0.0818534557779929 1.719
-0.0501598622127307 -0.08185345577799309 1.701
0.04358308797499638 0.08553662632208338 1.719
-0.04358308797499605 -0.08553662632208354 1.701
0.04358308797499638 0.08553662632208338 1.719
-0.04358308797499605 -0.08553662632208354 1.701
0.7866118768264064 1.5438127332146339 1.6821999622879804
-0.763041755344676 -1.497553765178571 1.6316367264273013
-0.7993043946610114 -1.568723202058156 1.5663894695231502
0.8927018731323791 1.752026074493739 1.7499368135059539
1.1108620612567404 2.1801895515895917 1.8591925858920744
-0.9865765101639621 -1.9362654233324257 1.650841351317666
1.5732268978794481 3.087631637321494 2.036088113941124
-0.8509869968293102 -1.6701560200255037 1.100333992291508
-0.7716536501228104 -1.514455560342443 0.6494137847235553
2.0611237186628144 4.045183063393495 1.7370000995051371
-0.7317697381603931 -1.436178975724359 0.2517030542497291
-0.7440060801146233 -1.460194148992685 -0.1283590806107575
-0.20578593627569075 -0.40387764041988927 -0.23146686416916631
0.5555805079386571 1.0903881415342995 -0.8626702730475901
-0.12053981416485351 -0.29100885416272576 -0.2557920493062281
-0.12053981416485351 -0.29100885416272576 -0.2557920493062281
0.46717246733073825 1.127854106597174 -0.8605489527040304
-0.14073232003621133 -0.3397578756956568 -0.25102290732122506
-0.18319987610259056 -0.4422836255119507 -0.24505182685178103
1.593917244403901 3.848056628740263 0.6513931124275153
-0.7284082340781965 -1.7585330376558417 0.29738191804147607
-0.7643368488803117 -1.845272386788388 0.7634534475683517
1.6467139786103955 3.97551922051059 1.6463041260346112
1.3521370563000692 3.2643476195068724 2.076057511097012
-0.8427047178465487 -2.0344691589009574 1.2931275550434387
0.947471318526007 2.2873981071450133 1.8812443588944752
-0.8568507658282879 -2.068620739792453 1.7010281450472682
0.7566921155723775 1.82681636795563 1.7597378852720258
-0.6745240316330895 -1.628445065315205 1.568171482571527
0.6649713503254497 1.6053828525452574 1.6870618118899687
-0.6409004993475792 -1.5472706776566352 1.6258025069049151
0.036737609507048505 0.08869243512108359 1.719
-0.0367376095070482 -0.0886924351210837 1.701
0.029665631459994818 0.09130142556433479 1.719
-0.02966563145999448 -0.0913014255643349 1.702
0.029665631459994818 0.09130142556433479 1.719
-0.02966563145999448 -0.0913014255643349 1.702
-0.5144423003455253 -1.5832905986000183 1.6160788077009383
0.5363474896746016 1.6507078391768037 1.6851170720491733
0.608559917194134 1.8729548385331314 1.752609833078519
-0.5428270313430356 -1.6706498178982054 1.5628254434263966
0.7592165201235951 2.336628185135885 1.866796645548075
-0.6891286830391263 -2.12092000278482 1.6941844913568678
1.0810395446087155 3.3270976094776934 2.0554850272667755
-0.8395054511491643 -2.5837321063707126 1.595836959974062
-0.7681712490505672 -2.364188006934324 0.9505856459948799
-0.7298832261084985 -2.2463495890545286 0.36918533749494137
0.3778580404076685 1.1629274703519892 -0.8619631662664036
-0.10560969429225102 -0.32503321748937797 -0.2319310242291882
0.06909982770134758 0.28782149643771243 -0.2387392460191463
-0.07375432792416069 -0.30720888514568606 -0.2566446894705822
0.06909982770134758 0.28782149643771243 -0.2387392460191463
-0.07397676946516274 -0.3081354208452805 -0.2574973296349363
0.2845201027195658 1.1851115184439172 -0.8591347391416574
-0.11129861189467297 -0.46359208253627343 -0.24400682972234913
-0.6143701883695728 -2.559036004366241 0.4114226430558033
0.9543543701483443 3.97517203856371 0.6393476586194177
-0.773962465287549 -3.223785678720907 1.2682128948579034
0.8341679376939714 3.4745595190935195 2.0995689211887107
-0.7034944887832046 -2.930265432388618 1.7704091799049264
0.5789115555068778 2.4113401690555 1.8842859827568754
-0.5205988637647934 -2.168450327548871 1.6941844913568678
0.46276479254854574 1.9275540840084102 1.7641929178929678
-0.41054219655436375 -1.7100313169203416 1.5646074564747734
0.4065796004093322 1.6935259161084566 1.6909512915715594
-0.3842049018162723 -1.6003285892029635 1.5976037792133824
0.02241075493016678 0.093347512358177 1.721
-0.02241075493016648 -0.09334751235817706 1.701
0.015017708643862022 0.09481808069713325 1.72
-0.015017708643861677 -0.09481808069713331 1.7
0.015017708643862022 0.09481808069713325 1.72
-0.015017708643861677 -0.09481808069713331 1.7
0.27198515052588984 1.7172466561019732 1.6880341818103666
-0.2558985275096445 -1.615679715667185 1.5878800800094057
0.3093228404693362 1.9529875525368772 1.7597378852720258
-0.27432811843516597 -1.7320395732880416 1.5601524238538316
0.38605959561863457 2.4374843565920123 1.875161111169675
-0.34682762756563845 -2.1897834588737743 1.6842992138040673
0.552730584013306 3.4898035620212653 2.076057511097012
-0.46813642925515403 -2.9556970892843935 1.7580656896067846
-0.4013790126525669 -2.5342073490940025 0.4010979683631482
0.6259180467215144 3.9518910155504443 0.6257378601609176
-0.07534881624658624 -0.4757337027058712 -0.2466193225459289
0.19097214257942147 1.2057506544715721 -0.8605489527040304
-0.05783105221471595 -0.3651308935159265 -0.25243712088359815
-0.02478823215575276 -0.3149643528188428 -0.2566446894705822
0.02300136482418861 0.292260050667594 -0.236181325526084
-0.02478823215575276 -0.3149643528188428 -0.2566446894705822
0.02300136482418861 0.292260050667594 -0.236181325526084
-0.029004938653316454 -0.36854268888924846 -0.25243712088359815
-0.037714023168504064 -0.4792020998038777 -0.24609682398121294
-0.05753491673178501 -0.731050431472868 -0.22465535491058825
0.07491574222405771 0.9518947586613862 -0.07453614094145454
0.3072596931544692 3.9041045683949887 0.612440930632498
0.3152601770597519 4.005760354883983 1.5372393478105608
0.28223942968318033 3.586191978175752 2.11367576724373
-0.2350272562682741 -2.98630443672627 1.7598290453636618
0.19676271056191705 2.5001072848444577 1.9055773497936763
-0.1739500437146947 -2.2102448693055834 1.6842992138040673
0.1561584373321581 1.9841810760235514 1.7713209700864747
-0.13766653922237793 -1.7492192326802645 1.56104343037802
0.13688313019384468 1.739265077171486 1.6938684013327525
-0.12677846432103615 -1.6108731238010023 1.5684326816014522
0.007532073189872951 0.09570406403838029 1.721
-0.007532073189872665 -0.09570406403838032 1.701
-1.6465195194651677e-16 0.096 1.722
4.939558558395502e-16 -0.096 1.701
-1.6465195194651677e-16 0.096 1.721
4.939558558395502e-16 -0.096 1.701
-2.9888553005437483e-15 1.7426462635887985 1.6919236614919573
8.278219987187661e-15 -1.6088666818602464 1.5616260921586684
-3.403361956566171e-15 1.984323562325459 1.7659749309413446
9.01794194795897e-15 -1.7526311648490107 1.5592614173296433
-4.280688251552355e-15 2.495846950435863 1.8964524782064758
1.1356296253682153e-14 -2.2070888065503844 1.6766951541480672
-6.114920848633814e-15 3.5652926948569035 2.094866639170371
-6.857329645598882e-15 3.9981526984346156 1.529585679163259
-6.6790094971798725e-15 3.894183483093728 0.6089993724016131
3.711954606993235e-15 -0.7214159687725245 0.11185064250376402
2.0416242949272984e-15 -0.3967883566840136 -0.030206751855221047
2.5086004519546105e-15 -0.48754486972995625 -0.24975431393422462
1.877321093040226e-15 -0.3648561360317242 -0.2489015869776654
-0.11824262093979802 1.5024149502029347 -0.7858378413327903
0.03825232960576462 -0.48604193160645304 -0.24975431393422462
0.03044698189556102 -0.3868655855635797 -0.029500619993670422
-0.31282864475842037 3.9748648076404574 1.525376161407243
0.2652986863499333 -3.370939425000248 1.2934700013939993
-0.2831806046218739 3.598150739639182 2.12072919027124
0.2335373040578822 -2.9673727988935563 1.748661125570105
-0.1980955441609586 2.5170425414330153 1.9185042512088766
0.1733229617702115 -2.2022770377323564 1.6782159660792673
-0.15623680515406851 1.9851768336133808 1.772211976610663
0.14456109147032253 -1.8368228251066863 1.6394520045065961
-0.137039810917675 1.7412558945266052 1.695813141173548
0.1252904060347232 -1.5919655505555559 1.5499576531138963
-0.0075320731898733 0.09570406403838028 1.722
0.007532073189873565 -0.09570406403838025 1.701
-0.015017708643862348 0.0948180806971332 1.721
0.015017708643862733 -0.09481808069713313 1.701
-0.015017708643862348 0.0948180806971332 1.722
0.015017708643862733 -0.09481808069713313 1.701
-0.27245373922081834 1.7202052086842992 1.6909512915715594
0.24996450675851492 -1.5782137831615122 1.5509300230342942
-0.3096353408182343 1.9549606020880257 1.7615198983204026
0.2860438307491501 -1.8060096696558274 1.6269779131679591
-0.3918433545742786 2.4740015734586707 1.9032961318968764
0.3444833263579666 -2.174982123572824 1.6728931243200669
-0.5577346554317896 3.5213980255191806 2.094866639170371
0.46235137038753116 -2.919171665096243 1.736317635271963
-0.629202229717169 3.97262653091364 1.5387700815400212
0.5331837595186786 -3.3663897692610596 1.3038024540678568
-0.6138761285373808 3.8758613363756913 0.61369240635282
0.5047246196459911 -3.186705831783538 0.5045011497547398
0.05964585832461463 -0.37658912834111397 -0.028951406323575495
-0.23622458897226847 1.4914633564271307 -0.7874053370269382
0.07642219896910983 -0.48251077449599594 -0.25027681249894057
0.05783105221472002 -0.3651308935159258 -0.25243712088359815
0.0360572971285857 -0.1501894514397762 -0.10316945988684535
-0.03829144464963427 0.1594953455955502 -0.11340114185909449
0.03587471201813071 -0.1494289297211761 -0.10231681972249125
-0.038480974031030686 0.16028479228430606 -0.11425378202344859
0.08607520265309779 -0.3585290218214255 -0.2517300141024116
-0.034791975258154084 0.14491900654377946 -0.08061017305526663
-0.3511174261341688 1.4625093343513798 -0.7842703456386424
0.11312854823845458 -0.471214315968286 -0.24818681824007674
-0.914680076577369 3.809916712673968 0.6127537995625785
0.7629951999603908 -3.1781037309750295 0.5110713972864295
-0.9480530949692977 3.94892533850909 1.5536947354022597
0.8052315368044133 -3.354030735120894 1.3194924747948253
-0.8439691450150671 3.5153844856946352 2.1242559017849945
0.691361599144876 -2.8797283099674247 1.7398443467857179
-0.5915083571450552 2.4638096240228378 1.9253479048992772
0.5150014251782716 -2.1451353178912393 1.675934748182467
-0.464396999492257 1.9343527152157614 1.7704299635622862
0.4277924350772649 -1.7818837314737075 1.6305419392647125
-0.407745057799168 1.6983803955063639 1.695813141173548
0.37115500350562386 -1.545971850769845 1.5431510636711128
-0.022410754930167098 0.09334751235817691 1.721
0.02241075493016744 -0.09334751235817683 1.701
-0.029665631459995147 0.09130142556433468 1.722
0.029665631459995505 -0.09130142556433457 1.701
-0.029665631459995147 0.09130142556433468 1.721
0.029665631459995505 -0.09130142556433457 1.701
-0.5385073106329464 1.6573550845835274 1.6919236614919573
0.4950078984950638 -1.5234776599699456 1.5548195027158849
-0.613498358427381 1.8881537978159797 1.7668659374655327
0.5394329562772594 -1.6602039289442656 1.5530243716603245
-0.7755821773589814 2.3869964989842574 1.9070981617248766
0.6795581615203843 -2.0914649662643257 1.670611906423267
-1.0507676124981757 3.233930182382558 1.9978820725421131
0.9093030237101072 -2.7985469463762187 1.7286764269921608
1.089379885403405 -3.352766539035855 1.348576415654572
-0.9250546439664236 2.8470254487229565 1.144988829636345
-0.911773847256462 2.806151359328137 0.46132523740363646
1.030998559435953 -3.1730872932273693 0.5217089409091651
-0.46601576244571963 1.4342490401433545 -0.7863603398975062
0.11453655598273134 -0.3525072727527968 -0.25314422766478467
-0.044652688370640965 0.13742684388893758 -0.07636753236814733
-0.37073157444103255 0.8950251950154661 -0.8219451184373464
-0.37073157444103255 0.8950251950154661 -0.8219451184373464
0.14184087986295277 -0.342434175864068 -0.25314422766478467
-0.46412054300206057 1.1204861094915333 -0.8548920984545381
-0.5751995506930007 1.3886545563539443 -0.7837478470739265
0.18357480211139854 -0.4431887769672884 -0.24557432541649699
-0.9023503304505155 2.1784664057854655 0.36855959963478047
1.3119705841822167 -3.1673771777672095 0.5361009116928661
1.3858010680692405 -3.345619733283828 1.3853140251616207
-0.9195570739800797 2.2200071593788144 0.9188229211085776
-1.0457539539172986 2.524673378452416 1.6052415240107416
1.1314261383126587 -2.731504327937795 1.7369054205242556
-0.9665913858090016 2.3335580328930825 1.919264657174477
0.8419400792838674 -2.0326231581125596 1.671372312388867
-0.7643368488803244 1.845272386788383 1.777558015755793
0.6691744793956654 -1.6155301037509453 1.5556973912328897
-0.6695565860187696 1.6164525907427316 1.6987302509347408
0.6153046228895608 -1.4854767655708168 1.5606537222382708
-0.0367376095070488 0.08869243512108345 1.722
0.036737609507049115 -0.08869243512108332 1.7
-0.04358308797499667 0.08553662632208323 1.722
0.043583087974997006 -0.08553662632208306 1.7
-0.04358308797499667 0.08553662632208323 1.722
0.043583087974997006 -0.08553662632208306 1.7
-0.792958058789443 1.5562678166051234 1.695813141173548
0.7372080245751031 -1.4468522137737752 1.5762116409646336
-0.905398661298493 1.7769449243347124 1.7748849961832283
0.791598149571795 -1.5535988444880193 1.551242358611948
-1.127646969261993 2.2131317883746195 1.8873276066192755
0.9951939817430039 -1.9531781635842915 1.6652890646640668
-1.0069865429173674 1.9763223680319282 1.3025321190801185
1.335443440284862 -2.6209553254109714 1.7280886417398684
-0.9176423846724518 1.8009745844549432 0.7726378499451136
-0.904491733934441 1.7751649791622943 0.3113045854300565
1.3535935166542576 -2.6565768559692677 0.46617470581988363
1.2505955089322491 -2.454431883967956 -0.21599789053876245
-0.6855504582747033 1.345468531463796 -0.7874053370269382
0.21867078161947984 -0.4291655732534074 -0.2466193225459289
0.16870924695191974 -0.3311105404436956 -0.25385133444597124
0.16457958345104975 -0.26856947092154565 -0.2557920493062281
-0.07907701184119752 0.12904195518616068 -0.09975889922942899
0.16457958345104975 -0.26856947092154565 -0.2557920493062281
-0.07907701184119752 0.12904195518616068 -0.09975889922942899
0.19366309037318188 -0.3160294407600482 -0.25314422766478467
-0.6362934232727311 1.0383364962765533 -0.8584276323604709
0.2511566414627352 -0.40985038910455984 -0.24609682398121294
1.5536756420345617 -2.5353682177049732 -0.2331804325031609
-0.9037480822543201 1.4747828327661119 0.27016232112447613
1.6247000241395928 -2.6512694754703467 0.486198317345033
-0.9047914704567354 1.4764854875645537 0.661659654559238
1.712440083334558 -2.794448239096429 1.25367092442803
-0.9950573289350301 1.6237859810124864 1.1179675498602821
1.5453200464988328 -2.5217331250330286 1.737493205776548
-1.211145812357756 1.9764103372549615 1.7611002163296705
1.148502715225885 -1.874186093513333 1.6698515004576668
-1.047765969261471 1.709798664655453 1.7846860679493004
0.9126169993317591 -1.489255590061926 1.553915378184513
-0.9167906982081233 1.4960664476148984 1.7035921005367294
0.852626887869212 -1.3913606254607256 1.583990600327815
-0.0501598622127313 0.08185345577799272 1.722
0.05015986221273155 -0.08185345577799258 1.7
-0.05642738422007763 0.0776656314599948 1.723
0.05642738422007789 -0.07766563145999461 1.699
-0.05642738422007763 0.0776656314599948 1.723
0.05642738422007789 -0.07766563145999461 1.7
-1.0295838490793008 1.417100595481863 1.7006749907755363
0.9673782825067486 -1.3314819782987273 1.5976037792133824
-1.1734013390850704 1.6150483885733469 1.776667009231605
1.0231279903861383 -1.4082148682954678 1.5485693390393829
-1.2033445689990403 1.6562617088674467 1.5550301996520624
1.287898652471649 -1.7726404206611421 1.664528658698467
-1.0248886668933472 1.4106382316077983 1.0233341242411942
1.7319470231131726 -2.3838205698268102 1.7310275680013307
-0.9321734850237401 1.2830267315292752 0.6057878734339351
1.8623709279686482 -2.5633336744671373 1.2119584303002353
-0.8946271117683274 1.231348582201263 0.23762395239610845
-0.9092929566090394 1.2515343858884544 -0.12114084380379556
-0.9814614543878559 1.3508658014587809 -0.5151313296230406
0.4094783928108623 -0.563598656688457 -0.21322172611871515
0.28484306207453575 -0.39205284081103425 -0.24818681824007674
0.21786147584276036 -0.29986059651713887 -0.25314422766478467
-0.7175567671613344 0.9876321612325988 -0.8605489527040304
0.20580433792884578 -0.24096591976806475 -0.2574973296349363
-0.08817199084850744 0.10323613722825317 -0.08185345577799301
0.20580433792884578 -0.24096591976806475 -0.2574973296349363
-0.08817199084850744 0.10323613722825317 -0.08185345577799301
0.2407166728674757 -0.28184301198293477 -0.25314422766478467
0.31345204859851056 -0.3670051950986485 -0.24714182111064484
-0.3064541580841606 0.358811718026221 -0.036248102226265254
1.5248802300142938 -1.7854053556858047 -0.18406503857752876
-0.8899820042923999 1.042035043573719 0.2138459137099936
-0.924321330669989 1.0822412289635157 0.5434104739584257
1.8552220978316492 -2.1721859882885566 1.0925611994023279
-1.015055512237704 1.1884773060836507 0.9169449935762566
-1.1849357175238648 1.3873814707340602 1.3854596693232555
1.4256035573415875 -1.669167306561871 1.667570282560867
-1.3023376709437955 1.5248414969565496 1.7846860679493004
1.1317582148176393 -1.3251186147635199 1.5503513520877596
-1.1421337477235125 1.3372668029645558 1.70748158021832
1.0753465394430082 -1.2590690291274524 1.6073274784173592
-0.06234701263969782 0.0729989726976028 1.723
0.06234701263969804 -0.07299897269760262 1.7
-0.06788225099390874 0.06788225099390839 1.725
0.06788225099390897 -0.06788225099390816 1.7
-0.06788225099390874 0.06788225099390839 1.725
0.06788225099390897 -0.06788225099390816 1.7
-1.2414155226997958 1.2414155226997894 1.704564470457127
1.1771703360176966 -1.1771703360176824 1.6160788077009383
-1.396065901023304 1.396065901023297 1.7570648656994607
1.2287068405441626 -1.2287068405441477 1.5458963194668176
-1.1785821990849883 1.178582199084982 1.2653155267584506
1.5493445388292524 -1.5493445388292337 1.664528658698467
-1.007794621934452 1.007794621934447 0.8358306287598954
-0.9168055955326648 0.9168055955326601 0.4948096780480595
1.8446768009600059 -1.8446768009599837 0.9976557081757857
-0.883666226581057 0.8836662265810524 0.19491734344012582
1.5161431330847452 -1.516143133084727 -0.168059383049048
0.2620877715575468 -0.26208777155754365 -0.25314422766478467
0.24096591976806708 -0.20580433792884312 -0.2574973296349363
0.24096591976806708 -0.20580433792884312 -0.2574973296349363
0.28110862327997405 -0.2400894456606489 -0.25243712088359815
0.3513700947543718 -0.3000984113791737 -0.23616935125160987
-0.8797818154987311 0.7514046560394447 0.18036893819138447
1.840110165344422 -1.571602551345639 0.925328539458784
-0.9093387157062933 0.7766486336288946 0.45615865137918554
-0.9957695404166518 0.8504675316426898 0.7676475394939687
-1.1603966947320485 0.9910724044462829 1.1580982856088464
1.6699269853182597 -1.4262523842945434 1.6683306885264668
-1.4618032890840922 1.2484979551536837 1.7107325264416657
1.32284086693767 -1.1298128343931988 1.5476783325151944
-1.3380260757731532 1.14278222796432 1.7084539501387177
1.269696954818555 -1.0844236455022953 1.6209406573029266
-0.07299897269760316 0.062347012639697406 1.725
0.07299897269760332 -0.062347012639697226 1.699
-0.07766563145999512 0.05642738422007719 1.726
0.07766563145999529 -0.056427384220076954 1.699
-0.07766563145999512 0.05642738422007719 1.726
0.07766563145999529 -0.056427384220076954 1.699
1.350865801458789 -0.9814614543878443 1.6209406573029266
-1.4219474267215146 1.0331052781009602 1.7065092102979222
-1.4898080351598484 1.082408896107729 1.6385609979824078
1.4041759577488027 -1.020193550107151 1.5441143064184408
-1.1498121123943996 0.8353873988702059 1.0782556592208432
1.7629415905744354 -1.280852039941726 1.6554037871112663
-0.9876321612326029 0.7175567671613289 0.7153346520399386
-0.9021671314490586 0.6554627883663395 0.4251612933576134
1.8300271994002844 -1.3295925877708366 0.8648645571451
-0.870736839201129 0.6326273443805817 0.16769774652312588
0.38808874930715787 -0.2819629810120577 -0.24557432541649699
0.29907926000999613 -0.2172938016416325 -0.25243712088359815
0.2653232067411188 -0.16259027020276937 -0.2523814886488118
0.2653232067411188 -0.16259027020276937 -0.2523814886488118
0.30698006330113714 -0.1881176247341803 -0.24536605307173265
0.40901496173004986 -0.25064469090919506 -0.24557432541649699
-0.8641990738281725 0.5295818735516998 0.15784237522559144
-0.8922136844402283 0.5467492490142007 0.3987561365244222
1.8179671991972244 -1.1140517324805876 0.8151157109376386
-0.9737509047981182 0.5967153219122547 0.6688996171088334
-1.1301583758465932 0.6925619434417332 1.0052566865232402
1.7634552801179766 -1.0806467855058048 1.5709987249296629
-1.4628644204395445 0.8964444697872117 1.5262941759346735
1.4832961670809883 -0.9089650602321567 1.5476783325151944
-1.5020260243867702 0.9204427315508953 1.710398689979513
1.425408574214885 -0.8734914977002857 1.622885397143722
-0.08185345577799301 0.05015986221273085 1.726
0.08185345577799318 -0.05015986221273056 1.7
-0.08553662632208345 0.043583087974996236 1.727
0.08553662632208361 -0.0435830879749959 1.7
-0.08553662632208345 0.043583087974996236 1.727
0.08553662632208361 -0.0435830879749959 1.699
-1.5651644900979214 0.7974911403498558 1.7055368403775246
1.485989737501854 -0.7571495889447275 1.6189959174621313
-1.4610836263944114 0.744459291487557 1.4585776800963577
1.5447023718550907 -0.787065170354562 1.542332293370064
-1.1241451883306979 0.5727805823811939 0.9565907047248383
1.837465445323192 -0.9362354069587643 1.5664362891360628
-0.9687437446665654 0.4935995919461442 0.6365714282327474
-0.8862339856541795 0.4515587698976816 0.3788565980414377
-0.856972742977261 0.4366494220699592 0.14970778304349952
2.1125268635186827 -1.0763861997033943 0.3705932476803034
1.4895478683221683 -0.7589625471503081 -0.1309482307697764
0.4300387398800676 -0.21911568223740543 -0.24714182111064484
0.32680875566714285 -0.16651737813001308 -0.2503158005400385
0.2927692461365725 -0.121268992395513 -0.2574973296349363
0.2927692461365725 -0.121268992395513 -0.2574973296349363
0.3415419068363799 -0.1414712899303941 -0.25243712088359815
0.44409400555548045 -0.1839497600696693 -0.24609682398121294
1.4836323070413067 -0.614540623151382 -0.12576993045173854
-0.8499897561071916 0.3520772848577951 0.1431375355118099
-0.8757213295788722 0.3627356515709648 0.36087047672027855
1.8065152566278273 -0.7482831199291448 0.747380743409018
-0.9557202206336923 0.3958722772206787 0.6054188098612463
2.021547220849215 -0.8373522758533681 1.2848985615113444
-1.1075928532857504 0.4587799814184676 0.9086851288920363
1.9107946211215037 -0.7914770469780721 1.5709987249296629
-1.4301467163296997 0.592386166087104 1.3766050798710279
1.672727203890704 -0.6928662940019424 1.6109397957325684
-1.628445065315204 0.6745240316330924 1.7113710598999108
1.5398918523870022 -0.6378440898465129 1.6180235475417337
-0.08869243512108364 0.03673760950704835 1.728
0.08869243512108377 -0.03673760950704805 1.699
-0.09130142556433483 0.02966563145999468 1.728
0.09130142556433495 -0.02966563145999433 1.699
-0.09130142556433483 0.02966563145999468 1.728
0.09130142556433495 -0.02966563145999433 1.699
-1.672549091564597 0.5434441427657868 1.70748158021832
1.5842400734637268 -0.5147508034298193 1.6170511776213359
-1.4228596949303627 0.46231513985881445 1.3302727406132326
1.747575341652595 -0.5678216491538655 1.6349969718856545
-1.0984669826137443 0.3569135583127313 0.875227266405635
1.9622527076020992 -0.6375745536862572 1.5671966951016627
-0.9478555797622207 0.3079769470490029 0.5830829702741325
2.0126054770388877 -0.6539351602361437 1.2425780233462862
-0.867426631486986 0.2818439976070818 0.34709387315513535
1.796964598241111 -0.5838691914017747 0.7221236368729221
-0.8400042134751169 0.2729339138766936 0.1373494603053214
-0.863643629915269 0.2806148258855509 -0.07084856344224573
1.4731653612455815 -0.4786604416767429 -0.12129776199525125
0.45715754377965484 -0.14853949025546356 -0.24609682398121294
0.34058049590048367 -0.11066131127083517 -0.24395183950935956
0.2951907529625552 -0.07086902966317334 -0.24556036733397907
0.2951907529625552 -0.07086902966317334 -0.24556036733397907
0.3585290218214265 -0.08607520265309349 -0.2517300141024116
-0.85979552452381 0.20641864259031065 -0.0689655451447774
-0.8346678627409517 0.20038602473089726 0.13343859867931568
-0.857862306279218 0.20595451795311795 0.3356133701841827
1.786738923225371 -0.42895806348807763 0.7022240983899375
1.9994280678646128 -0.4800202094028767 1.2073109082087379
-1.0804535089921812 0.2593939376825959 0.8417694039192337
2.0790787886357602 -0.49914265560545007 1.6242271425216652
1.7886810100533235 -0.42942431728375835 1.6367789849340313
-1.7129440845360655 0.4112414901890377 1.710398689979513
1.6197432725929184 -0.388865954912463 1.6170511776213359
0.0933475123581771 -0.02241075493016632 1.699
-0.09334751235817704 0.022410754930166598 1.729
-0.09481808069713327 0.015017708643861838 1.729
0.09481808069713332 -0.015017708643861514 1.698
-0.09481808069713327 0.015017708643861838 1.729
0.09481808069713332 -0.015017708643861514 1.698
-1.7349982026129713 0.2747967192849258 1.7055368403775246
1.6442741700597527 -0.2604274441649938 1.6160788077009383
1.814886665185479 -0.2874498087178534 1.6349969718856545
-1.0738607133132037 0.1700828280646153 0.823519660744833
2.1591942440924266 -0.341982771902524 1.6607266288704663
2.689172099877343 -0.4259230179754121 1.599363671487817
-0.8517430493378377 0.13490284616968434 0.32795970153688087
2.3230035028056015 -0.36792760966378624 0.8993060660579582
-0.8262277155250467 0.1308616143040518 0.12999704044843063
2.1937305135188545 -0.347452779606526 0.34712807792426903
-0.8507615072328505 0.13474738517273097 -0.06716098594303692
2.1966908132295266 -0.34792164501939365 -0.17433611070727575
0.35179595289015564 -0.05571900510694176 -0.24253762594698644
-0.6372388820030607 0.10092872367908576 -0.4511341263970185
0.30927100865358925 -0.024340156252406816 -0.2515288484844577
0.3045349940408952 -0.023967423818841493 -0.24726564766268724
0.3637314063289181 -0.02862628250380233 -0.2489015869776654
0.47822530787505974 -0.03763714797649276 -0.24557432541649699
-0.9122289325037217 0.0717939740028394 -0.07139777711234066
1.5491777812070076 -0.1219229355557568 -0.1216900574738905
-0.8854652083332264 0.06968762322963822 0.13813163263052256
-0.9132203543126881 0.0718720005913882 0.3486246068845957
1.8885940447585718 -0.14863557482129724 0.7240370540347475
-0.9935620451049696 0.0781950287859162 0.5830829702741325
2.113638730642353 -0.1663469757121595 1.244929164355456
-1.151436067929024 0.09061998384543751 0.875227266405635
2.061853533893258 -0.16227139233975738 1.5709987249296629
