0.096 0.0 1.715
-0.096 -3.2930390389303353e-16 1.698
0.096 0.0 1.715
-0.096 -3.2930390389303353e-16 1.698
0.096 0.0 1.715
-0.096 -3.2930390389303353e-16 1.698
0.096 0.0 1.691929542489078
-1.7306646122227147 -5.936610553483989e-15 1.643425660158025
0.096 0.0 1.7935906765292575
-1.2467016483505584 -4.276497081163737e-15 1.005608124008059
0.096 0.0 2.003759925065038
-0.838513565781735 -2.87631031957493e-15 0.25741115631433004
-0.8097110595761924 -2.7775105514979667e-15 -1.3789600975520778e-15
-0.7392597648999978 -2.535845068464744e-15 -0.22650945687683793
-0.42401061307472016 -1.4544619810164986e-15 -0.2427553091967923
-0.1464479045782986 -0.023195069403335503 -0.09141892036436927
-0.1464479045782986 -0.023195069403335503 -0.09141892036436927
-0.4120590302215228 -0.06526373888230871 -0.23864081243074498
-0.7958194227596714 -0.12604541387318927 -1.3720995995543064e-15
2.8313152253255867 0.44843627734553204 -4.913831690903859e-15
-0.8223031889113049 -0.13024003035280174 0.25555705434808035
3.215336224763257 0.5092592284143366 1.0055412996960744
3.4384630121461974 0.5445990397553954 2.0454926779778035
-0.24981291746068032 -0.039566479117850425 0.1375417490364385
2.206558532544487 0.34948453822038916 1.8057259314448815
-1.2224900722258885 -0.19362340589180416 0.9983269710586846
1.7655715767828135 0.27963906604165534 1.6976358815868489
-1.71132959777974 -0.2710479805551647 1.6453277731906153
0.09481808069713321 0.015017708643862182 1.715
-0.09481808069713317 -0.015017708643862532 1.698
0.09130142556433472 0.029665631459994988 1.714
-0.09130142556433464 -0.029665631459995307 1.699
0.09130142556433472 0.029665631459994988 1.715
-0.09130142556433464 -0.029665631459995307 1.698
1.6953408721548802 0.5508496411917949 1.6928805990053728
-1.6440606759111245 -0.5341876954055162 1.6415235471254348
2.111418293571359 0.6860413905678082 1.7943996935236324
-1.205597593823293 -0.39172240396419233 1.022597480889933
3.2491410494040207 1.0557099227902222 2.007286636578793
3.212064661234368 1.0436630740087254 1.0432413730098178
-0.8097574660866722 -0.26310614990321296 0.2614283772412043
-0.7814143332530705 -0.2538969077926301 -1.3995415915453925e-15
2.926874227020113 0.9509990847552989 -5.2757229602863075e-15
-0.6983630729666945 -0.22691191752862036 -0.22496437190496318
-0.4023317544721892 -0.1307255114479577 -0.2421675239444998
0.130759571310522 0.06662532934769262 -0.08980088637561937
0.13008695253150168 0.06628261296197391 -0.08899186938124441
-0.3760607008766159 -0.1916124976513495 -0.24157973869220734
1.9941259493360481 1.016057920683956 -0.6909619994223869
-0.561648702959488 -0.2861743078333988 -0.1925175874955935
2.5221083500939825 1.2850783907552905 -4.852087208923915e-15
-0.7665975942247105 -0.3906009837786971 -1.4664314470236649e-15
3.552581900760162 1.8101308898505963 1.2317417395785346
-0.7940522970162938 -0.40458985355931465 0.27378905701620215
3.1241490479752603 1.5918334479571885 2.0601873092851153
-0.9048595688678868 -0.4610489785567495 0.5942508900676894
1.9914553932681127 1.014697204403041 1.8065349484392568
-1.181012258563101 -0.6017558019028004 1.0695204665636797
-1.5420334606723676 -0.7857052921845452 1.643425660158025
1.5927451293867938 0.8115441779808694 1.6976358815868489
0.08553662632208328 0.043583087974996534 1.714
-0.08553662632208316 -0.043583087974996826 1.7
0.07766563145999492 0.056427384220077474 1.714
-0.07766563145999471 -0.05642738422007775 1.7
0.07766563145999492 0.056427384220077474 1.714
-0.07766563145999471 -0.05642738422007775 1.7
1.4421430833308007 1.0477782815086072 1.6928805990053728
-1.4001370828515003 -1.0172591357289895 1.643425660158025
1.7976962000985652 1.3061027418052447 1.796017727512382
-1.1651487918883112 -0.8465301487609334 1.1625574209167988
2.7606496715293396 2.0057293912900986 2.004935495569623
-0.89007754115449 -0.6466791868711846 0.6442126365125495
-0.5323657632930827 -0.38678636748646333 0.20117006333808987
-0.7555789953613392 -0.5489602733975832 -1.5933506599824382e-15
3.067966636663091 2.22900823603731 -6.502036977387969e-15
1.813053292718954 1.3172603227004744 -0.6918890504055117
-0.4174598244186159 -0.303302316173778 -0.15667161614809938
0.26331856498649947 0.1913121358760355 -0.1828012134629598
-0.34381984918562114 -0.24979974240574537 -0.24334309444908478
0.21131138161490481 0.21131138161490517 -0.22895180940811066
-0.23082460874005511 -0.2308246087400571 -0.25241330224498415
0.21064187617850333 0.2106418761785037 -0.2281427924137357
-0.23014886486793618 -0.23014886486793817 -0.2516042852506092
0.23082460874005592 0.2308246087400563 -0.18338899871525227
1.5634732169116285 1.5634732169116312 -0.6826185405742634
3.0632317085065544 3.0632317085065597 -7.428204207087126e-15
3.253399452880015 3.253399452880021 1.4214781741247517
2.471563472783976 2.4715634727839806 2.053721671509898
-0.8737963149384377 -0.8737963149384452 0.7241514308243258
1.5825473136686927 1.5825473136686954 1.8089619994223813
-1.140463940683785 -1.140463940683795 1.3025173609436647
1.2640096914185417 1.264009691418544 1.6976358815868489
-1.2230586658047056 -1.2230586658047162 1.64247460364173
0.0678822509939085 0.06788225099390863 1.716
-0.06788225099390827 -0.06788225099390886 1.7
0.056427384220077335 0.07766563145999501 1.715
-0.05642738422007709 -0.0776656314599952 1.7
0.056427384220077335 0.07766563145999501 1.715
-0.05642738422007709 -0.0776656314599952 1.7
1.0495390825856312 1.444566618098768 1.6957337685542584
-0.9943716182015461 -1.3686351175222848 1.606334456022514
1.3084516915443094 1.800929252051516 1.799253795489882
-1.1229129209269995 -1.5455570426274123 1.5436044252673988
2.0051418387596036 2.7598409748490496 2.0043477103173304
-0.8694041326800866 -1.1966321298038034 0.867571032383689
2.8895155335661764 3.9770769393211105 1.5188185273528596
-0.7544781825195189 -1.0384501298098252 0.3955417527999308
1.6132820726503465 2.2204922774162044 -4.704586501971827e-15
1.1434598813213357 1.5738375074348037 -0.6004200200705267
-0.23550832126915153 -0.3241493955153798 -0.22864846314177287
0.13352261171183874 0.26205288046814057 -0.2249067244362359
0.13352261171183874 0.26205288046814057 -0.2249067244362359
-0.19515097288657332 -0.38300534954674453 -0.24628202071054714
0.5148572532569639 1.0104642540776463 -0.3491892036436928
1.9903175990953799 3.9062182292763934 -7.517390681058156e-15
-0.7340356735315959 -1.4406261242886775 -2.7682109421008126e-15
2.019820009176923 3.9641199692401514 1.37450759097976
-0.7512575749842566 -1.4744260090044443 0.5104960747074108
1.6004560512306476 3.1410718597445686 2.071355229078672
-0.8537073764963484 -1.6754950657389958 1.1038607038052628
1.0196865138185929 2.0012474643422995 1.8154341353773809
-0.9502940809129165 -1.8650571465190753 1.691654535238014
0.8138108638512245 1.59719375088864 1.7023911641683245
-0.7390208181370936 -1.4504100214628899 1.5454668389796242
0.04358308797499638 0.08553662632208338 1.716
-0.04358308797499605 -0.08553662632208354 1.7
0.029665631459994818 0.09130142556433479 1.717
-0.02966563145999448 -0.0913014255643349 1.7
0.029665631459994818 0.09130142556433479 1.717
-0.02966563145999448 -0.0913014255643349 1.701
0.5536267784012682 1.7038880216249639 1.7014401076520294
-0.5017942184120117 -1.5443638050563988 1.5416626129144437
0.6919072682287509 2.1294716086795398 1.8097710164167566
-0.6422048245811187 -1.9765032161078653 1.67951928032239
1.0730081511462433 3.3023795220376657 2.0402026107071713
-0.845681959317879 -2.6027414438787946 1.6075926650199115
-0.7545848267985241 -2.3223732988400987 0.7540014662748682
-0.7332796172350737 -2.2568026061105977 -4.066560188179075e-15
-0.13313433361101606 -0.40974534678742935 -0.24686980596283964
-0.05136484627245837 -0.32430487595379554 -0.2540313362337341
0.047490164551402446 0.29984109836858713 -0.23299689437998541
-0.05121526774753611 -0.32336047431550474 -0.2532223192393591
0.047490164551402446 0.29984109836858713 -0.23299689437998541
-0.06724444247865329 -0.42456470055309015 -0.24628202071054714
-0.39965944360705685 -2.523350417428324 -4.37871284707768e-15
-0.41232196132194027 -2.603298407830272 0.8139507631836077
0.5614877304225696 3.5450940084269855 2.1089734852253903
-0.466729245889954 -2.9468124831809357 1.7527756223361521
0.3538607074236222 2.2341885774798986 1.82837840728738
-0.32385485962199595 -2.0447391104733184 1.6730471443673904
0.2819822249269653 1.7803656997440829 1.711901729331276
-0.25386841254950804 -1.6028620742626585 1.5407115563981484
0.015017708643862022 0.09481808069713325 1.718
-0.015017708643861677 -0.09481808069713331 1.7
-1.6465195194651677e-16 0.096 1.719
4.939558558395502e-16 -0.096 1.7
-1.6465195194651677e-16 0.096 1.719
4.939558558395502e-16 -0.096 1.7
-3.0881863244576345e-15 1.8005610236812302 1.7099996162986857
8.339855266512462e-15 -1.620845458395093 1.5388094433655581
-3.8728225193065944e-15 2.2580416293771024 1.8251423393098802
1.058527390623213e-14 -2.0572411137248836 1.662529923440516
-6.066914912688074e-15 3.5373029273727745 2.078408652106182
1.5120032632463813e-14 -2.938568529063088 1.726325285982991
-6.7595961422824e-15 3.941169369616079 1.2175269578372871
1.697662944479401e-14 -3.299396914589089 1.0191380474485718
1.3191698098823271e-14 -2.5637979639589386 -4.3941489675726655e-15
2.216790287749023e-15 -0.43083175370438986 -0.24686980596283964
-0.21764976225176058 1.3741865160856992 -0.8158459301819556
0.06724444247865803 -0.42456470055308937 -0.24628202071054714
0.4040365487169379 -2.550986371445544 -4.426736333062081e-15
-0.6201316533107881 3.9153571653888783 1.224634348707911
0.5198922403593361 -3.2824704200364323 1.0265544553135706
0.4607878539683658 -2.909300010936519 1.7304397827490383
-0.3569866025757155 2.2539247027310934 1.844558747174879
0.32276100034861216 -2.0378327548290027 1.6673840254067658
-0.2822946503266931 1.782338276084798 1.7138038423638664
0.2535560921969338 -1.6008901611634132 1.5388094433655581
-0.015017708643862348 0.0948180806971332 1.72
0.015017708643862733 -0.09481808069713313 1.7
-0.029665631459995147 0.09130142556433468 1.72
0.029665631459995505 -0.09130142556433457 1.699
-0.029665631459995147 0.09130142556433468 1.72
0.029665631459995505 -0.09130142556433457 1.699
-0.5567125334352435 1.7133849990927643 1.710950672814981
0.499634899251993 -1.5377181040260437 1.5350052173003774
-0.7011693659079896 2.157977414226615 1.8340415262480048
0.6354137854734877 -1.955602546845921 1.6617209064461411
-1.0439719661790958 3.21301533358186 1.9849507969916786
0.9009640473993537 -2.7728822162677185 1.712806225180264
1.063123422432422 -3.271957455205611 1.0627094436554394
-0.903743696975783 2.781437098008248 0.9032566745579672
0.8416672226092403 -2.590385354804425 -4.668568887483527e-15
0.13313433361102064 -0.40974534678742786 -0.24686980596283964
-0.43178996705496175 1.328912873122491 -0.8193726416957104
0.14906658978430568 -0.29255965513050075 -0.2540313362337341
-0.06560123448584344 0.12874967197602244 -0.08737383539249452
0.14863249599773315 -0.29170769810459896 -0.2532223192393591
-0.06560123448584344 0.12874967197602244 -0.08737383539249452
0.1951509728865776 -0.3830053495467423 -0.24628202071054714
-0.6325500316815231 1.2414493374357665 -0.8170215006865406
0.31312347130023144 -0.6145394142940656 -0.2110586071580905
-0.9035848086866839 1.7733850381433383 -3.409667504892451e-15
1.2192896814695628 -2.3929907381061573 -4.603394156504697e-15
1.394432097088925 -2.7367270829602615 0.9486821727310842
-0.8963294836621055 1.7591456610292462 0.6093815129073935
-0.9979153185254822 1.9585190877426197 1.2907764140342688
1.332267203662 -2.6147216100469723 1.723974144973821
-1.0410049676459716 2.0430872857850226 1.8534579341130035
0.9335144256127385 -1.8321252187481396 1.6617209064461411
-0.8228777874263931 1.6149885903498646 1.7214122944942276
0.7335824844702749 -1.439736690675909 1.5340541607840825
-0.04358308797499667 0.08553662632208323 1.721
0.043583087974997006 -0.08553662632208306 1.698
-0.05642738422007763 0.0776656314599948 1.721
0.05642738422007789 -0.07766563145999461 1.698
-0.05642738422007763 0.0776656314599948 1.721
0.05642738422007789 -0.07766563145999461 1.698
-1.065973633250715 1.4671868365052456 1.7223633510105227
0.9474283281508585 -1.3040232218090553 1.5302499347189018
-1.2755671299486495 1.7556675360086156 1.753948843804885
1.203344568999046 -1.6562617088674425 1.6544397534967665
-1.0213673231231577 1.4057915177067455 1.0198074127274392
1.7137354564536043 -2.3587544987331253 1.712806225180264
-0.9128128971465184 1.2563791684053738 0.4789763412811663
1.8136077526477632 -2.496216921570706 0.9530084106523335
-0.8963869633652075 1.2337708101219211 -2.6104194881520673e-15
1.5134237559300132 -2.083049095673622 -4.413015337066537e-15
-0.980287830728497 1.349250447072602 -0.5145132956342908
0.2538095922929555 -0.3493389340741792 -0.2474575912151321
0.23352944139872525 -0.23352944139872242 -0.25564937022248396
0.23352944139872525 -0.23352944139872242 -0.25564937022248396
0.3039547663715789 -0.30395476637157526 -0.24628202071054714
-0.8907165654685019 0.8907165654684972 -2.154196371300261e-15
-0.8998824923288617 0.8998824923288571 0.39214256586180646
1.7987467859596133 -1.7987467859595916 0.7855211997011127
-1.0007397264024274 1.000739726402422 0.8299527762369707
-1.2633036056308904 1.2633036056308837 1.4432863179649054
1.446213158562743 -1.4462131585627254 1.6528217195080166
-1.2887233993375027 1.288723399337496 1.730922859657179
1.1390522376080983 -1.1390522376080845 1.5292988782026067
-0.06788225099390874 0.06788225099390839 1.722
0.06788225099390897 -0.06788225099390816 1.698
-0.07766563145999512 0.05642738422007719 1.724
0.07766563145999529 -0.056427384220076954 1.698
-0.07766563145999512 0.05642738422007719 1.724
0.07766563145999529 -0.056427384220076954 1.699
-1.471226265674584 1.0689084503310922 1.7271186335919984
1.367019693911625 -0.9931979442476542 1.6044323429899237
-1.2450747887940323 0.9045997846061513 1.2426501033599184
1.5601011224991481 -1.1334798134845179 1.5581667311661478
-0.9876321612326029 0.7175567671613289 0.7153346520399386
-0.8876597726418616 0.6449225752238779 0.33775557485181595
-0.877989210806132 0.6378965007805147 -1.8540495838977565e-15
1.4760736215675017 -1.0724302605356675 -3.1249568379849325e-15
0.34933893407418226 -0.2538095922929513 -0.2474575912151321
0.29341184412345156 -0.1495008017639884 -0.254840353228109
0.29341184412345156 -0.1495008017639884 -0.254840353228109
0.38300534954674487 -0.19515097288657265 -0.24628202071054714
-0.8684987543937872 0.44252221821784266 0.2997464845436976
-0.9607562673640087 0.48952976898323247 0.6312813609621151
-1.204118757010038 0.6135291509102079 1.0905549084174284
1.72265852013806 -0.8777383567987376 1.5622118161380225
-1.6212169154204763 0.8260512775575833 1.7280696901082937
1.526020295591376 -0.7775461770488037 1.6263066428647124
-0.08553662632208345 0.043583087974996236 1.725
0.08553662632208361 -0.0435830879749959 1.698
-0.09130142556433483 0.02966563145999468 1.726
0.09130142556433495 -0.02966563145999433 1.698
-0.09130142556433483 0.02966563145999468 1.726
0.09130142556433495 -0.02966563145999433 1.698
-1.6953408721548822 0.5508496411917891 1.6928805990053728
1.623170137379195 -0.5273999479715605 1.6206003037669414
1.858706080900774 -0.6039302151925212 1.5792011730198965
-0.9431225204111635 0.3064390828424051 0.5801440440126701
2.014505633671233 -0.6545525585519202 1.2437535938508713
-0.8522957588570825 0.2769276790684348 0.2753341419880769
1.7466255846849383 -0.5675130544084394 0.5667371676836509
-0.8466224766799783 0.27508431794680654 -1.5178851820069515e-15
0.3986277120144761 -0.12952199509775902 -0.23981638293532992
-0.2998410983685872 0.04749016455140187 -0.23299689437998541
-0.2998410983685872 0.04749016455140187 -0.23299689437998541
-0.16280987018724014 0.025786550168915866 -0.07876322380719168
-0.8321149708479463 0.1317940639434169 -1.435559206033693e-15
2.222347052800014 -0.35198519416459734 -3.8555998747476006e-15
-0.8311337232560099 0.13163864959274824 0.2583382072974548
3.3071524015765963 -0.523801482191632 1.0342798801729443
2.788868811791769 -0.4417134258941742 1.6587299819693566
2.023033592976349 -0.32041704338128063 1.6552487704911414
-1.1210924005840917 0.1775635924185983 0.914998220638065
-1.7103434274998808 0.2708917865273118 1.6443767166743202
1.6866758737435454 -0.26714321427175786 1.6215513602832365
