0.20954589853743735 0.010706805599129059 0.06006563676512945
2.996964950174391 0.18855305261107302 2.1637617322101934
3.4043792600393377 0.22761065815411974 1.7048695674768384
2.7500384790159194 0.2164327221319308 1.0300049712124524
0.20611948690583975 0.0162219554293042 0.06988279673655758
2.756655313289207 0.30433757992106714 2.133881468395602
-0.24438400384293169 -0.03184837786004559 0.16050588616428277
-0.22097935526996051 -0.02968123807765426 0.05260369426808522
-2.2711948313000265 -0.34145886697026845 2.0409156965547166
-0.21944400468020986 -0.05177327388543087 0.10180303001922977
3.2147502716903293 0.7985481173978948 2.1021421443059536
2.8533449083489293 0.7685560528989568 2.12928190419954
3.311285135296842 1.018684320815021 1.564253498409963
2.545096402138685 0.8049082999934779 2.1385471545940553
0.7494595994561073 0.24677219373135112 0.18615797910406037
3.2647487220216904 1.1034689885337579 1.9122206916049258
0.6718563434718585 0.25086271575181546 0.3238115989001136
0.6473886470070714 0.2801500841122385 0.31850254331521316
3.0634355170274263 1.3687371023047492 2.185210877189957
2.4701463320966397 1.1270124475630254 2.140413988243283
3.193468111649124 1.564463884987383 2.046908442615442
3.227017312578384 1.5808994689321711 1.8487650292693683
2.1233117494027653 1.1781823500131254 1.4232422720555042
0.5685308711825026 0.3670957335327402 0.3282459001031452
0.15385870537241622 0.09934530765516535 0.07251212745482359
-0.1708269536903776 -0.11414292123674077 0.04847210975817709
2.1089420026561894 1.4332355050013756 1.494500457221727
2.1588369062125095 1.7156789747918662 2.1216900970292363
2.229732716789714 1.8298943498860891 2.0784394819028362
1.7357017745451901 2.0484805786029128 2.1510471098809885
2.001778285826819 2.4588004529676377 2.191348677613488
1.5007722188401622 2.227081825133348 1.276632010924954
0.10873311600718562 0.16412218094910688 0.07616442216597284
2.743688670106517 4.141334166800464 0.9072710732852951
1.3693645770394147 2.1766196888766065 2.161607592775425
1.0871096890071268 2.1971851784191454 1.1068558243068758
1.0017236161268794 2.128771043875826 1.5322322407681914
0.988140198950451 2.1214897681867857 1.6863466757155674
0.9575493357980538 2.1431366473886047 1.4511528452002003
0.9569285199783861 2.1417471700168726 1.0926201844084213
1.087626402685629 2.4865205576949165 2.0881641037863083
-0.1030891952836221 -0.2356814828290317 0.033523968549145064
-0.11126159431913274 -0.26275317052559066 0.1356415460259674
0.9417754895139886 2.2486303348373657 1.0098047061684192
0.8075284728791955 2.1627092946517568 0.8723292224362852
0.6824794462053819 2.533776483234538 0.8640228807819897
0.5229613975726481 2.105308694995702 1.0312141753410662
0.48194215346529884 2.117000274399402 0.839960474609423
0.45577860436070894 2.0390362629667877 1.44404189070589
0.4961862486297818 2.4944967231862964 0.8596454528952807
0.43716755108351707 2.393701679504821 1.9182548844758454
0.34873833876330484 2.52130211027277 2.0391746467163343
0.02010147985761752 0.18887420026874857 0.0584334406001775
0.2531769533051041 3.5757538790644388 1.6185566492003807
0.018050463904870032 0.4594149845748008 0.09709816013166539
-0.035395260936412674 3.004304063212821 2.1649305465224926
-0.19486998326960234 2.7522532738188965 2.122909231779275
-0.37239847665181386 3.4990689718923877 1.6727452599028207
-0.4103784464591379 3.0553026217428063 1.1926220777150327
-0.5100689923162381 3.485747595457526 1.760277910967349
-0.7661411416425233 3.084288084322412 2.196464150399336
-0.8948401034732096 3.4851720993069493 1.122442260175752
-0.9070461352961898 3.265169628372687 2.2070341198986525
-1.1291097566324906 3.384365517761599 1.9980343339551467
-0.1559989463521614 0.4675873640628184 0.16230337552189344
-1.1064988686340644 2.450623346132676 2.154172107585887
-1.821702772222726 3.718558010716223 1.5461249401695312
-1.825171300131005 3.72563815706907 1.4386403469140865
-1.33715256285833 2.6760623493683626 2.1555800439636843
-1.855192060577706 3.6410194278195345 1.435045624574412
-1.8498389653802478 3.630513386948034 1.3772016371439748
-1.8503548196564275 3.429309156057666 1.5075048104577635
-1.2406361468039084 2.235865532371246 2.1493869526908815
-1.6250434072065492 2.8490043787016446 2.117789643669405
-1.4693041554062707 2.3559505998572114 2.136319748993186
-2.0594332139379197 3.3021909710731907 -0.13760315364130865
-2.5197470057068454 3.5554757913405965 1.988266562717976
-1.5950605546182355 2.2136412087115174 2.1509345471666905
-2.5784096651728157 3.378526177106714 1.6827003503737985
0.28729914174139715 -0.33638407545241594 0.1751483854812253
0.3030094233520436 -0.3303872252573633 0.21310694673473757
-3.247243454304847 3.4852899506221187 1.7149996817978694
0.3080814439937914 -0.322952585100653 0.30847925642335494
-3.468246800576064 3.4141911478527387 2.1974303029261004
-3.480170837749197 3.268097947569704 1.4482081152827249
-3.703293035325447 3.4503568537207694 2.1667716253662173
-3.6990530780997375 3.446406487024518 2.187822810831851
-3.581729439676966 3.259123026701098 1.2839892202732874
-3.956866735267148 3.4609264589294306 2.1533252622905095
-3.893468669885943 3.044647876362072 1.956901128207683
-2.292088044932812 1.692962498874406 1.4238266649002627
-2.2028139416511636 1.587258862756717 2.140413988243283
-3.8653658712485885 2.7852267143078806 1.568725543647574
-3.8469274818197348 2.7719407547075114 1.1580627798231136
-3.8708092152430957 2.6752808827756267 1.8416373740355063
-3.8129889142411 2.5694735454526456 1.9257188889070749
-2.2317878390527746 1.4785889670964125 2.144797125099927
-3.8451504277940156 2.5042319578770815 1.9218565213830687
0.4523230164685151 -0.2895507984760919 0.4514479193380795
-3.822880367728923 2.4050673549356785 1.9334416754211843
-3.8570173540038915 2.342798836955895 0.7876082404793263
-3.8229490781330133 2.260885782291977 1.084763949176013
-3.8425324767246276 2.2724673719338564 1.4699160550223702
0.5288073661497232 -0.2799890878277606 0.26172672810236886
-3.7435779061772014 1.8339598925340264 1.823412343097004
-3.8095478298019225 1.8109437355692235 1.030206347803225
-3.7480536108897806 1.763700153353318 1.3639178490501407
0.6234628739730266 -0.2697964775747608 0.44243067871198244
-0.25720719498429256 0.09146092418835612 0.1168604218498459
0.7192893848510726 -0.25259645297267136 0.6009906927617019
-0.26316953852982294 0.08665300223441116 0.06536857956054394
0.7611461602881026 -0.24731137918964757 0.5078962535813714
-0.27136917694520213 0.07999697245461027 0.08703593626876159
-0.27148491379297146 0.08003109054247569 0.10441726930639827
0.8116851413143124 -0.23236373199625013 0.11002875725163573
-0.2734262535247098 0.07480095853031511 0.14164356846107512
-0.2685019733532559 0.0666962367892174 0.13824001701231153
0.9623946101677452 -0.22307109300101732 0.4321202399649957
-0.2697597104437084 0.061411695284876146 0.13824001701231153
-0.27363459859752787 0.06003731313324406 0.12648963389191464
-0.27193849713137697 0.054091930246067614 0.12127867438335024
1.0525532820592092 -0.20507228847407766 0.7411429989727967
1.1657625674909131 -0.19874396194184385 0.7701808059336797
-0.27065429474742514 0.03743602511765563 0.22244504210740274
1.3191892226859963 -0.1824659790508724 0.7389600538852714
-0.2717015305584533 0.037580875381947 0.22873118741815784
-0.26790927375496626 0.029577459183937022 0.1755414336967461
1.5346144661362728 -0.16332575723074771 0.8093819477541393
4.670396748247022 -0.47851970972448526 1.6487128620135283
2.117711042050525 -0.11654469043313485 1.0597614248070757
-0.24014779979402298 0.007546948646051525 0.07288400249865348
3.0257188804390354 -0.011882031336928117 1.6789225931787497
2.7571296351999064 -0.010827278415457062 1.9866917085306792
2.848316057751956 -0.03355748551816785 1.8551521582657444
-0.24108048687419684 0.007576259518368261 0.09549763944836841
2.6953001204710825 -0.08470321865258164 1.3474300075842387
2.2934168028511634 -0.11718276538594775 0.8064412984814513
2.1598209577079492 -0.11035664875573369 1.663953076478096
2.2502706356134636 -0.12383988627853963 1.1819520925411053
1.9547049471831544 -0.13840053311154948 1.0873411892741565
1.894529902878844 -0.1341399114644159 1.3685393422368963
1.7743752862744715 -0.16070020241937924 1.1603274487836417
1.719104514043988 -0.1693170161058158 0.7555901123298304
1.6756467566497093 -0.1716834870386015 0.7367799720456412
1.6820260971994752 -0.17233710178541145 0.6694476317742154
1.420473345844837 -0.19079342280401085 0.5033143585862644
1.2458074189368047 -0.2123903350138861 0.4438087657028708
1.1539447776630258 -0.2060683912223547 0.7439007112802489
-0.2805178215805238 0.05351163637061162 0.18598724834960284
0.9948045239838904 -0.19787892294562254 0.7996048342244214
-0.2758087506672729 0.07312936514864243 0.1356415460259674
-0.2752866067591308 0.07414918094467861 0.12470438285913216
0.8794877119310307 -0.24431684137190884 0.353132617559429
-0.2731626211652784 0.07819914750818842 0.09852956778098237
0.7734071304804191 -0.25129520990005566 0.6835730597407498
-0.28415943578001324 0.0960444897542738 0.1312016426917961
-2.4133170956787486 0.890319681038003 2.162250785931428
-0.27677250322812225 0.10958198609307039 0.07270329965508564
-0.9859644402947192 0.41750200520788033 0.26150754888094513
-2.5191748316840137 1.09014429624682 2.1639305859408577
-3.7810053889096777 2.156647397874524 1.9653781443470422
-2.3693335638068254 1.351444004832342 2.1503156896653954
-3.7159296568145193 2.2571004688785723 2.0667726674684026
-3.833985118423676 2.3288087794121277 1.0583419960668625
-3.1896481368111314 2.006685501417665 2.2286101188268455
-2.506826804234599 1.6326216396243036 1.3507564382231891
-2.5971079298394852 1.7206183599643057 1.3626884677425766
-2.605949847062667 1.7264762470920199 1.3381786737282577
-3.571134629142897 2.4064942655776917 2.1517359992057847
-3.8160905052697496 2.637462455004667 1.9001592180737985
-3.266610382141993 2.353787663220207 2.172471460745688
-3.8406338408329566 2.9550174838306904 1.1432862156536465
-3.898608750067777 3.04866736015322 1.416792906896197
-3.343335845803026 2.6144503130643066 2.1835647420414444
-1.929127073882256 1.6607760937143148 2.139739119463283
-2.397740917478951 2.097216191032616 1.3488894471815847
-2.302797406013136 2.030189007586893 1.38613192024876
-2.3655399741116234 2.1020711586923344 1.3547008801480287
-3.5994860522345724 3.2752803009557176 1.6875885487701676
-2.313825160687874 2.138877977899384 1.3635446899257724
-3.344732863771138 3.4514965671395017 2.1928687870079155
0.3108147235489063 -0.3335996970151077 0.16415373823536658
-3.1431350422352375 3.4271266342987485 2.210571224537454
-2.6726912892851016 3.3630444150668186 1.6618948626394614
0.2656615197297259 -0.34528006296545466 0.15107162226395845
-2.6796662456839564 3.627978156767058 1.524460332630255
-2.5709415626825387 3.4807766999938887 1.3126728633026283
0.24668032510275165 -0.34807697840951274 0.1946490028448757
0.2238068581941275 -0.3526631778456995 0.2339148845564263
-2.1492483694914952 3.446204767552387 1.302043066237579
0.22217744398236597 -0.35624964409105575 -0.014845015003657298
0.21650934612136663 -0.3596208241383132 0.15485982657932534
-2.2120386100075597 3.7070507143576608 1.1445965179993292
-1.4444933839045737 2.8076661241301877 2.1822545221095733
-1.8040589174018686 3.5406649838431377 1.3257537081712718
-1.8214074846758193 3.6452085782788193 1.8592012251527303
-1.8300858532610096 3.735670008142322 1.406012574609437
-1.7142622435544654 3.7185222629412022 1.9071888056336368
-1.375495395182925 3.0463846132029326 2.1956259258514392
0.1609925973923518 -0.37607698004771134 0.1582639840995341
-1.1372096224038637 3.408643854082853 1.7254977110199974
-0.9129362305434429 2.7364123641809415 2.1658824557484175
-0.9826088161910662 3.432415932446727 1.6972097044942482
-0.8106532190824826 3.436000381123759 1.8162928561519447
-0.3807248998453238 2.5323706844936607 2.152602905079075
0.05352440330246865 -0.4107119062654272 0.16398740287879934
-0.3179465538129413 3.5106147904498997 1.395639560199151
-0.16113425609926613 2.7323354958708967 2.1577419886342475
-0.18119248101307237 3.5461689194393298 1.2313083609018602
-0.1105617208960868 3.518131003650412 1.0076439584626302
-0.03753617206739541 3.1860218367120456 2.2021480176819477
-0.01395139240223851 3.5526746397790965 1.6547653194699554
0.16107082427664657 3.4154985802993743 1.32282524829994
0.2525417108875391 3.5667820097489207 1.6997849214513698
0.3884196067328377 3.074657783569656 1.3992950807603226
0.2989628055155825 1.7129796375841913 0.5877303821823265
-0.08209251342515517 -0.4494958209353237 0.15844975923370855
0.4935468273498826 2.383247484026813 2.045835516138266
0.5639772529669929 2.0938246691416835 1.4122464066265217
0.5920292884831212 2.1311772098901787 0.8757454091360573
0.05891896386208566 0.17660223770609904 0.069514065732172
0.9074796036508049 2.5520219200911534 0.891841290999715
0.07146775033391647 0.1805069324368751 0.07335944386674687
1.098610922171974 2.458853283591754 2.123086096100319
1.0202446803837883 2.168130308903753 1.2327922597751388
-0.1202753208721629 -0.25047279058818533 0.11001012846127096
1.0320054167082737 2.1276934956354365 1.6343898581781027
-0.12774312397101578 -0.2367495466294201 0.10407375485149828
1.5482498327254746 2.1846498028314487 1.7438691735488794
0.12006406664621799 0.16255375530691388 0.08001185247194634
0.11720877365461496 0.13507115028429817 0.06677490351365385
2.137764096624563 1.6852773259170313 2.1459836909755174
2.411865798309636 1.8557107753632052 2.1032500776524685
3.1781045005404813 2.159837588251524 1.9960486907939337
-0.16819751688011822 -0.11238598773036677 0.026362569624984882
2.248264040915806 1.4516857027634196 1.4304623108342305
0.14080501640884896 0.09013515440565699 0.04786022664355184
-0.1785726690801273 -0.11136802475286324 0.07297920882172537
-0.17988446480726727 -0.1092639924213524 0.08333042230272014
2.2622534038235615 1.2206457040056604 1.506629882280725
2.2655668101067583 1.1655931023518098 2.1416686832216993
0.1684118835717409 0.0849787503518956 0.07043471772108255
0.1695730989236005 0.07259155729264997 0.06396428637352826
3.1601318828759766 1.2799851903063497 2.1637442999178913
0.6782708498422247 0.24118796047047084 0.32503695478883743
0.6871179791058805 0.23224249275080602 0.3274878735928133
0.18217979633750028 0.05448331195980844 0.024780849951467114
3.289838371869936 0.8861267301971377 1.803960893423772
3.2486961609269835 0.8750449660692432 2.098280620254391
2.993937457076188 0.6692243097942754 2.1203012348005044
2.6489239508351146 0.4945364491550799 2.124323799035629
-0.22359025374399719 -0.04083483105364615 0.08793130843741127
2.362812724937377 0.3552330010623611 2.1232443434118062
-2.281942368373424 -0.2247517062412778 2.0375960585856854
2.7291327641721437 0.2147874066913369 0.9855864880612565
2.7320649747685115 0.21501817667004028 0.9623996868996918
-2.287011708955801 -0.11685549534317763 2.03494035202685
-0.22980484233894005 -0.005415651264271852 0.02995672143207104
3.4086396376650203 0.06693708511528138 1.7035290567451884
3.0898100631159457 0.036402651371769686 2.1356473540452647
3.421710941078857 0.02687460747724251 1.7097847791971323
1.425244963789382 0.016791548501811093 -0.0503967964449466
-2.29120673245137 -0.03599315155938624 2.0362682048812566
-2.290058402077727 -0.08097106188551421 2.0362682048812566
0.20810731914304187 0.01637840121925301 0.07238847762315005
-0.22946777450146777 -0.024421767719204127 0.06606146930558536
0.20017225157376523 0.026886494660293418 0.07003703380905892
0.1894186046989994 0.04000308851455858 0.07228654856320489
2.507062295748151 0.5294634869034884 2.1538892871440734
3.34895785735365 0.8040136466050696 1.363623234527069
0.18812215575126195 0.05225929852312487 0.06770539294154387
-0.2135158882542124 -0.06568606408761071 0.10192304178983773
0.6880614426487445 0.2265558166812607 0.3270793681478786
3.2826699856060584 1.1095262873596359 1.6806978262790309
3.279688843602366 1.1085186760450803 1.798344637162031
0.17798138604056393 0.06250261404638346 0.07043471772108255
3.2080238107384065 1.5249974230972572 1.989241586455039
3.0519847021326765 1.4951518778607304 2.1567805266363225
0.6226251606644416 0.31110815840260286 0.3175635732934735
3.222002765404481 1.6576620836606228 1.7574830286861394
3.0419855938793874 1.5650465083889122 2.208893404673468
0.15978243817330792 0.08379874064130517 0.06495647402933992
-0.17838925789148083 -0.1132092655325145 0.0760653328824332
0.14977690125347948 0.09670972012047006 0.06577316994889182
3.171582314587589 2.0478647602924216 1.9235975528544682
-0.16180216552856813 -0.10903424931812537 -0.0068986742131172726
2.1584402100844193 1.4668744520329733 1.4480746532771318
-0.16978101661352843 -0.12132730623299033 0.07791720708497565
-0.16996236875036635 -0.13948451127242673 0.12313352234000603
1.8833398039168252 1.7272753433981722 2.148100572848315
2.297038488846231 2.333406667857899 1.6845784348481123
-0.14094181341103595 -0.17036938590412037 0.0632983220872533
0.11336057865307261 0.14036394013106163 0.06495647402933992
1.7599066239012853 2.250552963869083 1.4840754805495795
-0.14771310567308113 -0.18889420794265313 0.12336862088120666
1.5943385315677656 2.249683019506384 1.391328846284364
-0.1423247376766483 -0.20082657432359102 0.1146488381568886
0.11417703451456253 0.16110890546716242 0.07461585199294665
1.1898895269029166 2.011993310578552 -0.08264884726303552
-0.2816488193859988 -0.4848939526180648 0.4983009103472548
-0.12035679497961979 -0.2169061494579705 0.06577206268280103
0.08525524301122567 0.1740276030145898 0.076726377003565
0.9900232080985558 2.192658353075897 2.1378513498633938
0.9201162013010974 2.149381573333973 1.309368179052635
0.9190750585356615 2.1704693974505527 1.0754071933497125
0.08958667292021248 0.21628136077186028 0.07708178136083335
0.8363233028108116 2.1617637024869047 0.8758613062498681
0.7986357612208363 2.138892982528892 1.1859910329289494
-0.09086175657114909 -0.2653854740121814 0.1279831683313672
-0.06385483184230585 -0.2965931376637912 -0.010727121754612715
0.44522328466743244 2.1081765556806733 1.0035979458270703
0.39945520155287323 2.2887751043381748 1.5131427770419188
0.030580521589186112 0.18828924850713502 0.06447472835112737
-0.07203748151260043 -0.4435464980149652 0.25165274756295086
0.40443953232270685 2.553530709796981 1.2290022696554763
0.4964609708727325 3.589304514004293 1.4018172527646053
0.33598577882248254 3.1569340031809157 1.633357969334698
0.3184888696131208 2.9925324388433148 2.0799469806711524
0.319204112223845 3.524500152955876 1.4011596649038205
-0.03806446149142556 -0.4394958001809663 0.16471653952976287
-0.028036821344732316 3.5696855639495593 1.1909739338789052
0.03308580927125686 -0.4203950664625916 0.12071999552178252
-0.4098734353511115 3.0515427708644873 1.1084888292527644
-0.5687841885000263 3.50209682013009 1.1836973470220669
0.0679110695588137 -0.4080075066845444 0.1489125955735092
-0.7588518199279797 3.4586510005893496 1.649278075860552
0.08839305625463857 -0.3882792218953287 0.3538614325556296
0.09335253755007053 -0.3956801096330078 0.20915916086505396
-0.8931469735028105 3.4785777934522697 1.245391913665538
-0.9596637959925812 3.454581810329424 1.419560112993524
-0.15017250830600656 0.4560814823685675 0.16019643937857173
-1.7184536821606224 3.7276141961208245 1.3694164257621197
-1.8212357129172687 3.717604624056077 1.3811232157890927
-1.7917044767561239 3.657323871088132 2.095288564838023
-2.2203987767786777 3.5602906388211384 2.2005782965398737
-1.287580679849072 1.9941102518072749 2.109301376407963
-2.3138492821486487 3.4047258262238316 1.9568874642514895
-1.7051990245325446 2.3277272512127345 2.166482663372792
-2.6870553473418726 3.578821710425734 2.0844857220203936
-2.7195215301663915 3.622062606100614 1.5706464033795409
-2.831628595943295 3.4781122982686696 1.1891809514402956
-2.7098984316542243 3.3285901532773914 2.2082640425507933
-2.1366065194775654 2.501644816283517 2.161047614951547
-2.94713927051715 3.316526999980022 1.270130221110876
-3.202096074432269 3.304306818719404 1.4750980231394506
-3.2497481949250577 3.35347999248143 0.8908050345659734
-2.134934160459017 2.2030811505780545 0.21721320050316253
0.32557852924371844 -0.32814571153048233 0.1726007337749486
-3.6754538520803752 3.424419096218093 2.2681996902134505
-2.3082920923987427 2.133763262183215 1.3456529854039918
-3.751447676642907 3.4405809617772896 2.1554553984868727
-2.341971315921361 2.1310299318089125 1.3554876558405355
-3.5862708348897048 3.263255378393336 1.8977559996497093
-3.7260778689478835 3.3110752340165477 1.9509598943133255
-2.2696470465536738 2.016858581628258 1.385314312992773
-2.4336338074916006 2.128610387765359 1.354133046687565
0.36558359787912875 -0.31976258780043554 0.13904143412997516
-2.32927094385601 1.9115832617160702 1.4324061238472416
-3.8763201219430536 2.793119905453482 1.6567967606133651
-2.736933512001428 1.972123878262653 2.215933970060889
-2.337156507019613 1.6840606958551174 2.1628814193967867
-3.4769619897678385 2.4641046872015293 2.1293915591598305
-2.651414521241749 1.8325053461841228 1.3498852516991953
0.4295485127140534 -0.2943933848058905 0.4627489710498291
-2.4427200887408347 1.618334372881024 1.3648038048062998
-2.807372671900655 1.8599215331158228 2.2120918994737697
-2.6291960922320268 1.6976504126712522 1.3397522102795612
-3.824831976257471 2.3438600495533763 2.025447462045367
-3.8362378875516723 2.289126040701719 1.7282701871797588
0.49870913734750283 -0.28706009986946446 0.20716586443968682
-3.1575177549075715 1.8010163301638962 2.207972329067199
0.49712304448746814 -0.28355397838417706 0.2665667270722593
-3.8257538607357806 2.1425251072106097 1.5205293690150943
0.5230171120193196 -0.2848622096477095 0.20652269136730436
-3.6491012730013277 1.9689482110369347 2.133251706113123
0.5353188398657461 -0.2807507829718867 0.23932767818508607
-3.764893189192066 1.9369693768628045 2.012688228979071
-3.7535996182762887 1.8755674174433181 1.6613538961645409
0.5812396793757588 -0.27351063193748937 0.3304911032634921
-3.6839420817956023 1.5770372446513572 1.9049504631244194
-2.5553914535034603 1.0001609356561059 2.163311725607055
-2.603950428423736 0.9144423034585675 2.17568895753902
-0.30022883831125874 0.10279130658456612 0.15085288176534709
-0.28285778660329886 0.0943684968178274 0.11805955855510555
0.837534381025373 -0.24332623112420682 0.4884357745367697
0.30868054335458694 -0.08836697802840185 0.0851328335511329
-0.26971638234633927 0.06812352952496441 0.10387135225395214
0.9124796058696998 -0.23046924636402294 0.42939596569166355
-0.28092131592290687 0.0674432409259237 0.24284897264256683
0.9709432657612374 -0.22505256497392995 0.3676962301568475
1.003820857243328 -0.22438054567839563 0.37031615855149336
1.0206675409971049 -0.19055182816154526 0.872784493182146
-0.2663680141650448 0.04864743732961751 0.1047545124136972
-0.2622864033271135 0.04683840875174043 0.1054893648446686
-0.24610440981658263 0.04394867136219307 -0.008839329970622256
-0.248307656586241 0.04132972619901093 0.03280489922197921
-0.2641254710955199 0.04183336491491749 0.13758163067235765
0.6430497330890469 -0.0863723771855038 0.49921123107701687
1.4366425867612742 -0.17576125917980517 0.5082745888546893
-0.2692970096838825 0.031873401516022005 0.2279478160700763
0.6706816814298178 -0.07671097905194109 0.23706224475307128
1.5435863198160815 -0.16428061255653353 0.985121897845488
1.5251359161235092 -0.16231697529075867 1.105157742986296
1.7034764346931373 -0.15427909190879271 1.1821636935065116
1.7969419383996805 -0.14142239761678163 0.6329923976421195
2.080325066503166 -0.1062947842239068 1.3566211838702031
-0.2481865316060941 0.009751275384665024 0.13909837582700116
2.689625349893177 -0.0633845343653656 1.3443027479014125
-0.2396698282271899 0.004706510924280384 0.08630308333118195
2.84932671419065 -0.03356939258470038 1.4238266649002627
-0.24367592894940912 -8.358691113312697e-16 0.09427110718901388
3.1839481511292718 2.184346991583074e-14 1.5909287133371166
-0.24785907546164684 0.003893681500713667 0.11310047725659113
2.4056630316053838 -0.09451875793615448 1.663938875910231
2.4747784824771797 -0.0972343113967902 1.387011878591939
2.002038401687251 -0.1417519214358173 0.722582611843665
-0.24491321008434916 0.021211782797830366 0.07037456782614825
1.8364454414185052 -0.1663217226090521 0.6475532605751808
1.7060054026447629 -0.1612649906921345 1.3184669768044792
1.5825372894447594 -0.16214367326662646 1.413639684196945
0.31601000719409783 -0.03488782959431063 0.11164906940671103
1.3443060601158345 -0.19132308454966135 0.6985905052706088
-0.2581036803825456 0.04296023162484603 0.09420142605992933
1.0459277399326257 -0.22518235074038792 0.3994847578499861
-0.2747007639555644 0.06140289561614642 0.15763620996516603
-2.4794135368970016 0.6992669376881526 2.1654667540528374
-0.2665959345333913 0.07631928087644933 0.07938498004515326
-0.26743205030449696 0.07883634612640202 0.07392515809500293
0.8436015749773899 -0.252290367556069 0.3053374414219307
-0.2750494999661978 0.08936899997802886 0.1041199040110566
-3.1937203110125103 1.0377026333070372 2.6472938673018134
-2.433311359342466 0.7906307877176262 2.1506733331698533
-2.521582224317046 0.8522823725461934 2.0983321575611735
-2.2433697530076895 0.7779328230907349 2.1099653253189485
-0.9516853876593974 0.3300157271548707 0.4595753939736372
0.707642625542466 -0.2579105788493998 0.6692899579651052
-0.26525495693885354 0.09904286758750859 0.11210405077163889
-0.2592005649991787 0.10027713591506819 -0.00982665338645204
-3.1177215046324305 1.3057698505191804 2.2203249124908773
-3.530328236683515 1.4949008885318338 2.1470255878172013
-3.6889842164472877 1.683111270282806 1.6054120663087692
-4.503975624541827 2.228449194261439 1.809152774678971
-3.7384871177065757 1.8680161289343793 1.5604633327262112
-3.739095967755372 1.905164553673348 1.2013414865649805
-2.5759709700756974 1.3125227664124097 2.1706841200359817
-2.826252735985844 1.5106635603958156 2.1050643884747973
0.5283585045378643 -0.28777140867860507 0.2246461818719449
-3.808248337919219 2.395861987818038 -0.15908152647026677
-3.7629243341313137 2.3880243976381808 2.0122815240137797
-3.8348376877967505 2.4548392942658497 1.9491803271072758
-2.543884334056534 1.6425653081785767 1.3959715983178027
-3.26409349567512 2.1441086690971427 2.1870831412165965
-3.6785165719896047 2.437065891054231 2.1188859507434312
-2.386281650633247 1.691145263483598 1.3903498054979013
-3.4722927293051415 2.522768337523976 2.1445857682082035
-1.868078988510635 1.46081635874885 2.1073095308228527
-3.9012219918408544 3.1760940429433995 1.8783691332527601
-3.918496897013706 3.4820630396369863 2.1472612919921956
-2.3824672209486035 2.1339156333253406 1.35434634084312
-3.8361436178244963 3.490622116815128 2.124521447532472
-2.2638862171237553 2.05997795878315 1.3820184532938393
-1.8695196884273007 1.7418308539454213 -0.09034606148833405
-2.1255021282485687 2.0117449544776 1.391208086860022
-3.44165482836088 3.309087280262475 2.1783430432384487
0.32806615954487023 -0.3229529621831099 0.2796247113161401
-3.2527423393831496 3.491191943858144 2.2225280841249764
-3.0446368536320847 3.426244708290677 2.2678224419948445
-2.871749294365506 3.613518876873839 1.7234353242253264
-2.3758947011798384 3.4089340421519765 2.1792177645116038
-2.323045974748336 3.4473009323889743 2.1801464814905582
-2.2553952229996033 3.492990230785269 2.180610840042129
-1.7672080995511592 2.833623635304331 2.1377709480497327
-1.9984057192620754 3.319340825688399 0.27432838740984494
-2.022532807675324 3.611492192734403 2.1708593191857077
-1.8252302105214884 3.6528590536185104 2.141604868549978
-1.6278603297757643 3.682147384622529 2.111421886942497
-1.5598956619939461 3.7659212630727197 1.359924469972224
-1.2842031007027475 3.4393313367736766 1.224826253814002
-0.9499802059634522 3.4725427821081047 1.2010979288578176
-0.766443280427877 3.493250920843077 1.177571527303521
-0.7503432333253146 3.48519677330506 1.1893920646897327
-0.17833483950619766 2.385699522451802 2.125900156073079
0.03087476889905705 -0.4130315849793709 0.25158032207400194
0.007192464193776304 0.3052011696144227 -0.01079418940030614
0.15497516213184176 3.585413783453659 1.1973014242632172
0.15199600471894098 3.5164897577945955 1.9711676737089587
0.1685192022353455 3.5734410534798373 1.632206272437057
-0.025148342640308904 -0.4264376236429598 0.28060383818506657
0.33532275450296795 3.547344208786494 1.1887593173983795
0.34742121499596296 3.390863280685629 1.587652893761298
-0.044062282979014634 -0.43005196852604893 0.32458253123904796
0.41914888224801683 2.5807678858882785 1.2303297662326078
0.42133463220195533 2.5942259040928186 1.0645379684356198
0.299547587831292 1.7570413795921487 0.6024398999280935
0.4409726641979598 2.4145364958816824 0.9495644367211524
0.4399530588331391 2.4089536682720984 0.9695481061513982
0.4455466265119336 2.1514632813117864 1.141308877022761
0.5323369668605036 2.107641836705203 1.0968902597268693
1.0535315112937462 2.15052537691609 1.1154048403835386
1.0645250959905017 2.1729660752912303 1.2933618038429318
0.10757771805405011 0.15829580509441424 0.07060787964380828
1.548471455488293 2.2217470560851877 1.3932796454103422
1.5897544546996076 2.2432146818941296 1.2675017414967795
-0.15366803698773018 -0.20300139754808624 0.15464982056847484
2.435883020071876 2.5334685510887036 1.968236777720104
2.491406863792841 2.3212429224195095 1.768851360110073
2.499772194955343 2.29262657088162 1.9170924286052908
2.259007101018761 2.071812669193399 2.1363333497646235
-0.33595895653051977 -0.2669945638105988 0.381336442557635
1.8991342835078862 1.437607035457133 2.11660482490453
-0.1683470092669831 -0.11831625976594631 0.05455774139257806
2.1527572825762515 1.4630123384865616 1.4044155295890866
0.5609470243135767 0.3780075347166327 0.31506307243343756
3.1886842655809646 2.058907350172715 1.8965687906957556
1.557804375240183 0.8966819455364096 -0.06355326137644303
2.993404447776491 1.6456380210596577 2.2056396613397165
3.207808408555433 1.6823520026898682 1.8996825927102814
0.6074766065368583 0.31859430347174617 0.3227845137329486
0.6291965383727007 0.32998543603591707 0.29428953108120626
3.220763496402163 1.6093242986626228 1.9426975580304247
3.1030123630974917 1.5504873923719389 2.1633511320541077
0.1648795225122141 0.08157807007002499 0.07283379394068654
-0.1946269975443156 -0.09158451320394048 0.10018786736966824
0.7698246501487234 0.28057371611863563 0.32440776477571376
0.17877757594561733 0.06515807051911487 0.06850550478052897
0.7633823130205845 0.25468360705976545 0.21337456376609046
0.1917103959532526 0.04127416835211432 0.07060146677150862
3.3347280390062286 0.704257225040425 1.7366066528848814
3.1640750860362443 0.6682172320641429 2.14247860682371
-0.23274560223573826 -0.04819929710740726 0.14437213165384588
3.3288909724031357 0.6757580311315986 1.9022922954199355
3.2305959703324536 0.5900115879029226 2.157205600449801
2.7257247831829114 0.4536849992125964 1.0317530362601
-0.22117188441857058 -0.03592107164911753 0.05941106087520585
3.3525352964698474 0.5309894265996308 1.7463187895579735
2.7325504372419984 0.33430479511590316 1.0279072973235845
2.8744150224858362 0.31733837285166694 2.1712843285999197
2.7511605945042894 0.18393763613621736 1.091693331141775
2.7718171418312902 0.14162676292430046 0.9624362795914341
2.7567947539726245 0.10831476088176685 1.2850410876871372
-0.2568895315827179 -0.009083007726201653 0.18369068439596378
-0.26588858104290247 -0.009401192882567234 0.21144001523689082
2.7687208007526425 0.07612836433422385 0.96047155065803
-0.2579127808018364 -0.004051617724853332 0.17235307334908656
-0.25139264823854485 -0.003949191297672423 0.12317118291104315
-2.2921658716544164 -0.018002998831353995 2.0369321316273226
3.4013316517507954 0.02671454562199295 1.7499775220986158
-0.2587161959953265 -0.0020319940331344566 0.16419135461392934
-0.24401652596087314 -0.001916540720734972 0.10333083726386957
-0.26639037977162033 -0.004184794491601336 0.19678326417710157
3.408843033247426 0.06694107929150968 1.6372186984589954
-0.25534280509270424 -0.006017486712414257 0.1551413605105202
-2.484453401688899 -0.08784441041211502 2.056602940383924
-2.396413519798327 -0.0847315279116132 2.048009475150336
2.768734003380883 0.16328078841185978 0.9617813694692111
0.31305689657914326 0.022165617088779562 0.10883044116105205
-0.2439870171886725 -0.019202194695796884 0.13205533371370945
-0.2364429830221198 -0.02798487121099829 0.11203822009879232
-0.2512880890821257 -0.03274812543770265 0.19026785478837516
2.9355031579679514 0.4649380247456634 2.1772365151048207
0.1966143733252624 0.03351962107814167 0.07180684650290767
2.7265521954453007 0.4979568491721154 1.03489956124978
2.713287497694408 0.573015940584045 1.161449390499562
2.7060740842188875 0.5714925484219505 1.2750338496750158
3.3329713967763857 0.7175699672378468 1.6536489985449585
3.2584335818606363 0.7015223955548717 2.078706790564223
0.7219191174201632 0.20360224826743328 0.29697796619234057
0.7160321139442452 0.22954817593520657 0.29770899671550916
3.299529269182084 1.0720820478542277 1.6159327598880564
0.6751512028316896 0.24606861040869202 0.32786139188147495
3.265998252257372 1.1903402499462556 1.805718002792705
3.099161871272936 1.6098856851092516 2.121297899053399
3.217238960490726 1.687297905285702 1.8330955375863636
-0.3305422175607313 -0.17335460565653715 0.3316715590877527
3.21785373682511 1.6876203279698618 1.7800550432566917
1.9580048402938912 1.0764222699675297 2.11479860556594
2.813689159800935 1.5902884428265334 2.086879963158176
2.0762534972169435 1.2500062757537733 1.5919408675797586
2.4618195468050135 1.5219350503060658 2.173084954993392
3.186635974289434 2.05758478523866 1.8767719677464314
-0.19518360944946342 -0.12711727190282424 0.17488727165309315
2.173241005414289 1.4644902980045433 1.4407042373216141
1.9746237192486509 1.3306473013553433 1.4591558952957584
2.18592232883123 1.4855512806470288 1.3993634141583882
-0.16201293667784109 -0.1620129366778425 0.12362692545737455
1.9971222155298403 2.0771302579120365 2.1634816264307535
2.035848477845935 2.6034249565171965 2.1709270994291416
1.491996276425149 2.232930225173335 1.4490292338806847
1.4743156904462307 2.225337738941771 1.4949398625180819
-0.13871390946510018 -0.21298979379405103 0.11960685206323103
1.556967964807397 2.4322241558061775 2.1682832869522466
1.3687457442741222 2.214026825377723 1.581066824659641
-0.14520681357721377 -0.23695598371857443 0.20865963450249544
0.9463176001599793 2.1179983664041826 1.616804848934055
1.0729985475194743 2.561945081448081 1.0246992322945716
0.6510534775738902 2.087084186341544 1.4361131461211547
-0.13397832418901187 -0.4611564166428952 0.23060045107629012
0.4765867527602184 2.0934759060065247 0.9795936392523338
0.47466552469515455 2.085036635210892 1.1975524495796883
0.435793107097221 2.1043653175170727 1.1595460224750977
0.40735430739505196 2.5719338753249374 1.2128790579454938
0.026424315889144484 0.20276323472980026 0.06821895756824956
0.3511802400007159 2.7798778425125685 1.4555080280577997
0.3419097004882875 2.7064939659633507 2.048244167309156
0.3899600487082054 3.5322139333591847 1.1855955842506865
-0.03584162965069753 -0.43363316398901414 0.23477362857199083
0.22452183789524138 3.5686724208530634 1.8042724564075372
0.08476250128612597 3.5967665371702275 0.938824155775831
0.06796386924745838 3.4609266036459183 2.1026138391661098
0.04884188185560213 3.1091150311899756 2.167199850822567
-0.20305816245842875 3.227517069108289 2.1242742175325784
-0.290694774497556 3.516996745095928 1.6606165852069723
-0.47842808585468904 3.4589306892864133 1.955536257239439
-0.6185616163353855 3.463830345833015 1.8985483565300334
-0.060812646787549406 0.2577579075990862 -0.009363923367570076
0.12082049862424961 -0.38731465348166694 0.19091821890685046
-1.2381353847779357 3.439053330833825 1.219447808084283
-0.16600577005002973 0.40984859094417886 0.23190993254099287
-1.206901769007289 2.91371861918946 2.198066634148233
0.1537465635881613 -0.3711770389827906 0.26390642265166553
-1.5577394143834564 3.678726450817524 2.095169591448815
-1.6538581337004314 3.740953256340239 1.5272403240715884
0.19044645720106823 -0.35630026091467326 0.30333524525135136
-1.8209139962175205 3.192402077050142 2.2323660535013277
-2.107016583014238 3.3491254675899667 2.134966210796624
-2.161580710941594 3.3767225393922358 1.886645097003062
-1.7100605905243236 2.6484160628877067 2.178844219895948
-2.3529352690186296 3.3200969655445296 2.1341751941183817
0.24781037290407298 -0.34391374786264034 0.22872112519882476
-1.8232024886194729 2.0680172859471444 -0.0974791799081633
-2.430894541905807 2.735577331884954 2.242602369438183
-3.221095718061167 3.272094160732866 2.182669736443401
-2.2409258943409904 2.1887377347166366 2.183204815105426
-3.3335820134109238 3.230465711739793 2.1621605502683408
-2.178859188640655 2.014116716641528 1.353780812325739
-2.196125760105598 2.0300777711272575 1.350345099956152
-2.3390820890641866 2.128400937648921 1.339145036668662
-3.7868499209995186 3.4457683038459392 2.1443331065943623
-2.4078810014281484 2.139696332363262 1.3491129264196466
0.35128245249814766 -0.31215735943264944 0.3086914665469755
-2.478421196696936 2.0177520826030726 1.3829974348907115
-2.409856936922274 1.8541651397290073 -0.1075089679111024
-3.836363717138604 2.7643289320305438 1.2537527608589156
-3.876424086189919 2.7472013753590905 1.7316387923674441
-2.4862713700824455 1.762007452110281 1.4928711977314708
-2.4924101592692196 1.6512547019427215 1.4212482215586526
-2.4935936091535256 1.6379848437783397 1.4182441834681145
-2.491213142567461 1.6085559506295164 1.4096612472482621
-2.5415363336229997 1.6410492235028393 1.3659760286750593
-3.824879220113956 2.4696932289031874 1.700003325482103
-3.8405845770471845 2.1706865683087835 1.1697071978538627
-3.8125024329191888 2.1548146269818678 -0.1548422498230658
-3.7566113592270227 2.007950604946069 1.9434460280191035
0.5298626163209859 -0.27788923781751623 0.449225087601616
-0.26072516147508595 0.1315589965360767 -0.010325725360038516
-3.697693033604201 1.6695724231534108 1.4606612040718483
-0.2490492301021731 0.11010351284080361 -0.00962795126856462
0.6112245283775762 -0.2702195372425961 0.4059285375555737
-3.666528858422992 1.5525744012497915 1.779015137354162
-2.678394985509331 1.109427528390045 2.1766862109290863
0.6370540478891094 -0.2638764266003435 0.32447399210527494
-0.963844182397473 0.38161290792789593 0.296762498576491
-3.1634420414663267 1.2095829005747978 2.224715859816806
-0.28817108950283726 0.10759946351071177 0.11485546842425398
-0.2717198290330349 0.09903221747990223 0.1041199040110566
-0.2736005539988835 0.08771185940159562 0.16090483700566238
-2.6124020513006934 0.8374933386467539 2.162692865406977
0.8515102282972803 -0.23654485054337954 0.580518617088654
-2.494128892727482 0.6718002620738354 2.171255506461529
-0.2815430759772284 0.07111065290893455 0.24409377585703745
0.9090589219308527 -0.22581140970863794 0.5054078389808699
0.9188487751408962 -0.22441598054373443 0.4405580507704617
-2.342872040632061 0.5333626122822219 2.1351955238441382
1.2076682011275024 -0.19614037333497816 0.6851886382110233
1.4531860117810804 -0.16621196730863358 1.1253839331922193
-2.3972173252947733 0.26465525661042366 2.143163010705215
0.6996813715717976 -0.0772455425651037 0.3145156664289251
0.3344430055501414 -0.03293976095961887 0.11801630474858672
1.9080422360596812 -0.1275682630995519 0.7140295257635579
2.913264887540762 -0.022881199399366014 1.5719609237306607
-0.2537366560198367 0.014963633629418705 0.11960685206323103
2.028236409622066 -0.13560422879583744 1.045820519886694
-2.399111232892123 0.17933738622523784 2.1378513498633938
1.7456572840147302 -0.15119030588516102 1.315583193178092
-0.26521833891503716 0.025070514366609304 0.20001925410455396
-0.2592443636773715 0.025533341191018515 0.14055749140169568
1.6650824862736222 -0.17060109257271086 0.9373727012868724
1.6660186078865218 -0.17069700576095115 0.7800548252527526
1.5935402058505488 -0.16959709851651494 1.116907980324507
-0.2694223906111693 0.029744508840067276 0.19693613084252884
-0.26734353296520413 0.02951500081926995 0.21548387435796984
2.3054957246094907 -0.2636971295500714 0.9718874871477728
-0.2582170760368849 0.030562004949397693 0.12485954307314508
1.5037259739728062 -0.18396835307706033 0.9951280521951177
1.2081364994278208 -0.20596804285766954 0.6063788948105572
-0.2789145676308124 0.05776043020226331 0.21385835654976515
-0.27487687662912724 0.06485151343838264 0.1328983969029231
0.9424924670335414 -0.22627242192776337 0.5887484527877535
-0.27954300581458424 0.07294576332178022 0.24284897264256683
0.8377928691061776 -0.24697312283954984 0.6557952310513695
-0.2889197632734462 0.09262294715487387 0.23725800313237344
-2.630637722526584 0.9704934930598854 2.1052621102248925
-3.6687837086364667 1.587624480774809 1.881111269247034
-3.743073220435212 1.761356559498908 1.887420974973771
-3.5716244787150946 1.7150696457030432 2.1378147004432257
0.5789902727070546 -0.2780271688121104 0.30842042330710323
-0.25946264104253647 0.13607654765693494 -0.010359106187400723
-3.7648554311355853 2.368562450949955 2.1144189505863844
-3.147776862159498 2.0150230491892325 1.7052413135065196
-2.444813656836564 1.5785961821924959 1.4115329528256515
-2.4438020523697475 1.6052779042591763 1.3758744052167977
-2.5240263163397603 1.7591483661691458 -0.10878042208396298
-3.834912012038807 2.7177819865960733 1.9685913576093899
-2.362699446838353 1.8178817517605943 0.2936141354321569
-2.236278065528324 2.050967093424101 1.4133387404753304
-2.186022288888978 2.0690260675823144 1.3732817206041377
-3.4072308157993407 3.3541261504403272 2.2728134403861033
-2.604807012069704 2.6048070120696907 2.2375562249349374
-2.7080045153928416 2.8837319120045133 2.134491462690537
-2.916039774796198 3.5248865732637875 2.152702412650483
-2.6131956035072093 3.2618013000777233 -0.14777691505062274
0.2670189672779819 -0.3414614844079492 0.21446893896254518
0.26288453282061597 -0.34446127304265467 0.20807487541152161
-2.485901256161555 3.4786797430535468 2.242370885889156
0.24110234805869185 -0.34305394121839944 0.2922390308892848
-1.5281213645460683 3.689211323239176 2.094240890561952
-1.5129242183251639 3.735230762756133 1.95468960670625
-1.517999260415101 3.7477604407842895 1.7876201844551767
-1.4941564341406015 3.730935527750782 1.988497331676171
-1.0867678323399932 2.7766703654370053 2.1843256076636015
-1.3124143326755198 3.392383851395902 1.9626360906128733
-0.9212046068246086 2.437897252923598 -0.09214692915497745
-0.8487364061711486 3.3603384122107394 2.105208841958606
-0.8247845711093673 3.4958969309766372 1.1359608528677674
0.07498980513324209 -0.40167371126087703 0.1962135540883757
-0.12409262075610389 3.5096408788633457 1.7375635018281226
0.05503326754461735 3.5032384674351698 1.890478135220253
0.18189197257625825 3.559858865219403 1.711649838615111
-0.034147415987411125 -0.43388405874739705 0.21533828629918095
0.236867694132471 1.9361161748990006 0.6507532963964354
0.3595340431517087 2.938770012188985 1.9448041256830315
0.3796187687544021 2.8262941912413995 1.597014632044589
0.4183756812248646 3.0247649045406675 1.3931977826635797
0.4097082671305481 2.5867961921704103 1.321538722859664
0.4559687601093361 2.039886970883642 1.4568066569807798
-0.10787140226885321 -0.4493167270697944 0.3220547148355994
0.6188707576382937 2.0993600505449863 1.3294297136426412
0.6742734250711299 2.1320327647511856 1.1063709315913282
0.7848861995801969 2.1275271387922423 1.2466731437754839
0.9919379381060583 2.368400709868104 1.0166381875781387
0.9698052457792893 2.1255851041306597 1.1219098673052244
1.116296024545551 2.1284866474131983 1.5787716039274082
1.4357915507859549 2.5172105538545257 2.122887338097586
1.4798395585092783 2.2336754865119093 1.1845542208049624
1.479475165958393 2.2331254710026602 1.3384949996438291
1.8288519986390883 2.5380993449436104 2.1803467802784557
1.720721186916206 2.2546849913041007 1.4033172082197634
1.7508295402552698 2.2389452699008983 1.5625299995065423
-0.1565620987904306 -0.1680392361217081 0.11028655559934894
-0.16283407960031485 -0.15171245624069093 0.11011536287973081
2.4716537475037423 2.2847732228638384 2.044486261273257
2.4790575667849124 2.185583242416231 2.1709270994291416
2.660555734328173 2.3270906887823672 1.7835560295981412
2.929606478070178 2.041821995298884 2.188276450351493
0.6042955989825889 0.32913068358690833 0.32050713279409015
3.0850631875992054 1.63345687499813 2.139174786229862
0.6099644732866693 0.3198990782824259 0.33073844808575004
-0.20409565891642123 -0.10703904248227139 0.1606225556886403
0.6095195364093375 0.31662004671501154 0.32320686990460173
2.306671743843853 1.198220026866475 1.402517106265895
0.6472023219717923 0.28006945406945516 0.328466520868654
3.2582024430148873 1.3495916408539195 1.693474606620672
3.081407240847528 1.1643667682742955 2.1637919135145363
3.293924009428487 1.2005181956166269 1.7517878530529758
-0.20796524020619356 -0.07579593646018534 0.10628939214288399
3.2857342033743047 1.197533302474443 1.662444505612405
0.7007355285560302 0.22464434102959047 0.3081957804102488
3.3135799403651958 0.9345261946838952 1.7034273598422167
3.249921870002497 0.9165727620437834 2.0149141943911406
0.7287247932707993 0.19628396452425112 0.2988055905485596
0.7326131344491833 0.18503952952676023 0.2991711345451932
3.3129047025868346 0.7678900787749314 1.8349365816008654
3.2788063751942556 0.7059085432005094 2.037220381456567
2.7079825882572774 0.46166792747357316 1.2144599731723034
2.7156674367027236 0.462978071811333 1.1032559441282515
2.741779592390734 0.19412840685143362 1.11331524214978
2.7357642289518704 0.1937024962770535 1.2774448819903805
-0.3467559202184312 -0.012260471195713225 0.2824801101662347
3.296608689506144 0.10360010171724338 2.1665362141438487
-0.2609949762035523 -0.0051252830436392454 0.195998351702839
-0.25007891391952886 -0.0029463091040831265 0.12374108483237116
-0.2616970254770669 -0.002055405894527151 0.18701722424168354
2.8756916125480267 0.03388001109645546 2.159280179682348
3.3555208130096617 0.2640852152693921 2.044486261273257
2.797027899707128 0.35334679606642533 1.3948953258110521
-0.23440591157620763 -0.040910380612051114 0.13081364369324874
-0.2264003345752891 -0.04318817360593419 0.10189538833912386
-0.23570453634669725 -0.047847536831598085 0.16762751792213995
3.3404252969037787 0.6917688231440147 1.638084164849671
2.7194458578431844 0.5854813746691612 1.1140317707206808
3.3484834614016425 0.8178203200082854 1.3647272375464694
0.7263346342255649 0.1925841386753739 0.31471629868038226
0.6992779959585342 0.2241770799352824 0.3143563602027265
0.6965675605435817 0.2233081587048291 0.32338691973272915
2.933258889254713 0.9658248842348232 2.152338166181374
3.287375815735208 1.1111168347661786 1.6495686180388065
3.28428034639017 1.1533571654721395 1.6547189656160144
3.2940684668228437 1.1859376218703996 1.6307059492489075
3.2919401902558962 1.1997951640570974 1.6319722265048442
3.2779414058803873 1.2978288137858265 1.6421024662676147
3.258744468371701 1.3348477380704826 1.6740328569131937
3.2380219824409657 1.4620229852283337 1.7060241592348897
0.6388757059216905 0.2945257345641101 0.334421028140476
0.6511054424207512 0.31580880648684717 0.3474931662571667
2.267736144815018 1.235126565201432 2.13624697669376
2.1091556415528188 1.2585567539068592 1.505109423564062
0.572649564930604 0.37294960706813135 0.30212260155856674
2.856958749227696 1.9580320535199947 2.1224594654785744
2.3527539275199687 1.626088307164009 2.095122376818081
2.694195589300817 2.2467114688231127 2.0932915951798785
-0.16288152616716664 -0.204953639460762 0.19178011916057058
-0.13943160908342078 -0.20344424636647648 0.10903790629310785
1.2688388213613162 1.9151901672803309 0.972810191434672
1.061081522088529 2.1659368664027516 1.4391971700360315
0.08009743501821531 0.17555474719770564 0.0763998143967146
0.07318072593989457 0.17472996707398633 0.07328724280005158
0.5723048060360928 2.124741582825591 0.9728167428656805
0.5145799253960436 2.106896010777159 1.0414550879181947
0.4302748834070986 2.1631379138223683 1.2124928414193703
