-0.7564110307736576 -0.059530839182858446 -0.24653282075642083
0.6623857469284592 0.05213088885956957 -0.2158876853661145
-0.7485071900482839 -0.05890879342730159 -0.05909095110896146
3.3059089128365273 0.2601806740469538 -0.26098520433250844
-0.7445077923130109 -0.05859403399926507 0.11828307725494687
3.2605408841609798 0.25661013275491995 0.5180158129654353
3.1999642673393445 0.2518426496173964 1.3295672106309873
-0.7384536425260595 -0.05811756207766007 0.30682334790257415
2.486909653183526 0.19572403442416367 1.812432751649374
-0.7227711244523305 -0.05688332113794961 0.5267477474410599
1.4988319352554245 0.11796063154784805 1.7603332409698198
-0.7065131360030161 -0.05560378969745359 0.8297785290223317
0.8655400238803235 0.06811947720440255 1.7039707168512745
-0.6716939894139375 -0.05286346343071639 1.322350043982038
0.40114362303686213 0.031570687814812426 1.6760501440493238
-0.3925464294810996 -0.030894074008073612 1.6401295244256848
0.09570406403838029 0.007532073189873124 1.6179999999999999
-0.09570406403838026 -0.007532073189873443 1.603
0.09481808069713321 0.015017708643862182 1.6179999999999999
-0.09481808069713317 -0.015017708643862532 1.6039999999999999
0.09481808069713321 0.015017708643862182 1.6179999999999999
-0.09481808069713317 -0.015017708643862532 1.6039999999999999
0.39581854006051814 0.0626914979375603 1.669254162621949
-0.38914261647408027 -0.06163413551667443 1.6411003191099618
0.8463315521335145 0.134045749213663 1.681724008564135
-0.6610012046877135 -0.10469230585831038 1.3134587654340204
1.4432989561533043 0.22859609739132888 1.710950597598959
-0.6948609937416207 -0.11005516959712047 0.8237190413128472
2.396001052717658 0.37948928575168656 1.7624959113074692
-0.7097247098638128 -0.11240935095627672 0.5220727669839859
3.170340498882536 0.5021326055537223 1.3295672106309873
-0.7243703896902943 -0.11472899875876641 0.30378412628664786
-0.7289076382180296 -0.11544762832744511 0.11688669753646934
3.2284060898471494 0.511329291680766 0.5177030756206517
-0.7337656536069639 -0.11621706237590945 -0.05846845302775821
3.2753043585379893 0.5187572477195544 -0.26098520433250844
-0.7410165331249386 -0.11736548887022455 -0.24377210598784668
0.5939773919049369 0.09407677678229132 -0.19540066012187324
0.3464227668709439 0.05486797604653184 -0.2149343429934751
-0.4279353164696444 -0.06777829559414965 -0.26550794256364024
-0.1202893299049165 -0.019051958194004185 -0.12178875153313658
0.11855551924474125 0.01877734956296316 -0.12003332870498958
-0.07456057036837128 -0.017900409210344553 -0.12512912009778288
-0.07417703561598872 -0.017808330662928445 -0.12448546399569772
0.11502153883013737 0.027614228309824792 -0.11828989813166664
0.33460404184620696 0.0803313231496287 -0.2108720315765267
-0.3904059123961751 -0.0937281669856158 -0.2460391316023257
-0.7267701983376634 -0.17448208735331902 -0.2428519713756963
2.633490884601626 0.6322452236239561 -0.2131495670294519
-0.7195016251376278 -0.17273705731917144 -0.058235044887300545
2.6119906588945634 0.6270834761162621 0.4254540067145795
-0.7156979079865737 -0.17182386562565463 0.11657642859986274
2.5662464066978243 0.6161012528138211 1.0931786799932321
-0.707785608197338 -0.16992429051078503 0.30150500546944603
2.421742274821838 0.5814088801510848 1.8094952523900716
-0.6948071825593257 -0.1668084461887974 0.5191511546207433
1.4631876406611175 0.35128027307128423 1.7618527458239857
-0.6784231557881921 -0.1628749893728482 0.8169025397972419
0.8459911212083905 0.20310449857250665 1.7075302590279853
-0.6437015053943863 -0.15453905863308953 1.299233255158518
0.3912661357183375 0.09393468833333085 1.6760501440493238
-0.3831072611186676 -0.09197591584395327 1.6411003191099618
0.09334751235817695 0.022410754930166945 1.6179999999999999
-0.09334751235817687 -0.02241075493016728 1.6039999999999999
0.09130142556433472 0.029665631459994988 1.617
-0.09130142556433464 -0.029665631459995307 1.603
0.09130142556433472 0.029665631459994988 1.617
-0.09130142556433464 -0.029665631459995307 1.6039999999999999
-0.37404494319252657 -0.12153456931957203 1.6381879406626105
0.38091657396038753 0.12376729750128866 1.668283315193048
0.8162360692145354 0.2652111756635287 1.684393573846793
-0.6330389055015094 -0.20568680887916463 1.306345926917735
1.390386342387015 0.4517639080147713 1.711710311448429
-0.6653983720450483 -0.21620103691875034 0.8191746566606272
2.30636807409416 0.7493844140359487 1.7619084274726629
-0.6811074295087809 -0.22130521909797166 0.5203197761645619
3.087012366487963 1.0030311203864957 1.3444862292662567
-0.6948880532414285 -0.2257828151750836 0.30264453379162776
3.1499836511756936 1.023491731078629 0.524583333455721
-0.7018735876611195 -0.2280525528967541 0.11688669753646934
-0.7027906982631 -0.22835054019496157 -0.05815724570106146
2.814558195465342 0.9145053939004371 -0.23290995870912237
-0.7108401015690319 -0.23096594987198116 -0.2428519713756963
0.6346021560435116 0.20619473977040548 -0.21680597970522256
-0.4120638611933488 -0.13388766460750312 -0.26550794256364024
0.3304212819738833 0.10736038256784178 -0.21290261781768247
0.11030820712174787 0.03584130914999488 -0.1159849128119691
-0.24796142765522072 -0.08056755175121315 -0.2607220742476562
0.08154636473371198 0.033777610234926606 -0.14403563255505147
-0.07685048196293262 -0.03183251190395595 -0.13574127820213525
0.08075382518157512 0.03344932960371442 -0.1426357671399628
-0.07685048196293262 -0.03183251190395595 -0.13574127820213525
0.13326942241739004 0.055202002214912005 -0.14424978336205604
-0.2484531770932001 -0.102912675566689 -0.26892378102354647
0.3217449205164953 0.133271109702586 -0.21341044360685685
-0.4064790567045934 -0.16836913810766677 -0.26961381602845463
-0.6940158974414359 -0.28747079722278085 -0.24407882915701062
-0.6891014791180413 -0.28543517850205596 -0.05870187689356338
2.798569847024937 1.159205585886128 -0.23839928895284687
3.107402178196184 1.2871281259565581 0.5327146424805447
-0.6863421098077304 -0.2842922103101291 0.11766243011962157
3.038048207814047 1.258400770819855 1.362083179177341
-0.6801149623611414 -0.28171284138285496 0.30492378223500655
2.2972388709133402 0.9515474963429624 1.8065577577725649
-0.6653596487135449 -0.27560099035295155 0.5232414662278405
1.3926190208096072 0.5768416856380795 1.7648917622872824
-0.6505677131876147 -0.2694739700443628 0.8244764581395682
0.8050597433740093 0.3334666642261185 1.710199927917341
-0.6162050596225174 -0.2552404928985711 1.3090132219655013
0.3717543776005713 0.15398570507372553 1.6760501440493238
-0.36357172022643 -0.15059633741310544 1.6391587316087946
0.08869243512108352 0.03673760950704866 1.617
-0.0886924351210834 -0.03673760950704896 1.603
0.08553662632208328 0.043583087974996534 1.6179999999999999
-0.08553662632208316 -0.043583087974996826 1.603
0.08553662632208328 0.043583087974996534 1.6179999999999999
-0.08553662632208316 -0.043583087974996826 1.603
0.3566577125821718 0.18172618131908613 1.6673124695385788
-0.3502199707341903 -0.17844598801026573 1.637217151590461
0.7659106425917652 0.3902509644391365 1.6870631500684825
-0.6055820502496784 -0.30855946635922815 1.333909080910503
1.3037532069330153 0.6642954387923485 1.713229740989678
-0.637795229770698 -0.3249729011343205 0.8381108867029983
2.1636251865508425 1.102422095714787 1.7642583640166332
-0.65315251508185 -0.3327978288354995 0.5325921489889154
3.002364291343838 1.5297810150929931 1.3957473653654031
-0.6665401289800224 -0.33961915882462373 0.30986300750259
-0.6715234047701535 -0.342158264661545 0.11936933764455987
2.828819938874938 1.4413557508940575 0.5028482403153217
2.7362811110348755 1.3942048630431618 -0.2416929483053776
-0.6725112632020666 -0.34266160367310233 -0.05940224098919705
-0.6810989195264838 -0.34703723312190476 -0.24837355061871835
0.30660593057304575 0.15622352459288896 -0.2108720315765267
-0.3830623465412817 -0.19518001430583906 -0.26345587994550346
0.2050641401318785 0.10448539817588408 -0.2301488648679378
-0.2451037326358996 -0.12488658954407025 -0.2750863500793895
0.07163742324069003 0.0438994694222088 -0.13710549287276133
-0.06537978565526055 -0.04006478417796383 -0.12512912009778288
0.07128052193506905 0.04368076002083608 -0.13642242629665502
-0.0650434762657504 -0.039858693519013146 -0.12448546399569772
0.19508231810650506 0.11954659828783136 -0.22879794579497495
-0.23396545542920205 -0.14337421548453438 -0.2744011661782807
-0.35159222041150334 -0.2154559897720398 -0.25269275220603277
0.29269753289536565 0.179365278844894 -0.21036456684018748
2.1738195214105027 1.3321183159943277 -0.8283878804805426
-0.49994166596550166 -0.30636464692765275 -0.19051517982705019
2.6966222168159786 1.6524922197804846 -0.24890778079329706
-0.6578893336716873 -0.40315510218286815 -0.060725515435807786
-0.65597730876626 -0.40198341181387914 0.12185280879096816
2.655664812496728 1.6273934901334817 0.4933100768663505
3.2723448396348536 2.0052954967938805 1.589708847887981
-0.651920616714154 -0.39949746772710754 0.3167037776577132
2.1359589499952096 1.3089173279916075 1.8200702712858834
-0.6380619985259528 -0.3910048955788474 0.5436984988671953
1.2868954659215834 0.7886105557704524 1.7671710305224808
-0.6208138962571996 -0.3804352449146372 0.8525046220641238
0.7422092316629935 0.4548264021278164 1.7084201474934944
-0.588004664654079 -0.3603297219299791 1.3534714647301977
0.3430887929242354 0.21024508270594966 1.6760501440493238
-0.33533836988139226 -0.205495617356879 1.6381879406626105
0.08185345577799281 0.05015986221273114 1.6159999999999999
-0.08185345577799266 -0.05015986221273141 1.603
0.07766563145999492 0.056427384220077474 1.617
-0.07766563145999471 -0.05642738422007775 1.603
0.07766563145999492 0.056427384220077474 1.6159999999999999
-0.07766563145999471 -0.05642738422007775 1.603
0.3234612969550193 0.23500838840159277 1.6653707835653482
-0.31799307906476865 -0.2310354955519277 1.637217151590461
0.6954323107721456 0.5052611491250052 1.6870631500684825
-0.576616256815899 -0.41893623291601545 1.3988249086736189
1.184833015430611 0.8608315742951721 1.7147491729818969
-0.6063283423044246 -0.4405233266191604 0.8775084843024351
1.961259693945606 1.4249385761142632 1.7613209438389819
-0.6229961744450834 -0.4526332155190038 0.5594854232557969
3.063825863868767 2.2259997885034264 1.568666955561796
-0.635644816078535 -0.46182299158720563 0.3254476797181529
2.626021733377447 1.9079164687650731 0.5141066076645219
-0.6422447360053022 -0.46661811409543213 0.1257347790847948
-0.6426409994095429 -0.4669060163109051 -0.06251654029602577
2.381308621179759 1.7301219855929046 -0.23165527333307406
2.05952585635558 1.496333122168991 -0.827152606538124
-0.4106437535716036 -0.29835015082952604 -0.16492390715909916
0.2777224065011693 0.20177713930309232 -0.21036456684018748
-0.355265278956084 -0.25811533388528535 -0.26910045704447155
-0.22365845094092077 -0.16249737635638103 -0.2764570491052822
0.18400913246562187 0.13369046027764644 -0.22744779620827343
-0.13235705867567424 -0.11304360739964908 -0.2840418135500443
0.0610567645918677 0.052147403354803966 -0.1310294616524262
-0.13235705867567424 -0.11304360739964908 -0.2840418135500443
0.0610567645918677 0.052147403354803966 -0.1310294616524262
-0.21021958937183538 -0.1795444909885472 -0.2764570491052822
0.17346591820973545 0.1481538903291207 -0.22812277396174258
-0.33200784750030216 -0.2835614899723106 -0.26756059239525404
0.28755372749134284 0.24559408468338137 -0.23173562387851956
1.9285488613734785 1.6471363334716511 -0.824064432100199
-0.361809247700327 -0.30901429028291916 -0.15460024799290334
2.8770073584441347 2.4571964167834075 -0.29776908638252897
-0.6288679657830104 -0.5371039832819741 -0.06508757757495434
-0.62603029085787 -0.5346803799367876 0.13039542261545584
-0.6211900999766113 -0.5305464663911481 0.3383789394907934
2.8923731506876704 2.4703200431554557 1.5755533762984726
1.8913745316284538 1.6153864564413754 1.8071452563236363
-0.606987936777035 -0.5184166731105898 0.5799567204956813
1.146205510531495 0.9789519881167434 1.7648917622872824
-0.5900760051833392 -0.5039725189825348 0.9085807659296283
0.6619208794925763 0.565333838479601 1.7084201474934944
0.30597522351968254 0.26132752863852826 1.6760501440493238
-0.2990632011166954 -0.25542410380664793 1.6381879406626105
0.07299897269760293 0.062347012639697684 1.6159999999999999
-0.07299897269760271 -0.06234701263969794 1.603
0.0678822509939085 0.06788225099390863 1.617
-0.06788225099390827 -0.06788225099390886 1.603
0.0678822509939085 0.06788225099390863 1.617
-0.06788225099390827 -0.06788225099390886 1.6039999999999999
0.2828803515510689 0.2828803515510694 1.666341625661643
-0.2781009448631854 -0.27810094486318776 1.6381879406626105
0.6081507345536526 0.6081507345536536 1.687953011230971
-0.16596442221698227 -0.16596442221698368 0.46064261756416536
1.035123215465289 1.035123215465291 1.7139894566798235
-0.5752689323422904 -0.5752689323422954 0.9525483247392317
1.706770864535451 1.7067708645354542 1.7536836749955236
-0.5906378154173002 -0.5906378154173052 0.6068722616812797
3.103067580608839 3.1030675806088444 1.8177349037603854
-0.6036324432800759 -0.6036324432800811 0.35359969858506063
-0.6029673511302395 -0.6029673511302447 0.13505830941470753
2.817701091376775 2.81770109137678 -0.3136130088313272
-0.6121044015287775 -0.6121044015287828 -0.06812784495481836
1.8047960729169943 1.8047960729169974 -0.8293143374901821
-0.35098044604109185 -0.35098044604109485 -0.1612775650659146
-0.2898079894077786 -0.2898079894077811 -0.2511566414627339
0.2756448640044184 0.27564486400441884 -0.2388824353023283
-0.19596938536414168 -0.19596938536414338 -0.27714256259189135
0.16130716041143317 0.16130716041143345 -0.22812277396174258
0.10462605351785248 0.12250136936544513 -0.26289123878301895
-0.11206917016844933 -0.1312161392663225 -0.28159336976178295
0.10494857484053795 0.12287899331617347 -0.2637016299542797
-0.11174453039476884 -0.13083603492816578 -0.2807776556122806
-0.1702123917292534 -0.1992931050031758 -0.2620877715575459
0.1481538903291204 0.1734659182097357 -0.22812277396174258
-0.270518699668699 -0.3167367021324276 -0.2552537847943298
1.6483708569561828 1.9299943026597048 -0.8246820657917913
-0.3181120168776626 -0.37246131693639956 -0.15915185234243598
2.756878433695668 3.2278899179175964 -0.3340852879575148
-0.44142383216861075 -0.5168409023663572 -0.05349282227278659
-0.5907883314540141 -0.69172426154729 0.14407877499700764
3.0066107304563077 3.5202888692240797 1.9175959409432526
-0.4411849378211958 -0.5165611930233396 0.2813847623841986
1.6206380478698579 1.8975233551738995 1.8130202520562642
-0.5707317361155086 -0.668241005597506 0.6384819839499083
0.9755806235266834 1.14225814976402 1.7588137383750915
-0.556541043117536 -0.6516258388579933 1.0033532944373387
0.5653338384795998 0.6619208794925772 1.7084201474934944
-0.15330062515150542 -0.17949197044342285 0.46326941500005697
0.26132752863852776 0.30597522351968304 1.6760501440493238
-0.2557268329870641 -0.29941765144624066 1.6401295244256848
0.06234701263969756 0.07299897269760304 1.6159999999999999
-0.06234701263969729 -0.07299897269760328 1.603
0.056427384220077335 0.07766563145999501 1.6159999999999999
-0.05642738422007709 -0.0776656314599952 1.603
0.056427384220077335 0.07766563145999501 1.6159999999999999
-0.05642738422007709 -0.0776656314599952 1.603
0.23528238894000325 0.323838426342288 1.6673124695385788
-0.2313094811385368 -0.3183701878726528 1.6391587316087946
0.5049946435930114 0.6950654973762064 1.6861732901156787
0.8596874059287953 1.1832582027771592 1.7124700259122745
1.4173340504798935 1.9507929623487072 1.7519212332182654
-0.2687744440297446 -0.3699362854472351 0.33222348343547803
2.7374319823051545 3.7677518889643884 1.9290743493857792
-0.5617582510061893 -0.7731939003604333 0.39587227722068036
-0.5687720687117486 -0.7828475922438458 0.15326115349745775
2.9102434896751546 4.0056065233578275 0.7841933504159535
2.4125220572193755 3.3205517422946778 -0.32302546366157103
-0.5746698503404057 -0.7909651922484167 -0.07694561560713475
1.502478369228652 2.0679840633053335 -0.8305496155650005
-0.38999078514754426 -0.5367762658274426 -0.21558160390986222
-0.24630827511270623 -0.33901425672757174 -0.2567909019931498
0.1336904602776461 0.18400913246562212 -0.22744779620827343
-0.15405132692772247 -0.21203346120791314 -0.2620877715575459
0.08755411734633495 0.14287533410668904 -0.2734463666600935
-0.09120810463193815 -0.14883809942344906 -0.28485838904526745
0.08781464189512307 0.14330047153116743 -0.27426002903772984
-0.09094664733921876 -0.14841143989921277 -0.2840418135500443
-0.1365836633286475 -0.22288428143708638 -0.26140485840932715
0.13622690958416447 0.22230211223726043 -0.2607220742476562
-0.2006328281117475 -0.3274030190475791 -0.2353077376594584
0.4094298593027323 0.6681288066640683 -0.48019067881102495
0.43001042547982565 0.7017132383022238 -0.2674052452179381
-0.27303657409796583 -0.44555519408963506 -0.16978986490539896
-0.5554384497010919 -0.9063931712409359 -0.0836632997284155
1.8024449443772925 2.941322823438849 -0.2714945134002798
2.6509766142442603 4.326000660493473 0.8035877526070679
-0.5492685286855649 -0.8963247752222965 0.16649919134426486
2.493226382386822 4.068575678491954 1.9765186957259118
-0.541673336247469 -0.8839305476281222 0.42941446618434276
1.3080723142145787 2.1345800128375254 1.8188952662481317
-0.5345800394026027 -0.8723553392045214 0.7433420098673795
0.7852201079689882 1.2813627579566467 1.7595734893896602
-0.5215592607369973 -0.8511073595713224 1.1687447112278233
0.4545894903999498 0.7418226268601766 1.7075302590279853
0.21024508270594908 0.3430887929242358 1.6760501440493238
0.050159862212731 0.0818534557779929 1.615
-0.0501598622127307 -0.08185345577799309 1.603
0.04358308797499638 0.08553662632208338 1.615
-0.04358308797499605 -0.08553662632208354 1.603
0.04358308797499638 0.08553662632208338 1.615
-0.04358308797499605 -0.08553662632208354 1.603
0.18193781319720143 0.3570730635294623 1.669254162621949
-0.17876341764843298 -0.3508429614768239 1.6401295244256848
0.38963343883251167 0.7646986803487883 1.684393573846793
0.6637062883184377 1.3025969340236003 1.711710311448429
1.091776303284601 2.1427316424879423 1.7472213974957875
-0.5139422269609598 -1.0086684138563051 0.8224861203904988
2.0694524358050956 4.061529091154317 1.8881348091827412
-0.5203981404045461 -1.0213388574033195 0.4748028157262463
-0.5263923624641298 -1.0331031805897892 0.18364340171836674
1.4113265619802287 2.769884337240872 0.49237190593774266
-0.5326642274108483 -1.0454124086233287 -0.09234022272647166
0.3831008365345015 0.7518777264504264 -0.06641260056874011
0.3521819342036254 0.6911959639171612 -0.25205559840086783
-0.22619218036581898 -0.44392714944907785 -0.16188509357989966
-0.1735702905961251 -0.34065087576754133 -0.2342868648925582
0.3399670962257529 0.6672229945787451 -0.45889089006996137
-0.11867532230359408 -0.23291343429724645 -0.26140485840932715
0.11836534478082376 0.23230506915458468 -0.2607220742476562
0.06412555441564934 0.15481278316495514 -0.2734463666600935
-0.06718490901206722 -0.1621987185237372 -0.2864921704170949
0.06412555441564934 0.15481278316495514 -0.2734463666600935
-0.06718490901206722 -0.1621987185237372 -0.2864921704170949
-0.09899044778122429 -0.23898408157882056 -0.2586745058949574
-0.1517310515796314 -0.36631116255668267 -0.2429708216492483
0.27424795353196363 0.6620931288699355 -0.4391602767632212
-0.19782508838916943 -0.4775920113667954 -0.16796459472887715
-0.5071980045600626 -1.2244843014174907 -0.10430905882237623
0.3028476612081328 0.7311389310216492 -0.0622828840475792
-0.4998637429094641 -1.2067778274706227 0.20688285006211793
1.3283112036113076 3.2068269228105604 0.5497594323865979
-0.4993116511758909 -1.2054449601197559 0.540451036747905
1.7122419513608422 4.1337177410395345 1.8533173331664032
0.9577364426763046 2.3121803090881055 1.8183077640033782
-0.4863577098255334 -1.1741713792255366 0.9233730287921897
0.5756000863175936 1.3896215348910639 1.7610929931148382
-0.1316655070401414 -0.3178686527930439 0.4028408045709842
0.332946113637505 0.8038030230830814 1.7075302590279853
-0.08862459392265871 -0.2139586966078937 0.4545155195346965
0.1541640994132017 0.372185059634387 1.677991868823286
-0.1508639102616253 -0.3642176982262582 1.6420711156583132
0.036737609507048505 0.08869243512108359 1.6159999999999999
-0.0367376095070482 -0.0886924351210837 1.6039999999999999
0.029665631459994818 0.09130142556433479 1.6159999999999999
-0.02966563145999448 -0.0913014255643349 1.6039999999999999
0.029665631459994818 0.09130142556433479 1.615
-0.02966563145999448 -0.0913014255643349 1.6039999999999999
0.12383932313474412 0.3811382460667305 1.669254162621949
-0.12167861234453907 -0.37448826203912405 1.6401295244256848
0.2656315058400789 0.8175297124790872 1.6870631500684825
-0.0703247327843005 -0.21643727234649424 0.44664229434529173
0.4521649241346791 1.3916205430974067 1.713229740989678
-0.4275037067396668 -1.315721120314093 1.619789651245887
0.7426379080682561 2.285604463743953 1.7460464406234217
-0.4543842674433101 -1.398450979461738 1.0683214851076013
1.3226943989647715 4.070834776407813 1.772970318458821
-0.46673239125795424 -1.4364545968410705 0.6256189464560599
-0.4706349757438982 -1.4484655168658955 0.24122057552570864
1.340508267768322 4.125660227157902 0.6870678817207182
-0.475955008684837 -1.4648388946654534 -0.12121816028594805
0.22046883804222353 0.6785333133027119 -0.2318146548231054
-0.22863259692251559 -0.7036587796100642 -0.24039853889352503
-0.11917351194500479 -0.36677835578050616 -0.23632882130972138
0.21020378480842997 0.6469407279568378 -0.41684777001069356
-0.08014568876856171 -0.2466630668985783 -0.2593568969586126
0.039118007514736854 0.16293822770752972 -0.2734463666600935
-0.03876901657911464 -0.1614845758436211 -0.27100681747530664
0.039118007514736854 0.16293822770752972 -0.2734463666600935
-0.03888531229884626 -0.16196898237828172 -0.2718197587276634
-0.06038636414889338 -0.25152730870598705 -0.2586745058949574
0.1231760033727437 0.5130649785291492 -0.5276438192568936
-0.0902235614487664 -0.37580817975929315 -0.23683944136378018
0.15227870998586776 0.6342864756938046 -0.3997359894192322
0.1577484195826619 0.6570694558197927 -0.21956130430441037
-0.17426173243263735 -0.7258523540372371 -0.2425452715436384
0.8985990975995617 3.7429346146349354 -0.3029457581166719
-0.2771474228348444 -1.1544020966151531 -0.09343503275829002
0.9626589678491052 4.0097631774573825 0.6531301342968127
-0.43081498743457086 -1.7944735681127613 0.2922927641020326
0.9606256845126151 4.001293942843373 1.7044852821950722
-0.42560012955114107 -1.7727521217698563 0.7551631906326768
0.588959703893941 2.4531937192219693 1.832995374560187
-0.4138146879869195 -1.723662224731989 1.287898652471636
0.3512802730712816 1.463187640661118 1.7618527458239857
-0.3344666704692776 -1.3931539456086182 1.6775238091247273
0.20310449857250518 0.8459911212083908 1.7075302590279853
-0.18617060943083066 -0.7754563966598479 1.5651644900979182
0.09415233771539383 0.39217271063940784 1.6799336005724945
-0.09159505887473089 -0.3815208776723427 1.6343047956516126
0.02241075493016678 0.093347512358177 1.6159999999999999
-0.02241075493016648 -0.09334751235817706 1.603
0.015017708643862022 0.09481808069713325 1.615
-0.015017708643861677 -0.09481808069713331 1.6039999999999999
-0.015017708643861677 -0.09481808069713331 1.6039999999999999
0.015017708643862022 0.09481808069713325 1.6159999999999999
0.06272795972510362 0.39604875072685186 1.6702250118221875
-0.06108724683608478 -0.38568969723867136 1.626538596442743
0.13468410367714145 0.8503619635942107 1.6897327371773567
-0.1245423595809907 -0.7863295114457102 1.5624954720252948
0.22930662421329281 1.4477850459517128 1.7162686074185771
-0.22372402398545546 -1.4125378953074124 1.674485071719739
0.3786038339724669 2.390410530205464 1.7583835286945155
-0.34546431737854333 -2.1811758571150306 1.6044707182609124
-0.3598497585896788 -2.272001958351109 0.9528248802858145
0.63245608223648 3.993170547186058 1.6746430321498058
0.6568286152492798 4.147052664412091 0.6650160665595217
-0.3633978102479645 -2.294403474882756 0.36792760966379856
0.6349021177465975 4.008614207593012 -0.3194173376076261
-0.07664540433305946 -0.48392003770075137 -0.038560071399380086
0.10187764171574328 0.6432301146943017 -0.21160332149754685
-0.11692248474493529 -0.7382195151579295 -0.2428519713756963
-0.061111808598427485 -0.3858447741028657 -0.23939331057349458
-0.040679127570925955 -0.2568379033166016 -0.2600394200885711
-0.012990878133926126 -0.1650647572723705 -0.2701941209425604
0.013186366164472335 0.16754866821195594 -0.27426002903772984
0.013186366164472335 0.16754866821195594 -0.27426002903772984
-0.012990878133926126 -0.1650647572723705 -0.2701941209425604
-0.019760558382783983 -0.2510817005128017 -0.2518580949661939
0.04167356180559371 0.5295128083875157 -0.531150167090251
-0.030846655130511626 -0.39194391551447816 -0.24092623551294465
0.047995639046926 0.609842416173796 -0.37486750468369967
0.04954529685444251 0.6295326855471128 -0.20518007063904853
-0.043352631433158255 -0.550847410841665 -0.17953461871420398
0.31960561400192783 4.060974366339409 -0.320593897996662
-0.03583681085720403 -0.4553498558432303 -0.03594762538936902
-0.20239384912870265 -2.571657684371905 0.4085700481506213
0.3185061799708804 4.047004732447002 0.642964624899331
0.30916183816525505 3.928273612339927 1.6321756597915906
-0.2467705541199846 -3.135517183507993 1.3027898086588714
0.19775425162237348 2.512706008562941 1.8312328553455361
-0.18633455618655836 -2.367605020330802 1.7254848306708288
0.11806245417328114 1.5001257143809865 1.7618527458239857
-0.11225881822160769 -1.4263835277648524 1.675244755088814
0.06840407691679234 0.8691562060938246 1.7110898198720452
-0.06253486730056544 -0.7945808270705491 1.5642748158886857
0.031643838009017225 0.40207308438092865 1.6799336005724945
-0.030363788594590345 -0.38580851444881453 1.6119773045924006
0.007532073189872951 0.09570406403838029 1.6159999999999999
-0.007532073189872665 -0.09570406403838032 1.6039999999999999
-1.6465195194651677e-16 0.096 1.6159999999999999
4.939558558395502e-16 -0.096 1.6039999999999999
-1.6465195194651677e-16 0.096 1.6159999999999999
4.939558558395502e-16 -0.096 1.6039999999999999
-6.881399000911902e-16 0.40121862891860965 1.6711958627906753
1.976877719733449e-15 -0.38420490181628025 1.6003285892029617
-1.479767348027732e-15 0.8627754711150117 1.6932922035024756
4.094059971576118e-15 -0.7956778983889071 1.5616058023763266
-2.5196485423332294e-15 1.469076176774151 1.72006720416228
7.33192430897123e-15 -1.4249547309544839 1.6684076284680651
-4.18701509673843e-15 2.441230999906119 1.7736581421168425
1.2174116886687894e-14 -2.3660317158010713 1.719022664138968
-6.6569256380392285e-15 3.8813075320197292 1.6076902195034117
-6.7745980587725e-15 3.9499162078164387 0.6256052679038154
1.2953109797725884e-14 -2.517428482486916 0.398721501255733
-6.873796422600189e-15 4.007753620703906 -0.31541705048194973
2.140008811799797e-15 -0.4159093236856231 -0.032732773658332055
2.7080388965067878e-15 -0.5263056019910759 -0.17100705632461852
2.0529809412655135e-15 -0.39899551352926566 -0.2445047651550323
1.2994080227001118e-15 -0.2525391058826329 -0.25253910588263423
0.012756685574256094 -0.1620890586614946 -0.2653232067411183
-0.009168541263626425 0.11649736242770044 -0.19069426419923127
0.012795686980191382 -0.16258461851030695 -0.2661343875160874
-0.009205584177903748 0.11696803728053265 -0.19146471078160454
0.019653729419197886 -0.2497243098296933 -0.2504965069616747
-0.024280840186783323 0.30851732657959974 -0.3094713233887762
0.03163227422955688 -0.40192615263154857 -0.2470622736434424
0.037624645612023166 -0.4780664502723547 -0.15581352690495076
-0.10567975883657353 1.342788652247038 -0.43764760249409046
-0.20725529918128394 2.63342826405447 -0.20789617370296987
0.030353124011543515 -0.38567300807314914 -0.030446981895559954
-0.3070404418561789 3.901318716510058 0.6198188761832586
0.19596640803686144 -2.489989301928964 0.39559504951457825
-0.30068309730625614 3.8205409950803366 1.587413361385395
0.2033719419437449 -2.584085531930503 1.0736730493485809
-0.19857903305251853 2.5231858502768416 1.838870450193448
0.1860173525189951 -2.3635745655873928 1.7225474790176871
-0.11857156955789958 1.5065946386922149 1.7694503037826323
0.11195337877179223 -1.4225025515808216 1.6706866647362786
-0.06843965209018536 0.8696082315304409 1.7119797129861882
0.06253486730057292 -0.7945808270705484 1.5642748158886857
-0.03164383800901869 0.40207308438092854 1.6799336005724945
0.029851818441863787 -0.37930331686941426 1.584797420097463
-0.0075320731898733 0.09570406403838028 1.6159999999999999
0.007532073189873565 -0.09570406403838025 1.6039999999999999
-0.015017708643862348 0.0948180806971332 1.615
0.015017708643862733 -0.09481808069713313 1.605
-0.015017708643862348 0.0948180806971332 1.615
0.015017708643862733 -0.09481808069713313 1.6039999999999999
-0.06269149793756099 0.39581854006051803 1.669254162621949
0.059300858926513086 -0.3744108878687885 1.5789733674688382
-0.1344003896160147 0.8485706635110181 1.6861732901156787
0.12447144637880858 -0.7858817831079655 1.5616058023763266
-0.23011865975084148 1.452912036556848 1.7223463694805146
0.2225060366959957 -1.4048478262136288 1.6653689227365451
-0.38239864215836683 2.414370006137038 1.7760080945596153
0.36911698771174944 -2.330512940257256 1.7143229231029025
-0.5989344319160911 3.781523176701209 1.5858830380380988
0.489997121277093 -3.093720066649536 1.2974343799784835
-0.6103343212825415 3.8534992454557626 0.6179422153700503
0.49372299988869367 -3.117244338377025 0.49987731918671263
0.056148217471940834 -0.35450589310975633 -0.0282479986048158
-0.35370474551982645 2.233203872773527 -0.17794778904520184
-0.20818462833501597 1.3144260124822515 -0.43240654277545215
0.07034935159018867 -0.44416832515894356 -0.14611799224030889
0.06411472636610482 -0.40480445070695453 -0.2511566414627339
-0.01841413737070468 0.11626228771571953 -0.1177115117564976
0.03939928635208949 -0.2487573038826111 -0.2518580949661939
0.05911309569706213 -0.24622376391629963 -0.25322025985295954
-0.21846894294571356 0.9099886378236696 -0.9358461412005737
-0.33971033417939833 1.4149953768547745 -0.8917493887473849
0.09860499999517686 -0.41071938380966566 -0.25884095838750043
-0.3104500446974799 1.2931174998029615 -0.43209825439437854
0.09825219900308743 -0.40924986191842794 -0.1367518040495459
-0.5636392322539467 2.3477263645212836 -0.19002034942567886
0.0797597626286308 -0.33222332093949397 -0.02688950147099216
-0.9130999637990458 3.8033350692817014 0.6195060991484549
0.7386209281808116 -3.07657758233543 0.5011282314182662
-0.8927049186325818 3.718383592338846 1.5839701349692379
0.7329418154933566 -3.0529223755640564 1.3004946227807421
-0.5910361966736949 2.461842934120035 1.8394579587326116
0.553282933109789 -2.3045892740770992 1.721960009331871
-0.35173471491141595 1.465080527153327 1.7641320073289055
0.33295200680200254 -1.38684491738349 1.6699269853182506
-0.20278695244084263 0.844668446379171 1.704860600638994
0.1947428856102705 -0.8111624966591843 1.6372329133381793
-0.09393468833333149 0.3912661357183373 1.6760501440493238
0.08773238558251292 -0.36543168549631594 1.5653842057959197
-0.022410754930167098 0.09334751235817691 1.615
0.02241075493016744 -0.09334751235817683 1.605
-0.029665631459995147 0.09130142556433468 1.615
0.029665631459995505 -0.09130142556433457 1.6039999999999999
-0.029665631459995147 0.09130142556433468 1.615
0.029665631459995505 -0.09130142556433457 1.6039999999999999
-0.12369527199947544 0.3806949022591979 1.6673124695385788
0.11613337551130884 -0.35742177792773966 1.5653842057959197
-0.2656315058400819 0.8175297124790861 1.6870631500684825
0.24587799265071944 -0.7567346501348017 1.5616058023763266
-0.45376899506591 1.3965573657948995 1.7193074835993953
0.43993423184545755 -1.353978342790578 1.6668882742717424
-0.7541319927572415 2.320979618966113 1.7730706544985475
0.7291450901569732 -2.244077840188236 1.7143229231029025
-1.1971066295083983 3.6843153658813264 1.6046295529865446
0.9799149061499723 -3.015867974490342 1.3135007183662346
-1.2199809855978174 3.7547153950412158 0.6252924891762799
0.9884071922749772 -3.0420045436902505 0.5066010051578763
-0.8359939206606176 2.572924726795759 -0.21291433690913703
0.12175280199055168 -0.37471659429127163 -0.12801847198822536
-0.41270907335005896 1.2701879206923212 -0.4339480002279675
-0.4520499663822788 1.391266739515356 -0.8964444697872197
0.13362893822339045 -0.41126758326032925 -0.26499487132489463
-0.2907179098766368 0.8947377251893176 -0.9407829186374529
0.07867047111869269 -0.24212281382381673 -0.25458299236202003
0.03295987571079479 -0.07957217895513108 -0.14054862122931536
0.03312262359254363 -0.07996508709849662 -0.1412426162731225
0.10527098864516633 -0.25414664851158064 -0.2750863500793895
-0.08575012687052866 0.20701911926604266 -0.22407588000496678
-0.5581850845858538 1.3475780015215335 -0.8938360818187593
0.15908163212627177 -0.38405703380368666 -0.25474149466852747
-0.5179937808188184 1.2505476108777005 -0.43980577072282795
0.14476570725345644 -0.34949533381782216 -0.12291420439874151
-0.7871317296049175 1.9003040969863723 -0.16187952071210052
-1.214965877761194 2.9331870999115885 0.5028482403153217
1.2448126628949172 -3.0052436133746294 0.5152011826145844
-1.2258860061196624 2.959550621897458 1.3268894514715048
1.2322475400665416 -2.9749087234294813 1.3337751261974908
-0.9691860944798477 2.339822213756646 1.8400454674485205
0.906369430280025 -2.188169371102377 1.7207850706068109
-0.5758484058138856 1.3902210311868 1.7618527458239857
0.5467963413018683 -1.3200831430269373 1.6729657069512853
-0.3320785338777623 0.8017085002606623 1.7030808342375867
0.3048396974483809 -0.7359481319295805 1.5633851431969472
-0.15416409941320297 0.3721850596343865 1.677991868823286
0.14319413257251576 -0.34570121690881306 1.558589782150701
-0.0367376095070488 0.08869243512108345 1.6139999999999999
0.036737609507049115 -0.08869243512108332 1.6039999999999999
-0.04358308797499667 0.08553662632208323 1.615
0.043583087974997006 -0.08553662632208306 1.605
-0.04358308797499667 0.08553662632208323 1.615
0.043583087974997006 -0.08553662632208306 1.6039999999999999
-0.18193781319720265 0.35707306352946167 1.669254162621949
0.17082825278359753 -0.33526932355017297 1.5673254890855033
-0.3910743358301165 0.767526599933632 1.6906226019574415
0.3616418033300452 -0.7097620024453638 1.5633851431969472
-0.6663574729184962 1.3078001767716978 1.7185477636427773
0.647799594229791 -1.2713782890973426 1.6706866647362786
-1.0814977099599732 2.122558767247195 1.7307720771185908
1.0719533948897655 -2.1038269942225334 1.7154978570563373
1.4958190180580075 -2.935710119175001 1.3647609905728844
-1.1000698232345019 2.159008591869216 1.0036858493790366
-1.0927049612295199 2.1445542363266425 0.38121384439424966
1.5103801292258239 -2.964287908924785 0.5269288929657517
-1.1110555936047828 2.180569380208997 -0.19260749210369615
0.16170371877040354 -0.3173614172380397 -0.11573088690788261
-0.6274380404233306 1.2314164896883875 -0.44905560274119655
-0.6652860047387699 1.3056973020658522 -0.8980095140234758
0.1864474911794708 -0.36592380491390286 -0.2516686353724141
0.11867532230359668 -0.23291343429724512 -0.26140485840932715
-0.10971176159856254 0.21532145589081425 -0.24166091947189208
-0.04368076002083623 0.07128052193506898 -0.13642242629665502
0.08547272549797011 -0.13947881130735668 -0.2669458266994176
0.08547272549797011 -0.13947881130735668 -0.2669458266994176
-0.04368076002083623 0.07128052193506898 -0.13642242629665502
0.14373222308943062 -0.234549670743256 -0.2750863500793895
-0.4926632289315691 0.8039533213182936 -0.9428987220269228
-0.7647893657675431 1.248022816825915 -0.8969661502480378
0.20934671846909256 -0.34162279572866017 -0.24552762961580643
-0.7409626576958479 1.2091411630603943 -0.4607732497587736
0.17651706141435802 -0.2880496644760327 -0.10976847372941252
-1.0549419871030614 1.7215088614771186 -0.15890136469772576
1.788853959066879 -2.9191443511302655 0.5422534189795546
-1.03228886874616 1.6845423320676811 0.31291663895477173
-1.033589737969505 1.6866651577045308 0.8193838534836284
1.770761746382513 -2.889620543337389 1.4037809491052666
-1.0503736532206915 1.714054018123806 1.460561197476316
1.241317975812536 -2.0256468330929556 1.7260723016447324
-0.7852201079689929 1.281362757956644 1.7595734893896602
0.746909883895979 -1.2188461541688067 1.6737253890069317
-0.4548264021278178 0.7422092316629926 1.7084201474934944
0.4171616867901417 -0.680746002393976 1.5669438430585259
-0.2104886542286421 0.34348626552447603 1.677991868823286
0.19709360974459125 -0.3216275395840104 1.5712080813116327
-0.0501598622127313 0.08185345577799272 1.615
0.05015986221273155 -0.08185345577799258 1.605
-0.05642738422007763 0.0776656314599948 1.6139999999999999
0.05642738422007789 -0.07766563145999461 1.6039999999999999
-0.05642738422007763 0.0776656314599948 1.6139999999999999
0.05642738422007789 -0.07766563145999461 1.605
-0.2354193895856835 0.3240269915540927 1.668283315193048
0.22377527568991082 -0.30800024370804185 1.585768102802453
-0.5071266979610963 0.6980000184618947 1.6932922035024756
0.4684870812281959 -0.6448171485767907 1.5642748158886857
-0.8593060170888273 1.1827332660731487 1.711710311448429
0.8383301175353227 -1.1538624171620775 1.6699269853182506
-1.010578105433988 1.3909414335433448 1.2491432348893516
1.3930949111835413 -1.917430649253397 1.721960009331871
1.7374330540354652 -2.3913714436033993 1.2243729013103775
-0.9734434998485326 1.3398300337916964 0.6859877791567287
-0.98676619388326 1.3581671489930642 0.26589372690079704
1.7553029992779814 -2.4159673131550083 0.4729834272913725
-1.0065174295135635 1.3853523926215803 -0.13476799450563742
-0.8681366539894535 1.1948875950494162 -0.47989413957352894
0.18836882040295452 -0.2592674387831049 -0.10412772295046328
-0.8638532347644677 1.1889919742703472 -0.9006179400321022
0.23011095050840757 -0.31672055198220517 -0.23990423591134122
-0.5562947255232499 0.7656740026636708 -0.9464251158966589
0.15766729957768222 -0.21701042058823133 -0.2682396316728764
-0.05135641100804826 0.06013063154587022 -0.12904195518616118
0.11077113960885263 -0.12969634074881511 -0.2783318412006133
-0.05135641100804826 0.06013063154587022 -0.12904195518616118
0.11077113960885263 -0.12969634074881511 -0.2783318412006133
-0.15959252550492564 0.18685883924224553 -0.24573563030216095
0.18043497207476525 -0.21126220876526466 -0.27782818431541534
0.25208560247760614 -0.2951543182841198 -0.23786083625039822
-0.18182087940083536 0.21288489775666725 -0.17156103322444827
-0.18692307484026616 0.21885880107314615 -0.09351785543459248
0.20280763138067215 -0.23745722720636908 -0.10146491955954147
-0.9738020717289347 1.140175733163309 -0.11800772263689077
-0.9782304776551253 1.1453607303205593 0.2385664059044768
2.0413886524238816 -2.3901590179575356 0.4978445928512983
-0.9707294656252471 1.1365781736399716 0.6191246722366573
2.016262449657904 -2.3607400143509354 1.2859585213924496
-0.9560097091933261 1.1193435532083746 1.0694954164553212
1.5502681604607025 -1.8151308030334774 1.7342969176415062
-0.9174279378922469 1.0741701030206532 1.653973871786183
0.9292264934428315 -1.0879844366678033 1.675244755088814
0.5185178708984011 -0.6071064241629837 1.5669438430585259
-0.5659227861691623 0.6626104486393594 1.710199927917341
-0.2619330320594011 0.30668417693729 1.6799336005724945
0.24891571617659616 -0.2914428582839563 1.5964457480902912
-0.06234701263969782 0.0729989726976028 1.615
0.06234701263969804 -0.07299897269760262 1.605
-0.06788225099390874 0.06788225099390839 1.6139999999999999
0.06788225099390897 -0.06788225099390816 1.6039999999999999
-0.06788225099390874 0.06788225099390839 1.6139999999999999
0.06788225099390897 -0.06788225099390816 1.6039999999999999
0.27348659909883116 -0.2734865990988279 1.6110065674064498
-0.28353960030617864 0.2835396003061772 1.6702250118221875
-0.6097537765663937 0.6097537765663906 1.6924023351218953
0.5635908535349136 -0.5635908535349067 1.5642748158886857
-0.9172221947609623 0.9172221947609577 1.5187652520635884
1.0103478963616965 -1.0103478963616843 1.6729657069512853
-0.9357891215884211 0.9357891215884162 0.9615104990760891
1.6844721750546467 -1.6844721750546265 1.7307720771185908
-0.9441171909581223 0.9441171909581173 0.5530510459936753
2.077728556509784 -2.0777285565097587 1.217105209473546
-0.9480089747837783 0.9480089747837736 0.21234398380653077
2.1884196097387543 -2.188419609738728 0.4901828469274217
-0.9456169495846803 0.9456169495846755 -0.10524813212754551
1.854488255950035 -1.8544882559500127 -0.20640643664111
0.21695765069164225 -0.21695765069163964 -0.09969330776299817
-0.1985397842891045 0.19853978428910343 -0.1720607686512883
0.2685755614155996 -0.2685755614155963 -0.23275595721826917
0.19306216615380722 -0.19306216615380487 -0.27303113375584187
0.13159634525432634 -0.1123938967593008 -0.2824093020545956
0.13197665201366085 -0.1127187094169996 -0.28322545060539867
0.20761450290248204 -0.17731953695110678 -0.27303113375584187
-0.19877381377128328 0.16976887511796404 -0.26140485840932715
-0.20237017591854303 0.1728404585658705 -0.16308736242099678
0.2945205773990495 -0.25154433662807335 -0.23735011312167725
-0.235383315577959 0.20103634351548544 -0.10057874195599552
0.5124038103541064 -0.43763419758132244 -0.21894895350730748
-0.9254271613359708 0.7903894643003312 -0.09578133317448699
1.8177736071519712 -1.5525253284137364 -0.18813882580565675
-0.9250961199795626 0.7901067282717333 0.19268764033662303
2.4975115510797545 -2.1330763774990986 0.5202049788098212
-0.9164679676395846 0.7827375900069217 0.499224728434725
2.0314127775471382 -1.7349904175066846 1.1065651261350156
-0.8988765806575311 0.7677131261550364 0.8588465804057699
1.824968521473564 -1.5586703657693732 1.7436965293602447
-0.8640473789162022 0.737966177657657 1.3304334059325884
1.0894645638634766 -0.9304906414926642 1.6775238091247273
-0.6619208794925784 0.5653338384795985 1.7084201474934944
0.6071064241629894 -0.5185178708983943 1.5669438430585259
-0.3068614160861784 0.26208440859317167 1.680904469055262
0.29622764815812536 -0.2530023127921195 1.6226555426795128
-0.07299897269760316 0.062347012639697406 1.6139999999999999
0.07299897269760332 -0.062347012639697226 1.6039999999999999
-0.07766563145999512 0.05642738422007719 1.6139999999999999
0.07766563145999529 -0.056427384220076954 1.6039999999999999
-0.07766563145999512 0.05642738422007719 1.6139999999999999
0.07766563145999529 -0.056427384220076954 1.6039999999999999
-0.3245926892549717 0.23583039302336417 1.6711958627906753
0.3170503134376116 -0.23035053622985147 1.632363234457249
-0.6961659390591889 0.5057941612752859 1.6888428736012318
0.6448171485767962 -0.468487081228188 1.5642748158886857
-0.864203852828761 0.6278808519461769 1.2507187279781444
1.1580617298193225 -0.8413810967691812 1.6760044391132642
-0.8851648510307333 0.6431099085693536 0.794927563995397
1.9409804544257885 -1.4102048461674888 1.7431090520626604
-0.8945713811500391 0.6499441527419925 0.4580170764761994
1.9864816783624546 -1.4432634204337718 1.017070912359651
-0.9022057337194622 0.6554908345574654 0.17662836650686795
2.44152436895721 -1.7738712872088425 0.47798683266816394
-0.901796661986124 0.6551936265461903 -0.08772737408549407
1.7768449954161285 -1.2909534548432917 -0.17285265312637282
-0.25631879952975445 0.18622650858564596 -0.10294348210365661
0.5619364700140249 -0.40827074350239323 -0.22568651636325038
-0.19312562957391619 0.14031398313325907 -0.14628560195370557
0.27638279386751297 -0.2008038537536849 -0.2093498592587455
0.2214409715105457 -0.16088628324523294 -0.273716093790629
0.14883809942344922 -0.0912081046319379 -0.28485838904526745
-0.100846234506251 0.06179865198637461 -0.19300767756381407
0.14883809942344922 -0.0912081046319379 -0.28485838904526745
-0.10004003657714215 0.06130461326001992 -0.19146471078160454
-0.23864178153416157 0.14623987180725068 -0.27988569095257515
0.22929521685064033 -0.14051228960278697 -0.26892378102354647
0.27789482576952795 -0.17029416825157334 -0.1997257170972945
-0.1738370148458412 0.10652745970542382 -0.1249383551924552
-0.2919553895752443 0.1789104928334094 -0.111256847214335
0.604296970570895 -0.3703136598364124 -0.23028235863261565
-0.8809993615450507 0.5398771031055803 -0.08131936116042691
1.73679202627138 -1.0643075225342358 -0.1603120549340938
-0.8787133101861474 0.538476209031116 0.16322772683947168
2.388843117555263 -1.463884945180496 0.4437459036236283
-0.8666651451460952 0.531093083998932 0.4210269140059829
1.942456077920017 -1.1903386154765705 0.9436473736819841
-0.8482839667690852 0.51982908340256 0.7228305719678431
2.0608081699130603 -1.2628648707279158 1.7560336002198094
-0.815739847044059 0.4998860211857436 1.12017787327175
1.2238251405280256 -0.7499610106610262 1.6805625569730658
-0.7232662073732878 0.4432181019133273 1.6648170191970666
0.6803594893579018 -0.41692483129699787 1.5660541658220584
-0.34388373955255686 0.21073222662631252 1.6799336005724945
0.33533836988139437 -0.20549561735687552 1.6381879406626105
-0.08185345577799301 0.05015986221273085 1.6139999999999999
0.08185345577799318 -0.05015986221273056 1.6039999999999999
-0.08553662632208345 0.043583087974996236 1.615
0.08553662632208361 -0.0435830879749959 1.605
-0.08553662632208345 0.043583087974996236 1.615
0.08553662632208361 -0.0435830879749959 1.605
-0.3574884159923935 0.18214944584757428 1.6711958627906753
0.35084296147682426 -0.17876341764843237 1.6401295244256848
-0.7408644629670821 0.37748929850774826 1.6318941990903157
0.7097620024453685 -0.36164180333003604 1.5633851431969472
-0.816648335558768 0.41610311025445534 1.073137315382175
1.2679096393537383 -0.6460322289100215 1.6661285981710476
-0.8419058812519682 0.428972472576909 0.6865049926144742
2.1484953577969996 -1.0947130629181914 1.7519212332182654
-0.854011873652558 0.4351407837963957 0.3970153875324047
1.9130631139522825 -0.9747543430477317 0.8893500394922028
-0.8621849936209703 0.4393051964220729 0.15326115349745775
2.3538548585116206 -1.1993489548277583 0.4184189164160733
-0.8640535975976456 0.44025729770321537 -0.07632098202741319
1.7058151010047442 -0.869156206093812 -0.15067292587849018
-0.3280216742732044 0.16713539102796834 -0.11961831913604179
2.2496170937515627 -1.146237160884096 -0.8203586426125706
-0.18514442777648843 0.09433579778420337 -0.12733537654451946
0.3726264878622986 -0.1898626787215648 -0.2562784887033636
-0.25978379724253825 0.13236645606137287 -0.29156217175758664
0.24083232233442395 -0.12271019729023244 -0.27029243422634014
0.1608114389231018 -0.06661027898668018 -0.2840418135500443
-0.2581079902071216 0.10691183010065085 -0.4558970563359343
-0.2581079902071216 0.10691183010065085 -0.4558970563359343
0.1608114389231018 -0.06661027898668018 -0.2840418135500443
-0.28400243167533235 0.11763765894685993 -0.30740201690945446
0.24908535812475854 -0.1031745335238325 -0.269608048841277
-0.18404235839295124 0.07623284089748956 -0.1220736019205567
0.36168787248791034 -0.14981602213036038 -0.23990423591134122
-0.36913934341532556 0.15290252244812602 -0.12982281683857685
0.27425646802016934 -0.1136007486224951 -0.09645340668691021
-0.8482855305315147 0.3513713715110066 -0.07226214758323282
1.6813669424517466 -0.696444990889284 -0.14322911539100341
-0.8449703076354007 0.34999816122514643 0.14485670972914186
2.3203295133293773 -0.9611119535955739 0.39778356203889914
-0.8319917266757655 0.3446222569713083 0.3730164429929065
1.8813099007260763 -0.7792640759075078 0.8434693577303564
-0.8104117601302631 0.3356835421526036 0.6373110218491826
2.212074543080608 -0.9162712767242386 1.739584192646292
-0.776155508016509 0.3214941379310148 0.983636186123522
1.2541480182185765 -0.5194851183694644 1.5894049075648031
-0.7296661488544751 0.3022376148600666 1.5500402366969626
0.7376233547795796 -0.3055335974728375 1.5669438430585259
-0.3726157432153393 0.1543424943935228 1.6799336005724945
0.3642176982262585 -0.15086391026162468 1.6420711156583132
-0.08869243512108364 0.03673760950704835 1.615
