0.11855551924474125 0.01877734956296316 -0.12003332870498958
-0.07417703561598872 -0.017808330662928445 -0.12448546399569772
-0.07456057036837128 -0.017900409210344553 -0.12512912009778288
-0.26348982196791265 -0.06325830948829825 -0.2709769362879439
2.2797061972767163 0.5473090349094448 -1.4367019434818844
-0.4212983109228687 -0.10114477568891293 -0.26550794256364024
3.1723088343436405 0.7616039683681115 -1.0600344593036748
-0.7267701983376634 -0.17448208735331902 -0.2428519713756963
2.4039068120583975 0.5771269643832184 -0.19456748423372958
-0.7195016251376278 -0.17273705731917144 -0.058235044887300545
1.92013047423402 0.4609825415260188 0.312760384841256
-0.7156979079865737 -0.17182386562565463 0.11657642859986274
1.583450998532533 0.38015295079186157 0.674524031633095
-0.709568959769811 -0.17035243534330793 0.30226468385140953
1.2978343357167235 0.3115824568104381 0.9697254300278514
-0.6940251846135727 -0.16662070509237784 0.5185668556286788
1.0267219729954205 0.24649413719702928 1.236295931602091
-0.6784231557881921 -0.1628749893728482 0.8169025397972419
0.7172795832346587 0.17220359225647988 1.4477416628282398
-0.6450229781722236 -0.15485631617775086 1.301900487352889
0.3686040122875476 0.08849399386194637 1.5789733674688382
-0.3831072611186676 -0.09197591584395327 1.6411003191099618
0.09334751235817695 0.022410754930166945 1.603
-0.09334751235817687 -0.02241075493016728 1.603
0.09130142556433472 0.029665631459994988 1.6039999999999999
-0.09130142556433464 -0.029665631459995307 1.603
0.09130142556433472 0.029665631459994988 1.603
-0.09130142556433464 -0.029665631459995307 1.603
0.36850360402282606 0.11973407907982798 1.6139187848615846
-0.374266602402257 -0.12160659076266486 1.6391587316087946
0.7662195200475811 0.24895981370158368 1.5811788824354205
-0.6326080620778725 -0.20554681936483257 1.305456833772407
1.2552547295064667 0.40785698540616067 1.5453492302735476
-0.6653983720450483 -0.21620103691875034 0.8191746566606272
1.9472668458560354 0.6327053520399535 1.4875794999024032
-0.6803425516499068 -0.22105669521641105 0.5197354614748666
3.193292049689485 1.0375634827680635 1.390774210508713
-0.6948880532414285 -0.2257828151750836 0.30264453379162776
-0.7009420359463083 -0.2277498733965524 0.11673156133325137
3.194115135437962 1.0378309195394324 0.531932781480954
-0.7018505695482254 -0.22804507385850473 -0.05807944829025807
2.747277411946067 0.8926445421570423 -0.22734234794284333
3.117241400189323 1.0128531288341558 -1.0649768036706562
-0.7117378447882398 -0.23125764432606133 -0.2431586770751814
-0.4120638611933488 -0.13388766460750312 -0.26550794256364024
0.390585489200426 0.12690891850398373 -0.2516686353724141
0.24406786066127656 0.0793024551462774 -0.2566281356359827
-0.25836549129563546 -0.08394803694884458 -0.27166155414412324
-0.07343145355375062 -0.030416303966733844 -0.12970223622585164
-0.0730576327322343 -0.030261462312564328 -0.12904195518616118
-0.2528806967721002 -0.10474661426536318 -0.273716093790629
-0.4010624798985715 -0.16612551853297697 -0.26602105050119135
3.1722115774706947 1.3139730581053135 -1.1156368182944918
-0.6957602254127994 -0.2881933215257464 -0.24469229281178542
2.6715339682001997 1.1065856019689368 -0.2275775961458896
-0.6872746831544444 -0.2846784948382457 -0.05854625924505394
2.014891306779807 0.8345953059758454 0.34542104323021305
-0.6854370777145453 -0.28391733374274897 0.11750727677277212
1.6008040559782137 0.6630747506880362 0.7177069383555505
-0.6784203220078406 -0.28101089836517296 0.3041640045876179
1.2659464350562062 0.5243721826381518 0.9955452966308376
-0.6646165783578255 -0.2752932005338152 0.5226571127534618
0.9773180436859755 0.4048183884466725 1.2385731766275483
-0.6493724112848451 -0.2689788597851053 0.822961629999121
-0.6157865241240259 -0.2550671298187614 1.3081241210195875
0.6886281302442425 0.2852391109787917 1.4628625867812555
0.3502223746439305 0.14506685742402736 1.5789733674688382
-0.36357172022643 -0.15059633741310544 1.6391587316087946
0.08869243512108352 0.03673760950704866 1.6039999999999999
-0.0886924351210834 -0.03673760950704896 1.603
0.08553662632208328 0.043583087974996534 1.603
-0.08553662632208316 -0.043583087974996826 1.603
0.08553662632208328 0.043583087974996534 1.603
-0.08553662632208316 -0.043583087974996826 1.6039999999999999
0.3452361765526951 0.17590661803975022 1.6139187848615846
-0.350427633914427 -0.17855179768551926 1.6381879406626105
0.7194558610392439 0.36658107098742254 1.5847377014540902
-0.6051783748320237 -0.3083537834605978 1.333019909401658
1.1748415398179233 0.598611663660455 1.5438301177422056
-0.6366423111242907 -0.3243854597427793 0.8365958649155442
1.8271971222339278 0.9310034350211701 1.4899289514868927
-0.65100220863677 -0.33170219297751935 0.5308387509629943
3.059144583536313 1.5587120189947892 1.4221435436908698
-0.6657227595208104 -0.3392026882835157 0.30948302654141396
3.1173551561460635 1.5883717871691003 0.554137975755849
-0.6706503694750408 -0.34171343096037815 0.11921414775217838
2.7034316538005196 1.3774672285801788 -0.23879138890887244
-0.6716301823106035 -0.34221267053583865 -0.05932441600349129
-0.6810989195264838 -0.34703723312190476 -0.24837355061871835
2.341078511505334 1.1928390808765055 -0.8537115028519048
0.36741286106060883 0.1872062031819411 -0.25269275220603277
-0.38530002538609753 -0.19632016862506804 -0.26499487132489463
0.22926499937452904 0.116816351859647 -0.2573101241692607
-0.2371751587291916 -0.120846779360405 -0.26618790355686783
0.1213871723636008 0.07438615489449245 -0.23232058528159324
-0.06537978565526055 -0.04006478417796383 -0.12512912009778288
0.1209703384212569 0.07413071872610064 -0.23152281477944744
-0.06571739409194087 -0.04027167089404422 -0.12577526242137732
0.21590576397881214 0.1323072223301704 -0.25322025985295954
-0.23396545542920205 -0.14337421548453438 -0.2744011661782807
-0.3644269907852175 -0.22332114717264695 -0.2619172266436935
0.3487425841927903 0.2137097304512988 -0.25064469090919866
-0.49994166596550166 -0.30636464692765275 -0.19051517982705019
2.513109899690851 1.5400357272128213 -0.23196894400740692
-0.6562024718231737 -0.4021213919126158 -0.060569812113110195
3.391430453930859 2.0782712550906006 0.6299841794953841
-0.6543058966559928 -0.40095916915540075 0.12154233119126834
2.9904174825945753 1.8325301902013895 1.4527482169299626
-0.6480086829722256 -0.3971002316469026 0.3148033557930698
-0.6353177617005539 -0.3893232250894003 0.5413601094223571
1.7988391084799342 1.1023300234134379 1.5328073529587607
1.149697797566543 0.7045357164715225 1.578770533828966
-0.6186070787629305 -0.3790829054148681 0.8494742096889198
0.6946609000150804 0.42568874701923637 1.5989732094852087
-0.5868457190088804 -0.35961951912519013 1.3508037990563677
0.3315627317082826 0.20318190330866467 1.619743272592916
-0.33553709155752504 -0.20561739415663363 1.6391587316087946
0.08185345577799281 0.05015986221273114 1.6039999999999999
-0.08185345577799266 -0.05015986221273141 1.6019999999999999
-0.07766563145999471 -0.05642738422007775 1.6019999999999999
0.07766563145999492 0.056427384220077474 1.6039999999999999
0.07766563145999492 0.056427384220077474 1.6039999999999999
-0.07766563145999471 -0.05642738422007775 1.6019999999999999
0.3134678886426569 0.22774775226293922 1.6139187848615846
-0.31818163328671495 -0.23117248821300665 1.6381879406626105
0.6528855014615661 0.47434908272993465 1.5838479945040649
-0.5758830611469588 -0.41840353508118094 1.3970462346377723
1.0693579368504758 0.7769340187819429 1.5476279053293895
-0.6047575765782743 -0.439382098517579 0.8752351941469566
1.6584062305379768 1.2049026551949047 1.4893415880908873
-0.6210426924494004 -0.45121392777144725 0.5577310871201845
2.802302327730089 2.035991817424329 1.4347679196928345
-0.635644816078535 -0.46182299158720563 0.3254476797181529
3.197146991497978 2.3228632576076786 0.6259180467215146
-0.6398647903147657 -0.46488898233691417 0.12526884775230201
2.6078321867602594 1.8947009895825502 -0.25369163520326954
-0.6410397328141072 -0.46574262803064675 -0.06236076802545757
-0.41745745332197587 -0.303300593471231 -0.16766044454769097
0.37833271519162553 0.2748748073224562 -0.2865731964353522
-0.355265278956084 -0.25811533388528535 -0.26910045704447155
0.20485949354108332 0.14883913432323678 -0.25322025985295954
-0.22199520671453127 -0.16128895869144966 -0.2744011661782807
0.13502263162864736 0.11532022177447644 -0.2897622049163075
-0.13121613926632147 -0.1120691701684505 -0.28159336976178295
0.13502263162864736 0.11532022177447644 -0.2897622049163075
-0.13121613926632147 -0.1120691701684505 -0.28159336976178295
0.1920322426604518 0.16401102944252569 -0.25253910588263423
-0.20813535059913005 -0.17776438290888547 -0.273716093790629
1.3409419150705744 1.1452725899901717 -1.0806467855058206
-0.334555630612879 -0.2857375023195125 -0.26961381602845463
2.0116639228625264 1.7181233021605553 -0.8595793040937281
-0.36251902443969847 -0.3096204968870075 -0.15490353393880957
-0.6251032749473395 -0.5338886335524862 -0.06469793361128486
2.917929786022964 2.492147471780763 -0.3020045409207103
-0.6230462010844473 -0.5321317264976182 0.1297738685903388
3.038078034645059 2.5947637703211575 0.6327992032516754
2.690807829450311 2.298166995427388 1.4657553295475882
-0.617000044898517 -0.5269678212779195 0.3360965038985537
1.6054795358993148 1.3712090625184572 1.5339821272347898
-0.6039266978140939 -0.5158021280387536 0.5770318088095812
1.0268093921913417 0.8769780695231079 1.5810493153862002
-0.586630337239903 -0.5010296405435252 0.9032752330971014
0.6188266357425874 0.5285278772380808 1.5971937508886382
-0.29941765144623833 -0.2557268329870668 1.6401295244256848
0.2956959919341976 0.2525482354799596 1.619743272592916
0.07299897269760293 0.062347012639697684 1.605
-0.07299897269760271 -0.06234701263969794 1.603
0.0678822509939085 0.06788225099390863 1.6039999999999999
-0.06788225099390827 -0.06788225099390886 1.6039999999999999
0.0678822509939085 0.06788225099390863 1.6039999999999999
-0.06788225099390827 -0.06788225099390886 1.6039999999999999
0.27414577559855247 0.27414577559855297 1.614889527937727
-0.2781009448631854 -0.27810094486318776 1.6381879406626105
0.5700017510414259 0.5700017510414269 1.5820685849922609
-0.16218075909836438 -0.16218075909836577 0.4501408699024741
0.9341943908245106 0.9341943908245124 1.5468683461445707
-0.5725216996311661 -0.5725216996311709 0.9479993707291562
1.4477852450329272 1.4477852450329298 1.4875794999024032
-0.5877899596638173 -0.5877899596638225 0.6039461289194669
2.4388529831494634 2.4388529831494674 1.42864700089487
-0.6029827010711121 -0.6029827010711173 0.3532190884110959
3.1986814908112935 3.1986814908112993 0.7164708233294963
-0.607131950658675 -0.6071319506586802 0.13599113566250598
-0.6107032102595416 -0.6107032102595469 -0.0679718909356933
-0.35098044604109185 -0.35098044604109485 -0.1612775650659146
2.643707551765214 2.6437075517652184 -1.214799062182354
1.259598738031843 1.259598738031845 -1.09160754774652
-0.2909896119115873 -0.2909896119115898 -0.2521806723741654
0.17905376287584626 0.1790537628758466 -0.25322025985295954
-0.19596938536414168 -0.19596938536414338 -0.27714256259189135
0.11597141047889926 0.13578507564067865 -0.2913984303059814
-0.11239389675930091 -0.13159634525432626 -0.2824093020545956
0.11597141047889926 0.13578507564067865 -0.2913984303059814
-0.11271870941699971 -0.13197665201366074 -0.28322545060539867
0.18846138643056193 0.2206599325311915 -0.29018700866854885
-0.1702123917292534 -0.1992931050031758 -0.2620877715575459
1.14637888843986 1.3422372241303877 -1.0816906573961613
-0.2710616699979412 -0.31737243870683274 -0.25576611622184225
-0.31932577354012653 -0.3738824433980117 -0.15975909636616112
2.387381665697148 2.7952647874265426 -1.1944101265756044
-0.4792727611900005 -0.561156304488876 -0.05807944829025807
3.101391652474885 3.6312630706452773 0.7563533101183233
-0.5818576690175004 -0.6812677993084002 0.14190080560381077
2.2771732419630832 2.666227302315566 1.4523656559125864
-0.5365115119803975 -0.6281742710166368 0.34218340512833895
1.366483543391566 1.5999466638799436 1.528695652633142
-0.5665449891571758 -0.6633389547379188 0.6337982379181094
0.8773994026925261 1.0273027099499474 1.581808910799371
-0.552334478593533 -0.6467005846102399 0.9957695404166486
0.5282334573484991 0.618481914342618 1.5963040237275419
-0.1527211160685273 -0.17881345248505964 0.46151815773288557
0.2525482354799591 0.29569599193419804 1.619743272592916
-0.2557268329870641 -0.29941765144624066 1.6401295244256848
0.06234701263969756 0.07299897269760304 1.6039999999999999
-0.06234701263969729 -0.07299897269760328 1.603
0.056427384220077335 0.07766563145999501 1.6039999999999999
-0.05642738422007709 -0.0776656314599952 1.6039999999999999
0.056427384220077335 0.07766563145999501 1.6039999999999999
-0.05642738422007709 -0.0776656314599952 1.6039999999999999
0.22802172487973202 0.31384497959911584 1.6158602729701914
-0.23144647432805387 -0.3185587428219318 1.6401295244256848
0.47381616462626824 0.6521520026185902 1.5820685849922609
0.7773153300866469 1.0698827668363455 1.5483874653454455
1.201576353971207 1.653827969671644 1.4852300536647602
-0.5501812626415882 -0.7572595428818909 0.680061440571671
2.0207916428396278 2.781381082243711 1.4240563231720575
-0.5574328022018682 -0.767240430828242 0.392824123917901
-0.5647279253448396 -0.7772813064298388 0.1521714198213203
2.786610312654566 3.8354400537362774 0.7508791910838194
-0.5711709993222204 -0.786149436964564 -0.07647713575674334
2.758164091535321 3.7962871892820234 -0.36930532173031916
2.094765201639549 2.883196951168834 -1.157957724086142
-0.3761532267573922 -0.517730500635773 -0.20793238976031062
1.0455444150985402 1.439068429991242 -1.0900417101463553
-0.24581677937600976 -0.3383377708815941 -0.2562784887033636
-0.15364992065060287 -0.2114809728653221 -0.26140485840932715
0.16935560987898937 0.2330979995678108 -0.288124972885032
0.09330214430408472 0.1522552615953548 -0.2913984303059814
-0.0917312210576358 -0.14969174784528855 -0.2864921704170949
0.09330214430408472 0.1522552615953548 -0.2913984303059814
-0.0914696293971071 -0.14926486905271596 -0.28567517526840075
-0.1365836633286475 -0.22288428143708638 -0.26140485840932715
0.32338313743203034 0.5277133184074613 -0.6189167957003607
0.9178426830192318 1.4977831308037521 -1.0764713197794757
-0.2006328281117475 -0.3274030190475791 -0.2353077376594584
1.9296551995320856 3.1489110929332824 -1.1999707245264344
-0.29311875469399523 -0.47832633437649097 -0.18227812125592813
1.6941446357479424 2.764592782085475 -0.2551817046877875
-0.5492134661533107 -0.8962349213361401 -0.08272565728640822
2.731985205185903 4.458194666293519 0.8281438015691286
-0.5431012691352108 -0.88626072232009 0.16462971644388882
1.8320476188887742 2.9896299977839353 1.4523656559125864
-0.535902094805362 -0.874512737543992 0.4248392833255151
1.0968385340729974 1.7898778123348937 1.5251713500731165
-0.5278364403119767 -0.8613507856511631 0.7339649285469331
0.7052136626485004 1.150804105179231 1.5802897207526583
-0.5151246287803978 -0.8406069945568926 1.154325559591351
0.42521500831251197 0.6938878287072566 1.5971937508886382
0.2033036755693683 0.33176144597735857 1.6207140273543006
-0.0501598622127307 -0.08185345577799309 1.6039999999999999
0.050159862212731 0.0818534557779929 1.6039999999999999
0.04358308797499638 0.08553662632208338 1.6039999999999999
-0.04358308797499605 -0.08553662632208354 1.603
0.04358308797499638 0.08553662632208338 1.6039999999999999
-0.04358308797499605 -0.08553662632208354 1.6039999999999999
0.1761182275769536 0.3456514836534772 1.6158602729701914
-0.17876341764843298 -0.3508429614768239 1.6401295244256848
0.3659636517323169 0.7182441075228756 1.5820685849922609
0.5994952054788777 1.176575588272818 1.5461087877922142
0.9273332201478529 1.8199939199661028 1.4840553325589416
-0.5102780827235053 -1.0014771258821906 0.8166222165890233
1.5570348493611705 3.0558529527938725 1.4206133213425134
-0.5170528046661409 -1.0147732663386837 0.47175058570307665
2.209691664136466 4.336764073961401 0.7708989014413913
-0.5237110129285052 -1.0278407358222412 0.1827079547304717
-0.530408845335563 -1.0409859720684458 -0.09194924005399628
1.9312420125620675 3.790275862527236 -0.334791240713732
1.700386227265057 3.3371958730466798 -1.2169615372095823
-0.22619218036581898 -0.44392714944907785 -0.16188509357989966
-0.1735702905961251 -0.34065087576754133 -0.2342868648925582
0.4347454098971573 0.8532359086843067 -0.5868235788591128
-0.11836534478082286 -0.23230506915458515 -0.2607220742476562
0.27364463317091503 0.5370578318363427 -0.6027540957969525
0.06833546968443975 0.16497641770331054 -0.2913984303059814
-0.06718490901206722 -0.1621987185237372 -0.2864921704170949
0.06833546968443975 0.16497641770331054 -0.2913984303059814
-0.06718490901206722 -0.1621987185237372 -0.2864921704170949
-0.0995127778297202 -0.24024509786593437 -0.2600394200885711
0.22770661110320728 0.5497323887673811 -0.595026049849922
-0.15205032893684428 -0.3670819662826247 -0.24348208866419613
0.3560591287771779 0.8596027777006144 -0.570166608443378
0.4178263094055051 1.0087219428830714 -0.35475796976921636
-0.19495991055331177 -0.4706748601768571 -0.1655318980575669
-0.4988272003628977 -1.204275392396725 -0.1025875404024644
1.6500287130729243 3.983521697405693 -0.33934073190966246
1.7843966364137045 4.3079145602829145 0.7385233816595972
-0.4915706676326953 -1.186756572663666 0.203450524606682
1.3460521906672083 3.2496574543708014 1.4569563923646758
-0.49049362890866866 -1.1841563711689196 0.530906478223859
0.8024078979812276 1.9371840298615737 1.5234092029742439
-0.4777054779072199 -1.1532830435835466 0.906946358810765
0.5167541554969584 1.2475548906134168 1.5810493153862002
-0.4633831123534532 -1.1187057944183771 1.4177564800488036
0.311605420136153 0.7522820314016696 1.5980834794753205
-0.08999001697210077 -0.21725511945223358 0.46151815773288557
0.14899093309709135 0.3596959313536217 1.6216847840509907
-0.1508639102616253 -0.3642176982262582 1.6420711156583132
0.036737609507048505 0.08869243512108359 1.6039999999999999
-0.0367376095070482 -0.0886924351210837 1.6039999999999999
0.029665631459994818 0.09130142556433479 1.605
-0.02966563145999448 -0.0913014255643349 1.603
0.029665631459994818 0.09130142556433479 1.605
-0.02966563145999448 -0.0913014255643349 1.603
0.11987811500834425 0.3689469010287847 1.6158602729701914
-0.12175063406495511 -0.37470992210236753 1.6411003191099618
0.24938007079629806 0.7675129383893697 1.5838479945040649
-0.07018704384615454 -0.21601350936831126 0.4457678124837239
0.40805745196332033 1.2558717021291992 1.5461087877922142
-0.4242959461993078 -1.3058486485078298 1.6076356108363323
0.6314562534332817 1.9434225156379854 1.4846426929437688
-0.4476438316340278 -1.3777060511381225 1.05247377005672
1.0615368396071996 3.267074455364143 1.4229086552775783
-0.4598925236014677 -1.415403648758244 0.6164506288562964
-0.46393351499135677 -1.4278405414327724 0.2377857899638497
1.3563755695003934 4.17449476047809 0.6952005532243616
-0.47011323622369294 -1.4468597677338662 -0.11973035388066261
1.268029923534077 3.902594820306444 -0.32294702590284413
0.32890261601043036 1.0122581666291808 -0.3458286761881159
-0.2312576443260549 -0.7117378447882419 -0.2431586770751814
-0.11891604786161304 -0.3659859628096374 -0.23581825329536565
0.2998553998990884 0.9228600278025312 -0.5946327507257472
-0.08014568876856171 -0.2466630668985783 -0.2593568969586126
0.18235367500314145 0.5612269035005778 -0.5901088882570757
0.04168614900874254 0.17363530688207132 -0.2913984303059814
-0.03888531229884626 -0.16196898237828172 -0.2718197587276634
0.04168614900874254 0.17363530688207132 -0.2913984303059814
-0.03876901657911464 -0.1614845758436211 -0.27100681747530664
-0.06038636414889338 -0.25152730870598705 -0.2586745058949574
0.135954619618148 0.5662917458382057 -0.5823830354672103
-0.08983454168115165 -0.37418779581068673 -0.23581825329536565
0.22196290283398917 0.9245420281430229 -0.582658998010581
0.24094788221651992 1.0036201584002502 -0.33536203677224735
-0.17205841864567295 -0.7166748916269572 -0.23947860089085068
0.9267504704091669 3.8601935213265146 -0.3124364631492196
-0.4269385067937707 -1.7783268641908758 -0.14393427497907113
0.9868627068434338 4.110579005925789 0.6695515169752201
-0.41907181962892676 -1.7455597539517775 0.28432543920076736
0.8224152706727299 3.425606137851993 1.4592517640472646
-0.41353702558473227 -1.722505677591996 0.733759033425736
0.4898640413725045 2.040430578904469 1.5245839673962762
-0.40268286935496567 -1.6772948631436226 1.2532535452972255
0.31477712626940363 1.311141091679678 1.578770533828966
-0.33416373668903504 -1.3918921356034213 1.6760044391132642
0.1901920333337062 0.7922068327179207 1.5989732094852087
-0.18648808102093767 -0.7767787610011309 1.5678335218047466
0.09088776687593583 0.3785747944723695 1.6216847840509907
-0.0917038746255599 -0.381974127894253 1.636246364395681
0.02241075493016678 0.093347512358177 1.605
-0.02241075493016648 -0.09334751235817706 1.6039999999999999
0.015017708643862022 0.09481808069713325 1.6039999999999999
-0.015017708643861677 -0.09481808069713331 1.6039999999999999
0.015017708643862022 0.09481808069713325 1.6039999999999999
-0.015017708643861677 -0.09481808069713331 1.6039999999999999
0.0607591213661797 0.3836179945560455 1.6178017688899984
-0.06112370558288302 -0.3859198887064919 1.6275093646786138
0.1262443123738969 0.7970752184698084 1.5838479945040649
-0.1244005332981856 -0.7854340555378285 1.5607161342526465
0.20677493544739797 1.3055255618778556 1.5476279053293895
-0.22382552349904014 -1.4131787380150462 1.675244755088814
0.3190313849515363 2.014284889966659 1.4817058943892705
-0.33989926040007007 -2.1460394701879406 1.578624428157295
0.5385403431194179 3.4002099070838754 1.4259691043642864
-0.3534954017483553 -2.2318821282194157 0.9359995548490084
0.6677959669416591 4.2162977977718255 0.6761201276703077
-0.3576858361398713 -2.258339489705997 0.3621444350799501
0.6592241503575781 4.162177477830567 -0.33165367874534135
-0.07679835847806923 -0.4848857521654827 -0.03863702216771029
0.1579056312438876 0.9969769184418238 -0.32797535839711156
-0.11633185217728914 -0.734490407889337 -0.24162520747545535
-0.061111808598427485 -0.3858447741028657 -0.23939331057349458
0.14741110718447573 0.9307171012659178 -0.5774535850523517
-0.040572357430213306 -0.25616378317895505 -0.2593568969586126
0.09132450600600284 0.5766002381223562 -0.5837876326199466
-0.012990878133926126 -0.1650647572723705 -0.2701941209425604
0.04967780726443353 0.6312163899461333 -1.033236654657958
-0.012990878133926126 -0.1650647572723705 -0.2701941209425604
0.049636941447288474 0.630697140506777 -1.0323866964467983
-0.019760558382783983 -0.2510817005128017 -0.2518580949661939
-0.030781226818051934 -0.39111256998082283 -0.24041521099666618
0.07306712612510878 0.928405864029552 -0.5706870830107842
0.07793371405167654 0.9902417265911191 -0.32274395289757174
-0.05605081660499752 -0.712193151412922 -0.23212113440710938
0.3227334480769435 4.100717266477343 -0.32373140395545913
-0.0362193085477388 -0.4602099498102793 -0.036331305838682174
-0.20316825880015696 -2.5814974922070775 0.4101333397136627
0.33152161426026583 4.212381505258165 0.6692387267912996
0.2769868209622474 3.5194512563685603 1.462312263184232
-0.23532242336437476 -2.990054890280707 1.2423510414413252
0.16527365025808766 2.1000008376742407 1.5304578080750388
-0.1861442339164452 -2.3651867466008905 1.723722419034791
0.10604854592733069 1.3474745365263197 1.582568506991049
-0.11225881822160769 -1.4263835277648524 1.675244755088814
0.06399313919661906 0.813109928342786 1.6007526737651105
-0.06249930093898134 -0.7941289135985405 1.5633851431969472
0.030528356670206543 0.38789955011061744 1.6207140273543006
-0.030363788594590345 -0.38580851444881453 1.6119773045924006
0.007532073189872951 0.09570406403838029 1.605
-0.007532073189872665 -0.09570406403838032 1.6039999999999999
-1.6465195194651677e-16 0.096 1.605
4.939558558395502e-16 -0.096 1.6039999999999999
-1.6465195194651677e-16 0.096 1.605
4.939558558395502e-16 -0.096 1.6039999999999999
-6.661540830721627e-16 0.38839984111272796 1.6178017688899984
1.9744794878670532e-15 -0.38373880700952334 1.5983871646115366
-1.3872341653536863e-15 0.8088241791218632 1.5874068310511462
4.0893950919759655e-15 -0.7947712820661721 1.5598264676568645
-2.272613261038438e-15 1.3250427370005162 1.5514257136976235
7.33192430897123e-15 -1.4249547309544839 1.6684076284680651
-3.524158000014022e-15 2.054753460264115 1.4928657734480497
1.2182437792452597e-14 -2.3676488784360883 1.7201976015680092
-5.915565531587618e-15 3.4490589654040553 1.42864700089487
1.342271625713472e-14 -2.608696193093615 1.0805573432904336
-6.913467529099062e-15 4.030883782107209 0.6384292718422944
1.2978501929940127e-14 -2.522363426903 0.3995031196651072
-6.805422628037096e-15 3.967888412909777 -0.31227959058563354
2.149993831956835e-15 -0.41784990587276294 -0.032885500788693414
-1.6809010582918946e-15 0.9800460892710092 -0.31843627762018645
2.722498124298782e-15 -0.5291157435282628 -0.1719201266592528
2.0529809412655135e-15 -0.39899551352926566 -0.2445047651550323
-1.5841453511838802e-15 0.9236328626280202 -0.5660029461703956
1.3029128142873052e-15 -0.2532202598529582 -0.25322025985295954
0.01295181572322804 -0.16456842228453222 -0.26938167134430563
-0.01271769670684578 0.1615936581297533 -0.2645122867518958
0.012912765292835355 -0.16407223952092706 -0.2685694709215471
-0.012600806499466403 0.16010842722313706 -0.2620811157021743
-0.0828904101125351 1.0532225215553312 -1.0564792946385677
0.01981398988347105 -0.2517606120998624 -0.25253910588263423
0.03163227422955688 -0.40192615263154857 -0.2470622736434424
-0.04766418107807287 0.6056308433600833 -0.37227866902780093
-0.26223452681282305 3.332005586577543 -1.0859819630009044
0.03799098259836075 -0.48272120302319316 -0.15733062446024976
-0.30858013717844246 3.9208824005060694 -0.3095343282104558
0.030580537292272603 -0.38856256777781795 -0.030675098383290682
-0.31300569484500057 3.9771144422891025 0.631860861210795
0.1960438453337046 -2.490973236076869 0.395751371261687
-0.2779288523272495 3.5314208997600107 1.4672855828986586
0.2023577246249359 -2.5711986790307426 1.0683186342263167
-0.16616169566939712 2.1112845244852614 1.5386812365013465
0.1860173525189951 -2.3635745655873928 1.7225474790176871
-0.10594674429286133 1.3461810241162118 1.5810493153862002
0.11195337877179223 -1.4225025515808216 1.6706866647362786
-0.06402870801972582 0.8135618730913674 1.6016424080303908
0.062428168398229476 -0.7932250889722477 1.5616058023763266
-0.030546642195091653 0.3881318897334981 1.6216847840509907
0.029833534349703778 -0.3790709954510141 1.5838267394623637
-0.0075320731898733 0.09570406403838028 1.605
0.007532073189873565 -0.09570406403838025 1.6039999999999999
-0.015017708643862348 0.0948180806971332 1.605
0.015017708643862733 -0.09481808069713313 1.6039999999999999
-0.015017708643862348 0.0948180806971332 1.605
0.015017708643862733 -0.09481808069713313 1.6039999999999999
-0.060649747520219635 0.3829274352704409 1.614889527937727
0.05915503945010348 -0.37349021992873827 1.575090707522979
-0.1263861448409478 0.7979707134234634 1.5856274098635819
0.12432962033936479 -0.7849863287366069 1.5598264676568645
-0.20677493544740244 1.3055255618778552 1.5476279053293895
0.22260753514946072 -1.4054886622279306 1.6661285981710476
-0.3225724705385871 2.03664242445545 1.498152073775843
0.36924347729994084 -2.3313115640862905 1.7149103899705604
-0.538829300426954 3.4020343117219314 1.4267342173187278
0.4898526526440791 -3.0928079275990217 1.2970518500346093
0.49387743866465333 -3.118219426432664 0.5000336830614411
-0.6219190997099232 3.9266426577988174 0.6296713995177551
-0.5639660662222514 3.560741604836021 -0.28372962436022553
0.056448890986984225 -0.3564042709707842 -0.02839926654199823
-0.35229842859716787 2.224324737172978 -0.7317357998679069
0.07064073641091717 -0.4460080565121714 -0.14672320840807368
0.06398403673169291 -0.403979308829734 -0.25064469090919866
-0.19728826018372914 1.245629051562608 -0.7728373750647114
-0.16604249181567662 1.0483510342016336 -1.0614188617129456
0.03939928635208949 -0.2487573038826111 -0.2518580949661939
0.05911309569706213 -0.24622376391629963 -0.25322025985295954
-0.24712438449583174 1.029347141924215 -1.0585962403107265
0.09782403467958553 -0.4074664291601846 -0.2567909019931498
-0.29480826688140227 1.227964806261849 -0.7738801718358488
0.10889768099055208 -0.4535914855933151 -0.15156866190650836
-0.5257309175991275 2.1898268702050516 -0.7317357998679069
-0.9169788607841033 3.819491838001766 -0.30914214903985
0.08020668678314298 -0.33408489401753133 -0.027040173530613654
-0.9280827628578009 3.865742918756444 0.6296713995177551
0.73839046050678 -3.0756176153857733 0.5009718672353951
-0.8219840566768194 3.4238100022939153 1.4584866398981025
0.7322950477566074 -3.0502283940588724 1.2993470310537447
-0.495903511507711 2.0655867824700818 1.5433803650944937
0.5527166539095518 -2.3022305514545445 1.7201976015680092
-0.3149285748294556 1.311771920332023 1.5795301268998714
0.33295200680200254 -1.38684491738349 1.6699269853182506
-0.1902978636433887 0.7926476476824977 1.5998629409159282
0.1941078650157005 -0.8085174455226192 1.6318941990903157
-0.0907789543357173 0.3781215576236085 1.619743272592916
0.08773238558251292 -0.36543168549631594 1.5653842057959197
-0.022410754930167098 0.09334751235817691 1.605
0.02241075493016744 -0.09334751235817683 1.6039999999999999
-0.029665631459995147 0.09130142556433468 1.6039999999999999
0.029665631459995505 -0.09130142556433457 1.605
-0.029665631459995147 0.09130142556433468 1.6039999999999999
0.029665631459995505 -0.09130142556433457 1.605
-0.1198781150083456 0.36894690102878425 1.6158602729701914
0.11598935541537679 -0.3569785296494672 1.5634429310977838
-0.24909989916899244 0.7666506587844181 1.5820685849922609
0.2455978327996166 -0.755872406773285 1.5598264676568645
-0.40785698540616283 1.2552547295064658 1.5453492302735476
0.44013472987501867 -1.3545954122753943 1.6676479510377173
-0.6384512510756054 1.9649509047243205 1.501088918759666
0.7286453612698159 -2.2425398328191815 1.7131479900228404
-1.0609660411004425 3.265317718196811 1.4221435436908698
0.978487993032414 -3.011476387479453 1.3115880508548043
-1.2410346752504975 3.819511989082065 0.6360834065468635
0.47033035571444975 -1.447527992816113 0.24106444471815874
-1.2246050780575566 3.76894688827893 -0.31188740937750875
0.1005630918165923 -0.3095013721313632 -0.02561181784042465
-0.7308679455184479 2.2493802437712107 -0.7684800356192805
0.1223246637423817 -0.3764766037904191 -0.12861976301776135
0.13362893822339045 -0.41126758326032925 -0.26499487132489463
-0.3912961906775522 1.2042858442076825 -0.7759657831388086
-0.3295229057651867 1.0141672221956601 -1.0663585231994002
0.07867047111869269 -0.24212281382381673 -0.25458299236202003
0.03295987571079479 -0.07957217895513108 -0.14054862122931536
-0.03135607448723591 0.07570026028986546 -0.1337096375913028
0.03295987571079479 -0.07957217895513108 -0.14054862122931536
-0.03135607448723591 0.07570026028986546 -0.1337096375913028
0.10396037598150862 -0.25098254964396033 -0.27166155414412324
-0.40672750283047493 0.9819270535234682 -1.0628301839899004
0.16068146986823634 -0.3879193837779339 -0.25730335584739494
-0.49206637580209456 1.1879533180491857 -0.787958498869656
-0.5317933370129038 1.2838626865961906 -0.45152236785644395
0.14511892805281323 -0.3503480842621416 -0.12321410866718831
-1.2434786762509893 3.0020230847268636 -0.2557306795754023
-1.3063971478297498 3.1539217121360927 0.5406896761163732
0.5564251853171692 -1.3433292288386514 0.2302924143182054
-1.3022259788531403 3.143851619421812 1.4095192425287544
1.2287133514372026 -2.9663764373085466 1.3299497479907323
-0.8119989091613018 1.9603387791293616 1.5416181896184473
0.9057505687043854 -2.1866753070932368 1.7196101327453213
-0.5160093527715126 1.245756777772341 1.578770533828966
0.5465480451132309 -1.3194837030008433 1.6722060255536957
-0.3112584494909911 0.7514443701643672 1.5963040237275419
0.3046662231819948 -0.7355293280029485 1.5624954720252948
-0.14872337125223217 0.3590499799189857 1.6187725197703184
0.14283743296882165 -0.3448400678878817 1.5547073021382378
-0.0367376095070488 0.08869243512108345 1.605
0.036737609507049115 -0.08869243512108332 1.6039999999999999
-0.04358308797499667 0.08553662632208323 1.605
0.043583087974997006 -0.08553662632208306 1.6039999999999999
-0.04358308797499667 0.08553662632208323 1.605
0.043583087974997006 -0.08553662632208306 1.605
-0.17590661803975077 0.3452361765526949 1.6139187848615846
0.17061666557033076 -0.33485406026258513 1.5653842057959197
-0.36761010982378595 0.7214754634700606 1.5891862580471818
0.36143600484955746 -0.7093581001855415 1.5624954720252948
-0.5989061772758778 1.1754195553335616 1.5445896735898006
0.647799594229791 -1.2713782890973426 1.6706866647362786
-0.9335725978130979 1.832239388119711 1.4940405045497285
1.071219220588716 -2.1023860960264225 1.7143229231029025
-1.2258239158985333 2.405814895241911 1.1184218421701804
0.6873719894818686 -1.3490434877470712 0.627147045152056
0.6359461479469617 -1.2481145908962212 0.22186361780016808
-1.1464732864131109 2.250080516195375 0.3999720917502544
-1.1291456075593727 2.216073031641009 -0.19574349379431347
-0.6360548446759278 1.248327920238416 -0.4552226247865004
0.1621211010961897 -0.31818057617543977 -0.11602960623920171
0.18682683131546482 -0.36666830184996446 -0.2521806723741654
-0.594185861489465 1.1661554139818462 -0.8020378497595049
-0.48475737789158674 0.9513899224711533 -1.0677698722103024
0.1255088738798283 -0.2463250344106684 -0.2764570491052822
0.08547272549797011 -0.13947881130735668 -0.2669458266994176
-0.07977720125543666 0.13018456046309657 -0.2491577379430146
0.08547272549797011 -0.13947881130735668 -0.2669458266994176
-0.07874661000318126 0.1285027883893634 -0.24593902656789832
-0.5564333739829661 0.9080167401088627 -1.064947181788846
0.14373222308943062 -0.234549670743256 -0.2750863500793895
0.20978284560694582 -0.34233449053436865 -0.2460391316023257
-0.702080490791897 1.1456912333989593 -0.8234194448530948
-0.7265823038433499 1.1856745583646866 -0.4518307176237513
0.17699554662477243 -0.28883048137391365 -0.11006602338738011
-1.0788764938982132 1.760566426771382 -0.1625065162981095
1.3215411841567763 -2.1565592109763867 0.4005973890708814
-1.0889940945146377 1.7770768504069896 0.33010563439574336
-1.1107535823722134 1.812585107378433 0.8805559083653959
1.7630407916732822 -2.8770210903688866 1.3976601205116603
-1.087967746533607 1.7754020027225639 1.5128363795306126
1.2400505236665587 -2.0235785391701877 1.724309889365639
-0.704874689385555 1.1502509510881929 1.5795301268998714
0.7465708712719802 -1.2182929358463763 1.6729657069512853
-0.42616248723901334 0.6954339737919812 1.6007526737651105
0.4166879762064917 -0.679972976978836 1.5651644900979182
-0.20306013129116413 0.3313640178360778 1.6187725197703184
0.19660657424234554 -0.32083276987797915 1.5673254890855033
-0.0501598622127313 0.08185345577799272 1.605
0.05015986221273155 -0.08185345577799258 1.605
0.05642738422007789 -0.07766563145999461 1.6039999999999999
-0.05642738422007763 0.0776656314599948 1.6039999999999999
-0.05642738422007763 0.0776656314599948 1.6039999999999999
0.05642738422007789 -0.07766563145999461 1.6039999999999999
-0.2278847384333036 0.3136564339308997 1.614889527937727
0.2235013206797961 -0.3076231769850975 1.5838267394623637
-0.47594784752544333 0.6550860124211874 1.5891862580471818
0.4684870812281959 -0.6448171485767907 1.5642748158886857
-0.7776966418080373 1.0704075973957228 1.549147026191516
0.8383301175353227 -1.1538624171620775 1.6699269853182506
-1.123649930011645 1.546571448606719 1.388907696407266
1.3916690933515588 -1.9154681793675712 1.7201976015680092
-1.0450293280368705 1.4383594734720804 0.736434470007974
1.7374330540354652 -2.3913714436033993 1.2243729013103775
-1.0169079634006897 1.399653735607863 0.2740157192046014
0.9270712874237695 -1.276004158997995 0.24980835505293722
-1.0211441931751986 1.4054844056804592 -0.1367264500146882
-0.838009546485005 1.1534211889642019 -0.4632402841381585
0.18997697228875018 -0.26148086996408554 -0.10501668744930222
0.2310912304057208 -0.3180697915098684 -0.24092623551294465
-0.8208230831462651 1.1297660515479198 -0.8557564694140973
-0.6309377085865143 0.8684112550419834 -1.073415343657806
0.15445280843011885 -0.21258605308921055 -0.2627708126866459
-0.41526923082392936 0.4862177987300831 -1.0434364945357117
0.10979855802296735 -0.12855759402097233 -0.27588806004540317
-0.41526923082392936 0.4862177987300831 -1.0434364945357117
0.10979855802296735 -0.12855759402097233 -0.27588806004540317
0.17731953695110905 -0.20761450290248004 -0.27303113375584187
0.25208560247760614 -0.2951543182841198 -0.23786083625039822
-0.17126050891529512 0.2005202925556849 -0.16159656666976763
-0.9592102786151617 1.123090938527244 -0.47989413957352894
0.20339838416601966 -0.23814890984877296 -0.10176047393999943
-0.9886634234301095 1.157576140354475 -0.1198086576733585
-1.0230469872107746 1.1978341210884695 0.2494960527045883
1.5170020594886946 -1.7761812031441464 0.3699595722568517
-1.0426127604082638 1.2207426981474059 0.6649713503254497
1.99347141536921 -2.3340551417427626 1.2714225542320898
-1.0662089690264402 1.2483703087698985 1.1927761762163616
1.5497430242231318 -1.8145159474975674 1.7337094436925538
-0.8744500796098282 1.0238494962982372 1.5764917593188397
0.9292264934428315 -1.0879844366678033 1.675244755088814
-0.5305888296299173 0.6212397009563454 1.603421880799817
0.5185178708984011 -0.6071064241629837 1.5669438430585259
-0.25269959428244426 0.295873210322413 1.6207140273543006
0.24831031376129187 -0.29073402312867375 1.5925629393763951
-0.06234701263969782 0.0729989726976028 1.6039999999999999
0.06234701263969804 -0.07299897269760262 1.6039999999999999
-0.06788225099390874 0.06788225099390839 1.6039999999999999
0.06788225099390897 -0.06788225099390816 1.605
-0.06788225099390874 0.06788225099390839 1.6039999999999999
0.06788225099390897 -0.06788225099390816 1.605
-0.27431057055525443 0.274310570555253 1.6158602729701914
0.27332180580867954 -0.2733218058086763 1.6100358321910002
-0.5738483914827366 0.5738483914827336 1.5927451293867936
0.5632703143389803 -0.5632703143389735 1.5633851431969472
-0.9305246671788937 0.9305246671788889 1.540791902738078
1.0108066882924795 -1.0108066882924673 1.6737253890069317
-1.0374577613605027 1.0374577613604974 1.0659736332507095
1.6844721750546467 -1.6844721750546265 1.7307720771185908
-1.004746282849147 1.0047462828491418 0.5885667457490728
2.093400221506014 -2.0934002215059886 1.2262854582833695
-0.9807543803234886 0.9807543803234835 0.2196786083181272
0.780206585861821 -0.7802065858618116 0.17475802343725394
-0.9477263202740422 0.9477263202740374 -0.1054829072393045
0.7797716344095639 -0.7797716344095545 -0.08678937919174877
-0.9222404404900754 0.9222404404900705 -0.4237748692989613
0.21824208678643653 -0.2182420867864339 -0.10028351365106904
-0.19508231810650578 0.19508231810650478 -0.1690644206342203
0.269164333857632 -0.2691643338576288 -0.23326620577776838
-0.16944099267886742 0.16944099267886653 -0.23962574986841523
0.204221081184094 -0.20422108118409152 -0.28881222273304236
0.13197665201366085 -0.1127187094169996 -0.28322545060539867
0.13159634525432634 -0.1123938967593008 -0.2824093020545956
0.19825462062153193 -0.1693254422767356 -0.2607220742476562
-0.18479273069623975 0.15782790210170924 -0.24301851781294428
0.28059516974240745 -0.2396509149113304 -0.22612781717292516
-0.21226495997245376 0.1812914025131475 -0.17106143382629702
-0.9109748098931248 0.7780459900734664 -0.3892574123517542
0.5231536781387904 -0.44681545202750683 -0.22354234694864802
-0.9322287447575002 0.7961985653312279 -0.09648529428026555
1.8382250516556278 -1.5699925121541372 -0.19025554195766203
-0.9595428385957588 0.8195270053194211 0.19986252388022832
2.479494059822096 -2.1176879862154254 0.5164521278354807
-0.9774321435939629 0.8348059151947522 0.5324335532488186
2.0566898533634226 -1.7565790797463685 1.1203342285538478
-0.995885695201977 0.8505667372013603 0.9515355524932875
1.8225090866162776 -1.5565698099606091 1.7413466214169695
-0.9804398894284635 0.8373747728187823 1.5096509904823017
1.0894645638634766 -0.9304906414926642 1.6775238091247273
-0.620894975709305 0.5302944064546223 1.602532143709411
0.6067617221061266 -0.5182234675293881 1.5660541658220584
0.2955187738999231 -0.25239687697976665 1.6187725197703184
-0.2958732103224144 0.2526995942824426 1.6207140273543006
-0.07299897269760316 0.062347012639697406 1.6039999999999999
0.07299897269760332 -0.062347012639697226 1.6039999999999999
-0.07766563145999512 0.05642738422007719 1.6039999999999999
0.07766563145999529 -0.056427384220076954 1.6039999999999999
-0.07766563145999512 0.05642738422007719 1.605
0.07766563145999529 -0.056427384220076954 1.6039999999999999
-0.31403352564661924 0.22815871160172962 1.6168310199554536
0.3170503134376116 -0.23035053622985147 1.632363234457249
-0.6565530316725717 0.47701369940097094 1.5927451293867936
0.644450412372629 -0.46822063177930123 1.5633851431969472
-0.9948383440530799 0.7227923654449872 1.4397794503520895
1.158586645942975 -0.8417624706566504 1.6767641237921984
-0.9772397089184401 0.7100062085848221 0.8776159382577364
1.9409804544257885 -1.4102048461674888 1.7431090520626604
-0.9504589662527966 0.6905488601066645 0.48663130322149545
2.000673727337363 -1.4535745475735775 1.024337186373848
-0.9308708209279806 0.6763172394834364 0.18224024342162037
2.45989366658899 -1.7872173631479185 0.4815830623454059
-0.9042073205616136 0.6569450725217844 -0.08796188454174106
1.7873198947074884 -1.2985639146550376 -0.1738716582384755
-0.8825445368094234 0.6412061388508347 -0.35445003603871167
0.5581229748224092 -0.40550007706534047 -0.224154929625443
0.2783923592879329 -0.20226388849442895 -0.2108720315765267
-0.23839565108497499 0.17320457900476058 -0.18057598776015193
0.22199520671453293 -0.16128895869144738 -0.2744011661782807
-0.20541067348043932 0.14923958998976117 -0.25390155572583706
0.14883809942344922 -0.0912081046319379 -0.28485838904526745
-0.1845615222374013 0.11309944628738434 -0.35322876405935627
0.14883809942344922 -0.0912081046319379 -0.28485838904526745
-0.17893265694068086 0.10965007319722057 -0.34245578653016334
0.23279731075936488 -0.1426583755101934 -0.27303113375584187
0.27789482576952795 -0.17029416825157334 -0.1997257170972945
-0.26314516735489896 0.1612555659502953 -0.18912499397967522
-0.8630814834548921 0.528897013290136 -0.3288986200185038
0.5801808691898617 -0.35553529390325284 -0.22109231966584553
-0.8835384663422771 0.5414330685264905 -0.08155372952553869
1.7554718532234483 -1.0757545352127804 -0.16203626911702523
-0.9080673398069639 0.5564643815178352 0.1686804626442467
2.4107264001879116 -1.477295038024872 0.4478108909619403
-0.9192537402541545 0.5633194165283225 0.4465745133691995
1.9605604155766514 -1.2014329678613074 0.9524424815230986
-0.9335820666827145 0.5720998262564702 0.795513867613725
2.0594292820665308 -1.2620198871688062 1.754858637200548
-0.946737193337931 0.5801612982388674 1.3000640579511493
1.2243783636069032 -0.7503000261997796 1.6813222455602883
-0.6954339737919837 0.42616248723900957 1.6007526737651105
0.679972976978841 -0.4166879762064835 1.5651644900979182
-0.3319601606425932 0.2034254480728382 1.6216847840509907
0.33553709155752715 -0.2056173941566302 1.6391587316087946
-0.08185345577799301 0.05015986221273085 1.6039999999999999
0.08185345577799318 -0.05015986221273056 1.605
-0.08553662632208345 0.043583087974996236 1.6039999999999999
0.08553662632208361 -0.0435830879749959 1.6039999999999999
-0.08553662632208345 0.043583087974996236 1.6039999999999999
0.08553662632208361 -0.0435830879749959 1.6039999999999999
-0.34585913783083483 0.1762240326650104 1.6168310199554536
0.35105062585756086 -0.17886922793537122 1.6411003191099618
-0.7238990080572626 0.36884496746894513 1.5945245736916511
0.7097620024453685 -0.36164180333003604 1.5633851431969472
-0.9494755801810675 0.48378197177573834 1.2476823018800114
1.271378289097351 -0.6477995942297746 1.6706866647362786
-0.9238282058523454 0.4707139818425444 0.7533059095543938
2.1484953577969996 -1.0947130629181914 1.7519212332182654
-0.9015624457664093 0.4593690104264228 0.419120828214894
1.919642973699373 -0.9781069490429783 0.8924089027796973
-0.8858346989998966 0.451355323185681 0.15746510178357545
2.362649577016201 -1.203830087726981 0.4199822568971417
-0.861401866894096 0.4389061734245511 -0.0760867573312487
1.7084765540771112 -0.8705122841668181 -0.15090800934167775
-0.8420151696425262 0.4290281577932327 -0.307054219825119
0.5953726252845449 -0.3033575045147807 -0.21711209435762346
-0.28598943144092986 0.14571889360559484 -0.19669277859254264
0.37560701656144285 -0.19138133394672727 -0.25832838428361543
-0.24937997666571282 0.12706544470550654 -0.27988569095257515
0.23778441870830846 -0.12115721282512026 -0.2668716920169698
0.1608114389231018 -0.06661027898668018 -0.2840418135500443
0.1608114389231018 -0.06661027898668018 -0.2840418135500443
-0.27191031879993904 0.11262894179612576 -0.29431360824807345
0.240875788071297 -0.09977401826643681 -0.2607220742476562
0.38637425884298277 -0.16004145816461332 -0.2562784887033636
-0.3217449205164957 0.13327110970258488 -0.21341044360685685
-0.8293639789425409 0.34353380822171153 -0.29167946969453445
0.2750926712876628 -0.11394711535679158 -0.09674749146972211
-0.8473695213588532 0.35099194808843204 -0.07218411632177657
1.6868855101044284 -0.6987308564558982 -0.14369922072206603
-0.8685710773884617 0.35977392013930887 0.14890268604642876
2.3340073880747756 -0.9667775148195582 0.40012841595128146
-0.8795709278073459 0.36433020736688604 0.3943481747848293
1.8923956263982473 -0.7838559338296686 0.848439548930154
-0.8893562982192161 0.3683834405043271 0.6993933196564053
2.217303836032317 -0.9184373207864585 1.7436965293602447
-0.8994638577016854 0.37257012872445855 1.1399071312482618
1.2541480182185765 -0.5194851183694644 1.5894049075648031
-0.7527008630258213 0.3117789058752259 1.5989732094852087
0.7376233547795796 -0.3055335974728375 1.5669438430585259
-0.359695931353622 0.14899093309709074 1.6216847840509907
0.36443302505263064 -0.1509531015534508 1.6430419140674353
-0.08869243512108364 0.03673760950704835 1.6039999999999999
0.08869243512108377 -0.03673760950704805 1.6039999999999999
-0.09130142556433483 0.02966563145999468 1.6039999999999999
0.09130142556433495 -0.02966563145999433 1.605
-0.09130142556433483 0.02966563145999468 1.6039999999999999
0.09130142556433495 -0.02966563145999433 1.6039999999999999
-0.3691685502009854 0.11995013319004535 1.6168310199554536
0.37493158259123244 -0.12182265592366325 1.6420711156583132
-0.76794407925509 0.24952015695542024 1.5847377014540902
0.758028020717449 -0.24629823422753905 1.5642748158886857
1.2891892038744621 -0.4188829645096228 1.587126100427172
-0.8716869068520527 0.28322824498456783 1.073137315382175
-0.8825445368094236 0.286756102812126 0.6742040329513321
2.214855898388643 -0.7196503057040821 1.691999346002549
-0.8634611205434763 0.28055552499590836 0.376063147229391
1.8585272506268804 -0.6038721097142505 0.809444212893358
-0.849274502126407 0.2759460132492621 0.14143414654807324
2.29284240883713 -0.7449896589892682 0.38183909731325055
-0.8279903263727109 0.2690303653288034 -0.0685177492644228
1.6598195443190404 -0.539308062141571 -0.13735317399185093
-0.3612333308037485 0.11737182411395372 -0.23275595721826917
0.34067540124378687 -0.11069214788615214 -0.2195097250322523
-0.3008895424482827 0.09776493873195319 -0.3163739875527072
0.2538100617074517 -0.0824678881508385 -0.2668716920169698
0.16876528120293016 -0.04051695928700516 -0.28322545060539867
-0.2906682403372286 0.06978327044416172 -0.4878055649799172
0.16876528120293016 -0.04051695928700516 -0.28322545060539867
-0.29116911098245024 0.06990351884712617 -0.48864613664949735
0.260828149297256 -0.06261929841644669 -0.2682396316728764
