-0.30122407931561945 -2.8303118718331373 1.2717196083260105
0.44090563471329336 4.142764599438219 0.6598550559930344
-0.3049666070608779 -2.865476792021909 0.4564100381911055
0.42112885726827987 3.956941314273249 -0.2503555890596528
-0.04880575859233194 -0.458580596450134 -0.029014384151079188
0.4222428377550867 3.9674083134718625 -0.31400519129289856
-0.04916439267864601 -0.46195033473415476 -0.03656160187330955
0.06114129606156824 0.5744857333300927 -0.09150346504967749
-0.05321823219521519 -0.5000403510977872 -0.07964588524222636
0.05978702865622582 0.5617609899308075 -0.13562854196819701
-0.05573151687861522 -0.5236552609445866 -0.12642850039237846
0.05965529511365839 0.5605232170067626 -0.14473067733308037
-0.05601896228914838 -0.5263561079677871 -0.13590851139295929
0.05537021637641631 0.5202604689246348 -0.3011564105456633
-0.04453818362913093 -0.4184823144345389 -0.2422414140986827
-0.28116861471185917 -2.9744532504782653 0.9707667437754013
0.04479317657630251 0.5691512723621373 -0.09042345105537852
-0.03831336096916591 -0.4868174086052163 -0.07734272461032343
0.3120988821709464 3.9655922947953974 -0.3130639538609015
-0.03568386391363728 -0.45340648066449885 -0.0357942055034954
0.3247039717020444 4.125755143095343 0.6554760331112419
-0.20223896767398905 -2.569689728898477 0.4082573908061299
0.30688597964605263 3.8993560880443727 1.7476121120340098
-0.24687532870343978 -3.1368484708165223 1.4058717022593532
0.29340890933107033 3.728113673378382 1.9054426389409629
-0.24476850261405056 -3.110078707181227 1.589564347633032
0.26208093057060994 3.330053961277431 1.9227270219174994
-0.23257974150336339 -2.955205813028502 1.7062948943499703
0.1579813614851009 2.007343523529361 1.8177873549917887
-0.1470400426301323 -1.8683208860744294 1.6918928135438678
0.03729499261106972 0.5927869325082882 -0.11330373415538565
-0.03103909324774289 -0.49335225953920947 -0.0942980524608778
0.1739907721050693 3.4052222523724818 1.9626241675801213
-0.15506857430078108 -3.034890606347021 1.7491808782315605
0.19898887378513802 3.8944671190866504 1.7423103301256782
-0.16266003279656485 -3.183465172026841 1.4242216162601715
0.2089155453445784 4.0887447952945974 0.6484383500879007
-0.13017354063479886 -2.547662912674972 0.40403654871691885
0.20145909166980908 3.942812446872258 -0.310710867484182
-0.022413227181926964 -0.438655562154151 -0.034567977067181434
0.028884389255799007 0.5653044920143193 -0.08965223569856991
-0.024177306398166978 -0.4731808517968757 -0.07504225042009574
0.02828966863079927 0.5536650476823463 -0.13309661762668826
-0.025701235624948093 -0.5030060985688284 -0.12091861432350673
0.13109397358925923 2.779840996597156 -0.29618136964756503
-0.021278398905334468 -0.45120735911423854 -0.04807440921301096
0.13462335782014861 3.114566463834668 1.9103908746342033
-0.12240376705424069 -2.8318612318637695 1.7369871275510202
0.022108025139743116 0.5626868141496403 -0.08918959808491621
-0.01822147181104674 -0.4637674264285434 -0.0735102179896429
0.15237880454101657 3.8782995554396953 1.734153758524002
-0.1247153239588162 -3.1742169583423823 1.4193282880790767
0.14573352825067162 3.709165979676004 1.891372642806745
-0.1241571313087258 -3.160010006704874 1.6113478098381642
0.1105575310451907 4.020878926819189 0.8494855432498879
-0.06948391543693237 -2.527068112791686 0.5338901935857387
0.1107576529159271 4.028157181002622 -0.3171426610495156
-0.011778400901585686 -0.42836994937469114 -0.033726187820834044
0.015600771582636298 0.5673861663309158 -0.07170463152637296
-0.012387094635473446 -0.45050759829230336 -0.05693385431702709
0.0957366426247279 4.062437367336263 0.3198095241373625
-0.05988768836550337 -2.5412420614446165 0.2000556170842207
0.09294418739519952 3.943943819202171 1.6340885927655366
-0.07488375599623302 -3.1775771556779366 1.3165609909159575
0.0797557293362848 4.061403926961588 0.4323299269065753
-0.04978100469895654 -2.5349999260866727 0.2698466718559389
0.04632653214534577 3.932136254310886 0.8304807824106117
-0.029620624256441234 -2.5141603552082548 0.5309993662121996
1.86330999123191e-15 -0.36213308748862677 -0.24403202032920726
2.0088653155530462e-15 -0.3904216703035412 -0.24348905387592484
2.3911427691311272e-15 -0.4647170453044531 -0.24605500971022495
2.6435500787792304e-15 -0.5137722421196292 -0.25169442430727196
-9.274961434029971e-16 0.5407748205475882 -0.13884737470231054
2.5275874294487075e-15 -0.49123497648319087 -0.12612770464715103
-9.4083781208482e-16 0.5485536544958857 -0.1091141060505407
2.4010554987348446e-15 -0.46664357786947247 -0.09282117879653148
-9.422786070305186e-16 0.5493937071837031 -0.10480245467997237
2.3750386522247695e-15 -0.4615872206354395 -0.08805247154992357
-9.502233665232816e-16 0.5540258837372674 -0.07663106517033338
2.255550148408648e-15 -0.4383647074680409 -0.060633186016066876
-9.533821766041943e-16 0.5558676218046431 -0.07022241116089808
2.234159631402088e-15 -0.43420747437048085 -0.05485316035387822
-9.576549714743069e-16 0.5583588665343993 -0.06608612685292575
2.2213541488129163e-15 -0.4317187371401649 -0.0510972797916018
-6.880620190894833e-15 4.011732205522011 -0.39512113481500283
2.1861531700341853e-15 -0.4248774497603148 -0.041846776281707326
-6.8660444983470514e-15 4.0032338763613495 -0.25186212726982005
2.1074245803997085e-15 -0.40957659946051633 -0.02576837546994051
-6.8642645957654814e-15 4.00219610762669 -0.2360218551273677
2.1029354085911006e-15 -0.40870413183303195 -0.024102543903240976
-6.8571828183623904e-15 3.998067091100257 -0.15708448383317844
-6.847436335614396e-15 3.9923844233107406 -0.07840036036756275
1.3040074024605089e-14 -2.5343299235402146 -0.04976784753886053
-6.781310400304478e-15 3.953829825477523 0.42079770812633516
1.297956936984439e-14 -2.522570883155614 0.2684718597088093
-6.719546090506388e-15 3.9178182649067583 0.9405849473402217
1.2897206465087467e-14 -2.5065637060704757 0.6017727041086526
-6.6448803379690176e-15 3.8742845432663624 1.4988476499655858
1.2806624458634191e-14 -2.488959151904933 0.9629056756238785
-5.0909966859099525e-15 2.968295705392606 1.9331625915446977
1.3665422971465818e-14 -2.6558660855047167 1.7296864848480062
-3.724265951887629e-15 2.1714260119876823 1.8545730167516374
1.021872013560025e-14 -1.9860016262997344 1.696205630321633
-0.006156116338721922 0.5225232090606411 -0.16978986490539896
0.006123023838390775 -0.5197143603452622 -0.16887715129640682
0.003976200246840276 -0.3374947448243762 -0.24522130218952487
-0.0627341184275355 3.993449538822089 -0.2040715836826959
-0.03803063894124456 1.6137717440558792 1.78806024187905
0.035790711397409504 -1.518723859518177 1.6827471181101095
-0.09207385411285002 3.9070125632966306 0.9382511580760801
0.05887090853171889 -2.4980965710870167 0.5999064407488386
-0.012201083906923716 0.517734253328431 -0.1682687626446102
0.011980591989563492 -0.508378017516002 -0.16522789329310933
-0.040899922767256285 1.7355253956642038 -0.8845398788761539
0.011430703829872716 -0.4850443581507017 -0.2472110629323203
-0.02956195024865086 1.2544159482611426 -0.9116395778187748
0.00795184863801329 -0.3374244820040655 -0.24522130218952487
-0.015076410119902335 0.5483156069975236 -0.08687748258803207
0.011881152387351752 -0.43210692938765294 -0.0684648799978684
-0.10979889970014978 3.993288180537891 -0.3143973740364679
0.01108511706532019 -0.4031558337806855 -0.03174104390609171
-0.10561334091348963 3.841063135684425 1.591621754660079
0.07038157892267838 -2.559715334188393 1.0606695250025595
-0.08631780030015386 3.139301510761535 1.9244935078824466
0.07767346929323439 -2.824914891834557 1.731764327516681
-0.017074524032946185 0.5433201643934267 -0.10369503166761765
0.01398575336510148 -0.4450338880796891 -0.08493666560140775
-0.021030482550833222 0.535261523892695 -0.17405119891500043
0.01978073942933064 -0.5034534374128091 -0.16370815100310532
0.013250901045794862 -0.33725795257332086 -0.24522130218952487
-0.10411161740227026 2.037597695667368 1.8418961430365488
0.09548140817796937 -1.8686934478289177 1.689214343632454
-0.20019870621322475 3.9181450892219067 0.6213827627451632
0.12760492910185448 -2.4973918951724072 0.3960640150229313
-0.20328992889363878 3.978644276224922 -0.31353457237294574
0.020086475908165653 -0.39311805969178415 -0.030979422682767568
-0.02729570019760397 0.5342118123990683 -0.08472121484035251
0.02166498846022574 -0.42401157204816126 -0.06724444247865631
-0.027263116136211386 0.5335741005849056 -0.12826691577937163
0.02326782276860737 -0.4553810923263429 -0.10946994644775994
-0.031574150823650685 0.5353993318112013 -0.0677541769626388
0.02413966330426464 -0.4093335613500962 -0.051800696983763696
-0.20403146119663837 3.4597385881655462 -0.3688523612507256
0.023625883973520077 -0.40062146290236905 -0.042711369311174134
0.021242379685076196 -0.33763795649482636 -0.24579335149534223
-0.052654796894704536 0.7436719329688858 -0.24223857760129405
0.0342645341071504 -0.4839363897404827 -0.15763410921297294
-0.2681989728758538 3.4077910593922804 1.9676113453815969
0.2378136366097258 -3.0217087558172464 1.7446927721693148
-0.28523192528062447 3.624215239908811 1.8523400453516723
0.24497814653460231 -3.112742485757077 1.5909258075357626
-0.29986764030779944 3.8101796315044 1.7076450374610153
0.2460160540412716 -3.1259303510340297 1.400978422973827
-0.3070404418561789 3.901318716510058 0.6198188761832586
0.19596640803686144 -2.489989301928964 0.39559504951457825
-0.3118642984479123 3.9626116259825674 -0.3128286447584204
0.030125821752684842 -0.38278485903509607 -0.030218976773001303
-0.2698138819580271 3.4283104248206815 -0.36599603846022544
0.031032533346980133 -0.39430572218887466 -0.0420948847626232
-0.042349838241858125 0.538105715244917 -0.08549111311501857
0.03240519741723509 -0.41174707289952406 -0.06541598534780386
-0.03750411981729001 0.47653502484850213 -0.34729355175322196
0.026604929006584597 -0.3380476749490367 -0.2463654748825514
-0.11573138643520857 1.3362453137251955 -0.43579778308435385
0.04089490640131531 -0.47217637943513546 -0.15399374446371078
-0.042827451167718446 0.4728803684254417 -0.344973863624906
0.030585520984329064 -0.33771079149475236 -0.2463654748825514
-0.41099182623211844 3.8616934199083244 0.8201522111212864
0.2639196159880995 -2.479797843644528 0.5266631665045902
-0.41331806455297787 3.8835508356607438 0.6185677686017248
0.26443536038715293 -2.484643795863184 0.395751371261687
-0.325682935070049 3.0601281267966773 -0.19361423860866736
0.0395565771039806 -0.37167496715679027 -0.023515866916099467
-0.3254263626075775 3.0577173630616925 -0.24200663245260753
0.039716601154657194 -0.373178558673902 -0.02953565538109768
-0.3262723663824552 3.0656664438028205 -0.3894709209640162
0.04176295402313897 -0.39240616103152937 -0.04985238666060623
-0.27968594717302064 2.6279388369852588 -0.4185752501265375
0.04279494374986305 -0.40210277221146185 -0.06404649380960116
-0.2469924249581262 2.3207493710332527 -0.44520680459991124
0.04417956372153624 -0.41511270937421196 -0.07963419281549666
-0.14132706179861004 1.3279139626841052 -0.3206043813050093
0.045841290363854266 -0.43072635040244356 -0.10399224570499582
-0.14098119318220137 1.324664169197011 -0.34203675535608113
0.047265637754454505 -0.4441095677680313 -0.11467192901733686
-0.055808612102535744 0.47152458284896825 -0.344973863624906
0.039856107006783444 -0.33674254783166147 -0.2463654748825514
-0.46568323521101407 3.8064154226412783 1.2460007041418704
0.3017552980914949 -2.4664963942682756 0.807388554003157
-0.4753095251464546 3.885099076469773 0.41656574669404395
0.3047628775317979 -2.491079836189265 0.2670970576584552
-0.2930017457259169 2.319347639717121 -0.44595571881093937
0.051242474394335207 -0.4056259519727862 -0.0779922810547098
-0.4767328191122386 3.7737288426191657 1.5755533762984726
0.3923477489024774 -3.105752230624924 1.2966693201813146
-0.5089229788489247 3.905148192015193 -6.75445229661139e-15
0.3205970336114673 -2.4600558005946787 -4.2549805372544125e-15
-0.397117601159313 3.0472255068778535 -0.2418497903296174
0.04750174020055126 -0.3644978563972831 -0.028929178344795057
-0.3416494909241956 2.62159884154414 -0.4187315839122505
0.0513883872274745 -0.3943214903084878 -0.06298250502363607
-0.06115335886516936 0.469251613177531 -0.3438141797974491
0.04402396755519222 -0.33781166197748863 -0.24750994184619404
-0.5314176672134237 3.8420338025719394 0.8191193581328926
0.43305636735527686 -3.130903062599402 0.6675067005646708
-0.43425592738007934 3.0512411829043966 -0.38934564757223605
0.053841001776537084 -0.37830659662040295 -0.04827282342257066
-0.5415331643211967 3.8050103376923237 1.2487810704822668
0.4421357983197812 -3.1066080419642454 1.0195697177962906
-0.06863204876601044 0.4690228235029068 -0.3443940082457027
0.04943870983157922 -0.3378579496381186 -0.24808228440683838
-0.3189342286882928 2.0136714694624 1.8405567556704518
0.29224527760447055 -1.8451640641317826 1.6865358798894754
-0.3320772315828185 2.0966531238950887 1.8130323743180252
0.3093714992357407 -1.953294771896871 1.6890665497667576
-0.44547468845961413 2.812616489011246 1.8546066396095586
0.4116692756758791 -2.599177512843658 1.7138674581753246
-0.6060387220001744 3.826377898980281 0.9300829219116165
0.49427608004357154 -3.1207363490426214 0.7585616629258896
-0.6118283183794531 3.862931971889308 0.4162483506085758
0.4250857221955739 -2.6838856223789347 0.2892007862594883
-0.612919187067777 3.869819445722525 0.3083577915863011
0.4257010280075292 -2.687770510381156 0.21416890128763533
-0.558096189717858 3.5236806631654525 -0.07005874004208
0.4005201701112969 -2.5287848306980085 -0.050277961033243765
-0.7417047677382875 4.682939600749256 -0.18628669638140494
0.38451239636042284 -2.427715724931856 -0.09657419926543245
-0.48215259636279373 3.0441916855900555 -0.18176318440485925
-0.3739708358372461 2.3611589312116745 -0.44630742263884954
0.06221150720125323 -0.3927879978221147 -0.07424498056194014
-0.21005156135551148 1.3262133636682016 -0.2835726637036522
0.0628131027192684 -0.3965863224352046 -0.08479860248906566
-0.20944552393104945 1.322386993961555 -0.5545784080782173
0.0741510199299319 -0.46817111439728865 -0.1963400975026542
-0.22804337737914615 1.4398092193391783 -0.8933144071039139
0.06411472636610482 -0.40480445070695453 -0.2511566414627339
-0.06088672246545026 0.3844236361898307 -0.3143378357213843
0.0484077040460603 -0.30563421474274255 -0.24991282673679674
-0.01932979684230334 0.12204353409145206 -0.11155148918998734
0.04359932932909283 -0.27527533159036516 -0.25160999642277293
-0.48089181610653814 2.82074319517562 -0.3045371702636499
0.062102461600945146 -0.3642713186154727 -0.039327988726197305
-0.6615099975990081 3.8801862742755735 -6.751023067457694e-15
0.4300303064617449 -2.5224073690671807 -4.3886631028498965e-15
-0.5280746055275068 3.097500935130829 1.9255381501960955
0.4735002227525051 -2.777386693865772 1.7265415407080964
-0.7078938318491945 3.876057703753888 -6.757881526800263e-15
0.4598957232160641 -2.518149305296962 -4.39037702031894e-15
-0.5543372816508814 3.0352620609902714 -0.15765278077153436
0.4605516706218568 -2.5217409314435537 -0.1309802785522149
-0.7253826597610704 3.802589069023649 0.9293827893068701
0.5922390066857737 -3.1046255969428556 0.7587950064194314
-0.7288266192600992 3.740772855574139 1.5786140130055883
0.5990094507467223 -3.074473728553549 1.2974343799784835
-0.2606236410074142 1.3102435230181901 -0.28212980724645115
0.07629473923489753 -0.38355955559703125 -0.08259043573735925
-0.7690790338906874 3.8664213996446075 -6.761310758022739e-15
0.4993923571988381 -2.5106149194114553 -4.39037702031894e-15
-0.7804509880752871 3.8446250416829426 0.30874997016474637
0.5356232745966525 -2.6385649911225726 0.21189501016469267
-0.27406476279168906 1.297723923148348 -0.34054827129849885
0.08310776034948004 -0.3935235150487897 -0.10326830720670516
-0.635064225373201 3.007092300402322 -0.19336319844326202
-0.5153239564852111 2.3054268550466186 -0.45063647866355117
0.08253092749415324 -0.369222145065137 -0.07217100249029233
-0.6141935044026188 2.649812265161583 -0.34362377471424715
0.08108715903433306 -0.34983396440388065 -0.045365956280069064
-0.7947567770335976 3.310400220655817 1.9596318645197328
0.7055626910778887 -2.938880114931034 1.7397059978691471
-0.8451373793912539 3.5202505320731774 1.8446243523802333
0.7293181112446828 -3.0378285610901803 1.591833447957183
-0.8915799372636642 3.713697707701537 1.7064215631787087
0.7324165408753045 -3.0507344493182496 1.4017939685970724
-0.9068808815299539 3.7774307273360797 0.9326500774098889
0.7403253021351148 -3.083676810775437 0.7613617889705154
-0.9088690216771205 3.7857119270339803 0.8222179193792458
0.7405929296870666 -3.0847915597560513 0.6699851829371682
-0.9128694603092682 3.802374953148726 0.6193497106658641
0.739081863722733 -3.078497517042221 0.5014409599155344
-0.917909487638231 3.8233681778233035 0.3094558923527329
0.7420333163328147 -3.090791201920427 0.25016255431900103
-0.6638770976112739 2.765247122048509 -0.223813657469044
0.07953638025013775 -0.33129286636971456 -0.02681419231011802
-0.6314616190445813 2.630226936627295 -0.4284244221724431
0.08479287624865176 -0.35318774794380564 -0.0575289739163115
-0.9692925516990414 3.8376473195462815 -6.788744644824265e-15
0.6290575940443963 -2.490580563518288 -4.405802319814836e-15
-0.023983850595324034 0.09191099497923542 -0.13074075077246627
-1.0074647335976943 3.799671841128645 0.41836432722088496
0.8153777742887541 -3.0752123280617636 0.3385974343270591
-0.5281281520671139 1.9607311242587233 1.8331901465361677
0.48549235031380256 -1.8024412410584911 1.6851966503403406
-0.9759049385750856 3.460297899150412 -6.166356083293481e-15
0.6997159884511758 -2.481005750800629 -4.421227694844367e-15
-1.0392532847360427 3.6849141916506554 1.5858830380380988
0.8557434143848863 -3.0342372724656026 1.3058500614991746
-0.857082726039618 3.0389861133844587 1.9349399482621978
0.764541192222143 -2.7108585853894085 1.7260192627592763
-0.7697414290864093 2.6888347646849917 -0.29766212484864946
0.09274262447724535 -0.3239654037570922 -0.03586394810358837
-1.0902848810399783 3.7527851755406894 0.8253164874262936
0.8894499779972834 -3.0615069050845287 0.6732898385987863
-1.1228853913381964 3.8091002084375862 -6.811034725934768e-15
0.7356769921135453 -2.495595192188582 -4.462362391574981e-15
-0.3870384543476389 1.2941685123666486 -0.6882689128929811
0.12822456281970135 -0.42875375779633285 -0.22802121976960846
-0.4648157966053104 1.554238244959762 1.7969604205798655
0.4345051795428585 -1.4528864393394292 1.6797807128711837
-1.185852360575372 3.801490652220233 -6.829895597131113e-15
0.7700239406316113 -2.468468174972925 -4.434939202088863e-15
-0.41157240630381026 1.266689619236832 -0.3587444255830889
0.11579088343094819 -0.3563676956904008 -0.10092837451675597
-0.4142822858529467 1.275029770912937 -0.2886334542532443
0.11109581927868738 -0.3419177740430062 -0.07740125795019735
-0.41462934926811673 1.2760979222721618 -0.2833665391293917
0.11060527289157765 -0.3404080275031779 -0.07559000211651914
-0.7862726674349497 2.4198984442954 -0.2707984707147177
0.10265965806969815 -0.3159539395731442 -0.03535679104815089
-0.8561571472932427 2.634980757459322 -0.13065736472848988
0.4793613970735901 -1.4753226801306878 -0.07315490747488865
-0.8627885470512872 2.655390107323084 -0.12068264584367373
0.48006275274785365 -1.4774812309430732 -0.06714883197118257
-0.8955803381890892 2.7563128630623854 -0.09107831117202805
0.47996561497385637 -1.4771822716152039 -0.048811319061397795
-0.9168476056052851 2.8217667818699153 -0.05826402690646002
0.7936481318099742 -2.442597789581403 -0.05043492050732902
-1.2347269302152586 3.800098746030412 -0.06276884752242341
0.8004960422395677 -2.4636734907746134 -0.040694191394107244
-1.2255290019112415 3.7717904335130203 0.3121227180679048
0.9921001938348857 -3.053370433793943 0.2526721184178576
-1.2227221852828536 3.7631519401839615 0.42111510624390014
0.9908078970742501 -3.04939315332859 0.34124200727346055
-1.2097712443366695 3.723293042442962 0.9398848102144967
0.9889961149103117 -3.0438170611896886 0.7683621429396923
-0.9144064945497203 2.814253814561787 1.9271617031141217
0.8168254018766977 -2.5139300921024215 1.7215042128530738
-0.6714772310095091 2.0665944194659756 1.8558711791683955
0.612299338110724 -1.884463592726641 1.6923115813103
-1.2631085413785887 3.7860101442939174 -6.845327241558632e-15
0.8224520345665053 -2.4651972843643604 -4.45722052591671e-15
-1.2840403149215474 3.702861119412416 -6.7218746616704465e-15
0.85176411676727 -2.456281313161763 -4.458934480236916e-15
-1.2790523854402953 3.5969620820750876 0.6046492995229072
1.0779293604491509 -3.0313621872151146 0.5095719613598048
-0.8463648386234474 2.350868776673113 -0.1276657934035893
0.5290786986162673 -1.4695726195369325 -0.07980630662970495
-1.249257683264268 3.46994670334075 1.8791181753098607
1.0727496428517875 -2.9796767605199115 1.6136169330355103
-1.2764717707122002 3.460028135983146 1.8791181753098607
1.0967352029037734 -2.9728308505036045 1.614524582967268
-1.314124950153397 3.5620915448770796 1.2336435633113614
1.1078018468695503 -3.0028283015801223 1.0399563737493285
-1.2779500917450557 3.4640353004853752 -6.332665399170071e-15
0.902246974478201 -2.44564743923668 -4.4709321856082006e-15
0.03271378200944869 -0.08867458629653532 -0.13009083830837814
-1.2908802367575245 3.457213931248436 0.8859751960018822
1.1276758705440424 -3.0201227182547967 0.7739624652875593
-1.3008133883504616 3.4838167322600646 1.5403562914835671
1.1163434502293026 -2.9897724190780965 1.3219164811931365
-0.7267458816024673 1.9006704494840478 -0.32229220597457997
0.11920186693404991 -0.31175060188205744 -0.05286281439359789
-1.2580043924115918 3.2900795649582513 0.5578910331931044
1.1539846836119545 -3.018035110790187 0.51176109663268
-1.2591226320015616 3.2930041153381064 0.7445495913287135
1.154681113239817 -3.0198564946429647 0.6827908014098937
-1.2454913317857477 3.1457520157965364 1.7238989522470836
1.1730276284401633 -2.962729593195921 1.623601102647192
-1.2478848571028218 3.1517973706688585 1.1014271277112904
1.1852395956114505 -2.993573501431588 1.0461342134360347
-1.2134851076547588 3.064913521373828 -5.653733288554913e-15
0.9647656828725981 -2.4367199628088922 -4.494927727175704e-15
-1.1437825171873022 2.856045546428213 1.8853197050113921
1.04492041822569 -2.609185104685989 1.7223633208646232
-0.7612710165047574 1.8794880042247162 -0.21581538732260383
0.11900953001232746 -0.2938204387099381 -0.03373842857254076
-0.7776494025159544 1.8774117343253398 1.8345295273132285
0.7151993607978326 -1.726643996638669 1.6872054952453228
-1.223850511889569 2.954636504121035 1.6295008600989034
1.2255547700035385 -2.958750947173535 1.6317700016611676
-1.208768677728709 2.9182257355444245 0.7583283194950541
1.245219982259429 -3.0062269693086505 0.7811962652132663
-1.2028762243712912 2.904000094733296 0.4978445928512983
1.2448126628949172 -3.0052436133746294 0.5152011826145844
-1.1428092319335106 2.7589855469390447 0.23502725626828302
1.1191684060040716 -2.701911544354466 0.23016534379955567
-0.839897138494286 2.0276910627512468 -0.13808240578664344
-0.785226281833255 1.8957039391336312 -0.16148765114260233
-0.73783222182421 1.7812845566838713 -0.2435691699651109
0.1228481623771533 -0.29658169972353104 -0.04055396885211002
-1.1388014420325487 2.719059368631894 0.3137394228969487
1.1307387815550978 -2.6998085565955083 0.3115181625860231
-1.1406216252403263 2.6644798776187564 0.941733130880961
1.2760507245121504 -2.980840800354847 1.0535476597723976
-1.199009762138582 2.770748079976226 1.5382833508831975
1.2750612352542472 -2.946492665023405 1.6358544621436182
-0.6898878221796 1.5440707011382848 -0.3226103883860723
0.13502382903941845 -0.30220324474867005 -0.06314083033116788
-0.7226473425444019 1.6173913395847268 -0.28057632286035217
0.13229437637711994 -0.2960943271094457 -0.05136484627246067
-0.8810762306022089 1.9719785585489902 -0.13588686651346732
-1.1433066659503297 2.55888895057264 0.44390224850837995
1.3341922326845033 -2.986119003616919 0.5180158129654353
-1.1934835327396225 2.6711921792910265 1.307193328614329
1.3189472034675969 -2.951998379661777 1.444610619142491
-1.1842194590414195 2.622755373310075 1.6564285449728218
1.2487476835418445 -2.7656695487582703 1.746687484903956
-1.1457128532160012 2.537472694862704 1.153227809585712
1.3353448984421177 -2.957461119956757 1.344103688763904
-1.1208896566346966 2.4567266138082364 0.21252228743279122
1.2234556344147776 -2.681527124538334 0.23196894400739615
-1.1222413539512888 2.434329680159323 0.5661036581554516
1.3760814229338016 -2.984951355044254 0.6941507944790916
-1.1606713883948272 2.5176908690212967 1.4125829590535246
0.883311775433159 -1.9160513593624704 1.075025346522745
-1.1534869869508466 2.451284623599705 1.3803653375243488
0.8808965230858117 -1.8720004009153948 1.0541592927958878
-1.1189434323459266 2.3538381898014196 0.41279095368272284
1.4143469596566567 -2.975256649292445 0.52176867340907
-1.116740258156256 2.3256063404716394 1.1526657559636306
1.4106480518093467 -2.9376679397929664 1.4560285537856188
-1.1271511260928622 2.32385613559609 -4.4297973799860995e-15
1.1890806470738378 -2.451536704753666 -4.6731855321465194e-15
-1.117115867062046 2.2578314318284645 1.4499966775843465
1.3468469132148249 -2.7221467210156938 1.7481835205799194
-1.101297633458637 2.2040425410001516 -4.225845409535056e-15
1.224579488546076 -2.450768262450008 -4.698896513589518e-15
-0.044496658013057015 0.08732960847629517 -0.12038931393211792
0.10291987080027509 -0.20199161965784967 -0.27845805031001225
-0.6386870218308033 1.2534938587749254 -0.7168152022372611
0.18414735639266733 -0.3614095362172446 -0.20667340967049472
-0.6350403821641014 1.2463369254552645 -0.5794005361298779
0.17416907427513062 -0.3418260549064731 -0.15890903609682136
-0.6245222739518345 1.2256939757798297 -0.35320136901640575
0.15366071567068834 -0.3015761348587284 -0.08690350593182067
-0.7192554614371552 1.4116183247585083 -0.20014316475664942
0.14058657711264305 -0.2759166931742791 -0.03912023470688293
-0.7248972794152643 1.4226910159924928 -0.18898467480353062
0.13943537851503188 -0.2736573387126847 -0.036351563749868615
-1.1036898422461303 2.166113279211566 -0.1529509520925807
-1.103954014898601 2.166631747234572 -0.14340294580141355
0.7413584132642447 -1.454997810217014 -0.09630200073733917
-1.1045661529134212 2.167833135733278 -0.09559345926823942
0.7407153266181673 -1.4537356816094724 -0.06410439086665004
-1.1056588607220816 2.169977695558002 -0.04782556311776099
1.1569118164094638 -2.2705672848282257 -0.0500425231171567
-1.106696520935432 2.1720142183938687 0.12455539187157358
1.40349171426724 -2.7545075828102776 0.15795880546484561
-1.0762053935540739 2.1121720114705194 0.25229218149935156
1.513850658304246 -2.9710992057537573 0.3548882837192495
-1.0846230071516234 2.1286925083483528 0.47521904134721515
1.5118412893757698 -2.967155597185294 0.6624013721533109
-1.0876677098972294 2.1346680739430197 0.5751792476570389
1.5094598634884266 -2.9624817857207124 0.7982309125751265
-1.0892393125748987 2.137752517868693 0.676660101001547
1.503241050617772 -2.9502766782489953 0.9338473459391797
-1.088752812517903 2.136797707745905 0.9933603925092868
1.4949804571502874 -2.934064350728003 1.3639959012129685
-0.9768362561728676 1.9171490985231805 1.8376969996868178
0.899210988585997 -1.7648009328645236 1.6916625743234674
-0.9198579967003455 1.8053229678970109 1.829172011454897
0.8494757805174102 -1.6671900910156323 1.689214343632454
-1.1025907749482586 2.1023542953077623 -4.071605860717524e-15
1.2784953028980874 -2.437758552537049 -4.7211795041763575e-15
-0.759690274108136 1.4079531045028015 -0.1702666818447666
0.1415561400312605 -0.26234955693282347 -0.031726474695455836
-1.0803108105680237 2.0021672139384012 -3.901953470023099e-15
1.3166164760584262 -2.440118451012469 -4.755461277615569e-15
-1.0653397314176456 1.9744209361645042 0.728956942142855
1.5816993411098836 -2.9314031962829707 1.0822751476193784
-1.0805226971846766 2.0025599087376986 1.6532276046525505
1.12467715911263 -2.084392484285782 1.7207850706068109
-1.057200111926227 1.9410568711446892 0.4667881171636237
1.608160616246511 -2.952639882322834 0.7100550384795832
-1.0735489057239167 1.9169595058370381 -3.768297145486775e-15
1.360153386872786 -2.428728631234558 -4.77431637985849e-15
-1.046580914089922 1.868804691798772 1.091355768836908
1.1105314154663093 -1.9829965286707258 1.1580422024012105
-1.06640501649999 1.8867849090007123 -0.11073864705164294
1.2799908659148669 -2.2646812534634453 -0.1329180325830487
-1.049715371042827 1.8236691459078578 1.289457438638485
1.4076605847455257 -2.445526899125757 1.729152932451679
-1.033882258741548 1.7961623005438123 1.0559737047695053
1.1293736706560338 -1.9620594059987961 1.153505526367588
-1.034842718412348 1.7978309058780249 0.9268336323303893
1.1704658299391066 -2.0334487607615297 1.0483014253077967
-1.0356482028904106 1.7992302730118899 0.8599094280954379
1.6768481815553051 -2.9131861602027747 1.3923044106867153
-1.0352432409305878 1.7985267331269195 0.49820981758225413
1.6916377826634041 -2.9388801149310266 0.8140990617416519
-1.0323557222948716 1.7935102507646978 0.32776156432227654
1.6921830033346088 -2.9398273260924666 0.5372494541509371
-1.052611558747231 1.8287006890318114 -0.13275050405290667
1.3142809279364582 -2.2832985430629287 -0.1657510353186065
-0.7326361321968561 1.2728077975435934 -0.2801510455305429
0.1557531349706334 -0.27058971837497797 -0.05955808304982435
-1.0231375881377336 1.7300311807034967 0.2139125745097012
1.7373927071395088 -2.9377706296071975 0.36324552164587054
-1.013824185905331 1.7142830775673221 1.1463969862310803
1.5473413433534535 -2.616411323588979 1.7496795572174064
-0.7388146538286989 1.205635939325828 -0.29862164873616814
0.16200187900534638 -0.26436303957290525 -0.0654795732004393
-0.7998524937507476 1.3052406413813196 -0.1933878391398738
0.15491193342713336 -0.25279329991944716 -0.037454511046118945
-1.0455147365519304 1.7061249867602697 -0.21296118239016218
0.15280845248054634 -0.24936073098791592 -0.03112559544286398
-1.045576638918044 1.7062260022408495 -0.15749070266544166
-1.0456984424605027 1.706424767557109 -0.12591378043465043
1.391133472625764 -2.2701235043256567 -0.16750801905694573
-1.014951580804175 1.6562504494893153 0.9897513511935951
1.169849151042946 -1.9090203108155899 1.1408029701476254
-0.9313510901019824 1.5198268476921486 1.7824950210309125
0.8829885649327103 -1.4409063794008539 1.6899349099891376
-0.8574440492703629 1.3629165169344248 1.7836101788894845
0.8093121483750001 -1.286410343992211 1.6834887208895948
-0.7747217146927721 1.2314284784891023 -0.7412868319007865
0.2062661292908705 -0.32786222580222807 -0.19736424397385358
-1.0079604452875772 1.5610549993650036 0.7696882678677113
1.8573862852407763 -2.8765832626496013 1.4183179898893075
-1.0055218749957786 1.5439395921909218 0.2918240815462346
1.7558035351877264 -2.6959677969178717 0.5095719613598048
-1.0056837306557938 1.544188115239432 0.38917900591827215
1.7510674027908526 -2.6886956504800605 0.6776272205076315
-0.9954858952109975 1.5285297369491189 0.9294329861255286
1.1324771276111025 -1.738874427348246 1.0573345172423039
-0.9920475616155858 1.4974003817460035 0.8025426669277426
1.9046911552098862 -2.874948110627654 1.540849429523765
-1.0153174829988796 1.519529995991135 -3.1344297917822624e-15
1.6003756749534472 -2.3951314575649705 -4.9405878236248605e-15
-0.9778233962842954 1.4634161297482091 0.8967829374334788
1.8999734780713602 -2.8435112561931537 1.7425066767528463
-0.9697670004689789 1.4390927778684783 1.063423218426316
1.5801995358951095 -2.3449485686747695 1.7328088864693154
-1.0246800522033552 1.49510761840629 -3.1087387380838024e-15
1.631871023722553 -2.3810581601327394 -4.9508728662124455e-15
-1.0202395258652297 1.4761637119677133 -0.1909764522971127
0.16254430485353316 -0.23518203160019222 -0.030426320383639543
-0.9768123157704296 1.413329769517213 0.9889148913610476
1.7317145979258977 -2.5055824481756366 1.7531703130969716
-1.0093539144705679 1.4242435449539312 -2.9939928740469916e-15
1.6852508530121806 -2.377964373665366 -4.9988700420769894e-15
-0.862852453739861 1.1876145173617276 -0.8995745667963113
0.23011095050840757 -0.31672055198220517 -0.23990423591134122
-0.8963881380466717 1.2337724269322508 -0.8778148463719012
0.22941834668148797 -0.31576726459678384 -0.22466476540614316
-0.8875141966937596 1.2215584944907811 -0.6746335265938431
0.2087754039035933 -0.2873546913719691 -0.15869817916854606
-0.8647748941746267 1.1902605296193218 -0.3532141758700989
0.17785236805589283 -0.24479278390511267 -0.07264315607747275
-1.00009778250044 1.3765165065369098 -0.2694860528285694
0.17184239757706335 -0.23652076919548637 -0.0463046016519089
-1.0018370044326255 1.378910340160057 -0.13414130739312835
-1.0014744628672387 1.3784113445040393 -0.08034964572008033
1.617945651941788 -2.226911143637595 -0.1298099599621046
-1.0015061804736773 1.3784550000441025 -0.05354608600483791
1.6118988797228293 -2.218588475678213 -0.08618107179719854
-1.00070343499202 1.3773501156764094 -0.026744981610627015
1.6019233841411213 -2.2048583839118097 -0.0428132950806041
-1.0047465209373143 1.382914946074423 0.06716160054925303
2.090488101411478 -2.8773100277428307 0.13973726098497524
-1.0059323726292804 1.3845471309036055 0.13468965811457165
1.8437444071444933 -2.5376964679634906 0.2468687862185576
-0.9899545292088925 1.3625555160916643 0.17924702415096916
2.0949590784200476 -2.883463799664268 0.37932568562006175
-0.9892274047290244 1.3615547151036418 0.19919312114658813
2.0927705517553905 -2.8804515511305655 0.4214051249035222
-0.9815962961881965 1.3510513952748935 0.3321819360461627
1.7516780260066829 -2.4109779654822017 0.592785242026685
-0.9803763504261033 1.349372283983993 0.3522451571576458
1.7509005963318278 -2.409907925333294 0.6290913234027521
-0.978309740560436 1.346527839528221 0.39958707298914814
1.7515010380304366 -2.4107343624315556 0.7153942602299971
-0.9739828090527642 1.3405723292299445 0.467333197807183
1.7443853925450508 -2.4009405166329887 0.8369852076742867
-0.9636828996783652 1.3263957201845302 0.6791094627110267
1.7368902558575432 -2.390624346004843 1.2239903902384344
-0.9609214533971044 1.322594915448651 0.7304331934068791
1.8543226715056735 -2.552256199780184 1.4095416704105184
-0.9514342716560859 1.3095369300240887 0.9919263357837299
1.6640766165280945 -2.2904049692680823 1.7348980059578385
-0.9712884105576164 1.3368638078546784 1.4113295089258031
1.1691290823296259 -1.6091681316155309 1.6988016697201793
-0.9716581002244442 1.3373726420282852 1.4923658910007647
1.1033111449887796 -1.5185775126168866 1.694571289594467
-0.993867455245717 1.3345903887358557 -0.5406671579606805
0.1892332002898079 -0.2541071337063397 -0.10294348210365661
-0.9747636479403707 1.2877003356707368 0.9296239434133853
1.8398676015293842 -2.430535990016745 1.7546663529217843
-0.9879110149841687 1.3050685140914822 -2.807346042496867e-15
1.7536839025270206 -2.3166840030564377 -4.983442323121139e-15
-0.17790084580351578 0.23310596163015815 -0.09527801275673696
0.19055674462636168 -0.24968916252539988 -0.1020561080718249
-0.9887596619073306 1.2955855874040108 0.1282665844867822
1.927201535988337 -2.525239075017356 0.25000570731421184
-0.9912531281056346 1.2883308912605107 0.2574601923495993
1.850541511295021 -2.405147309968646 0.4806449129290009
-0.18098093489468792 0.22957322147610582 -0.09498440496064395
0.19501862761786634 -0.24737994980595265 -0.10235182126395376
-0.9917137257733635 1.2579828639980406 -2.7474222763828475e-15
1.717775985430181 -2.1789884496892977 -4.758889471380466e-15
-0.9703513197511818 1.230884781142813 1.1387633519779898
1.47430711693949 -1.8701496623271134 1.7301846044394653
-0.9891119806529363 1.2346135666561475 0.1683651708561239
2.139588783176083 -2.670643355296065 0.3641976217935287
-0.12997671158802832 0.16093816369452374 -0.15029957388960624
0.22991010946399576 -0.284676465344198 -0.2658583300282072
-0.98197939623405 1.2158944389721076 -0.07985723917412593
1.8577020974981544 -2.300221021212184 -0.1510733944959739
-0.9884985636624181 1.2239665222085585 0.249183751777723
1.9296424683214803 -2.3892981415236005 0.48643019577535823
-0.9505823766491126 1.1770184079066608 1.3658450910161786
1.1798308193253781 -1.4608755923466492 1.6952409095629546
-0.9813698997539768 1.1958026827561337 0.3713880231915166
1.9538920415439094 -2.3808243412395154 0.739427715299341
-0.9744299430476645 1.1873463210420645 -2.634436255918283e-15
1.8838639439705553 -2.2954948574561658 -5.0931516530485546e-15
-0.9756848136440431 1.179400339143739 0.6340236466032014
1.949499866692791 -2.3565405259827674 1.2668322774407244
-0.13393054284540704 0.16060588233689538 -0.15193538183030944
0.23435324959671883 -0.28103007447259243 -0.2658583300282072
-0.9305246671788943 1.0895044028234175 1.43279307647685
1.099819225381505 -1.2877228628401494 1.69346759638323
-0.9708502218538171 1.1367195610177983 0.7616820112920472
2.07524853049472 -2.4298038415053997 1.628139376246735
-0.9750338098259316 1.1416179131797421 0.3604366934753724
2.034345581958751 -2.3819126419593375 0.7520280707787417
-0.9750295982120631 1.1416129820134715 0.2377857899638497
2.0413886524238816 -2.3901590179575356 0.4978445928512983
-0.9712175823466231 1.137149684891407 0.11769452787684097
2.065640673704135 -2.4185544865508724 0.25031940141301984
-0.9692792338584361 1.1348801704050382 -0.11745963405457155
1.9413909295020877 -2.273076727462313 -0.23526251277295357
-0.961369230118275 1.1078799283631262 -0.15611299661433872
0.18185195404915347 -0.20956581874362967 -0.02953022896654761
-0.9568763305315546 1.0939938097430577 0.6493860425912592
2.072766653109465 -2.3697878348437187 1.4066872500965184
-0.9634257666681373 1.0927920248206864 -0.2779071474579514
0.1904386658066314 -0.21601026504687917 -0.05493341387686714
-0.963898599456998 1.093328348343076 -0.18413205227292237
0.18492283857363237 -0.2097537871540823 -0.03532552262019983
-0.9573593960401963 1.0859110780252244 0.5996433251822665
2.0842416703153552 -2.36410811701293 1.305467529582653
-0.9723301450216748 1.0941997927003326 0.30913735254199975
2.1086045927843595 -2.37289229396479 0.6703982641170968
-0.9685887069576692 1.0899894113036466 -2.500932064939859e-15
1.9008319072315405 -2.139077852825956 -4.908018679866654e-15
-0.9625124821002694 1.0661684974269894 -0.09036845077488943
1.8964110773671579 -2.100641587991164 -0.17805039859852473
-0.9670707989370789 1.071217713829973 0.22857532548393217
2.091757987569022 -2.317026025180446 0.4944046117075559
-0.9544003672502881 1.0571827632558466 0.6363564599084752
2.0803785139337485 -2.3044210600159882 1.387114204713368
-0.9532298593256694 1.0311982521755765 -2.4085239977842708e-15
1.8725878470516168 -2.0257541200932034 -4.731464004677271e-15
-0.9345912199582431 1.003103534643183 0.789163829862542
2.0266371725237358 -2.17520437575761 1.7112815941948152
-0.2034361510847065 0.21493975721466194 -0.09615941555741002
0.21216114840302888 -0.2241581227573603 -0.10028351365106904
-0.9561367855644058 1.0102029922285045 0.2203028864612099
2.0812972201389193 -2.1989873324035614 0.4795504075388473
-0.9552156924361923 1.0092298144904543 0.2934674811068638
2.0846205866124694 -2.2024986236816924 0.6404504840748702
-0.939467382624435 0.9925909925827836 0.7866741119601673
2.0412764037710347 -2.1567034781928913 1.7092869128845154
-0.946326977284545 0.9842384122068675 -2.3417950909725e-15
1.8607433769402977 -1.935287855894522 -4.604623782555597e-15
-0.9210399714042867 0.9430012051718663 0.8077741628202758
1.9912661389061828 -2.0387457950858154 1.7463882005629687
-0.9421195518940808 0.9421195518940759 -0.37576388846960895
0.20983400417015577 -0.20983400417015322 -0.08369218235796703
-0.9425625450707159 0.942562545070711 -0.2815114513827772
0.20217080315263442 -0.20217080315263197 -0.06038155931440044
-0.9418115230160279 0.941811523016023 -0.14175369564307164
0.19356040612933834 -0.193560406129336 -0.02913311445918732
-0.9405593207474793 0.9405593207474744 -0.0784431533665561
1.8541747123116863 -1.8541747123116639 -0.15463916854352747
-0.9407623304057867 0.9407623304057818 -0.05227308465123902
1.8531398206538294 -1.853139820653807 -0.10296897695067758
-0.9406015737755746 0.94060157377557 -0.026121998810061636
1.8040518079418792 -1.8040518079418575 -0.050101382449516466
-0.9399920799434538 0.9399920799434489 0.1046220783925055
2.0559762641906065 -2.0559762641905817 0.22883225771244695
-0.9411101968033967 0.9411101968033919 0.14164813781109928
2.1104872068381377 -2.110487206838112 0.31765311197156343
-0.9212541224334365 0.9212541224334315 0.7983875523821786
2.0181591041235976 -2.018159104123573 1.7489996171772502
-0.9004953341834788 0.9004953341834742 1.0876655304952791
1.41291245067358 -1.4129124506735629 1.7065898199225271
-0.9217692034093617 0.8793240875494186 0.7806584942863634
2.057745998348927 -1.9629920545339057 1.7427322227226216
-0.932210798093114 0.8823187446623165 -0.20329451723082104
0.2015080636567039 -0.19072332366091813 -0.04394444325575724
-0.9322569357855797 0.8823624130589721 -0.10102265934150324
1.777419754818996 -1.6822919987816338 -0.19260749210369615
-0.9320486891101408 0.8821653117749825 0.13658185761298958
2.2362722271309328 -2.116586622040253 0.3277019950550949
-0.932403080174559 0.8755847729006647 -0.08047236510433535
1.799810252806998 -1.6901343259969341 -0.15533516658406502
-0.9333706141934649 0.876493347820922 -0.16175199468873738
0.19841168992425176 -0.186320978723749 -0.03438450506880721
-0.934836490069549 0.8778698968943351 -0.24463274711529218
0.20586720329269514 -0.19332217178967515 -0.0538723723532523
-0.9345952770252421 0.8707620997795867 -0.13594864379447158
0.19891600371422172 -0.1853299725901359 -0.028934835857547407
-0.9308568263793926 0.860475199400241 -2.1741609822417853e-15
1.8312890384751321 -1.6928261746442916 -4.277260543005281e-15
-0.22330873471793575 0.2064244710774838 -0.09880863696588284
0.2186505205480948 -0.20211846219077376 -0.09674749146972211
-0.21498346418381883 0.19716868732384685 -0.148632495997732
0.3646807482958496 -0.3344611861509968 -0.25212827445736335
-0.8699820148160079 0.7978902587129235 1.3075929905546693
1.1225441195861694 -1.0295236024881478 1.6871967435667778
-0.918189545526309 0.8289204761122263 0.6302854930649043
2.3612686341887397 -2.1316992009080766 1.620878142873273
-0.9172053746804402 0.8280319892305052 0.5520990178113753
2.0341408486755874 -1.8363757341595333 1.2244227908444847
-0.92282246968658 0.8331029738540431 -0.07821844026257584
1.8215432667062612 -1.6444475100527047 -0.15439402254796708
-0.9225344524131441 0.8328429584611557 -0.09781508397200095
1.822476128216196 -1.6452896760419928 -0.19323468630589427
-0.9249587432792545 0.8350315526885261 -0.19736673794196216
3.6106168782583152 -3.2595821596608947 -0.770429687159448
-0.9264466797399363 0.8363748276206168 -0.2996492905405091
1.8345777212732914 -1.6562147168764034 -0.5933745833870105
-0.9195413817142901 0.8171248166929085 -0.0628544450262238
1.8132559884530075 -1.6112993897237555 -0.12394352349017206
-0.9157035521832804 0.8009323700594162 0.5435543607680177
2.038007099433649 -1.7825701914723884 1.2097448388532765
-0.925602926967711 0.8095909907334282 0.29522643735287846
2.3885078685987624 -2.0891403812305605 0.7618284775155278
-0.9165553516500341 0.7953462195839675 0.5026596048571773
2.040040767690407 -1.770257202097772 1.1188043191649304
-0.921887918780316 0.787366665592376 -0.3112818644265042
0.6366062911642576 -0.5437131375279183 -0.2149545396813837
-0.9213523685629289 0.7869092624956099 -0.19190785690558881
1.8242094513684188 -1.558022058653656 -0.379963343346115
-0.9201372555969236 0.7858714579806887 -0.09523383009134659
1.815501247004908 -1.5505845495017128 -0.18790363745866237
-0.9198548941763188 0.7856302985450302 0.1915959489861926
2.4952593586949243 -2.131152823483267 0.5197358711929536
-0.9178975960183587 0.7839586079926232 0.25492921405359914
2.0725147765564924 -1.7700948409945128 0.5756029489497092
-0.9153013845283645 0.7817412339036407 0.3911061476060839
2.035515111346193 -1.7384941415697812 0.8697708613243184
-0.910534586138913 0.777670003467712 0.5350104047131854
2.0241711034001004 -1.7288054434872797 1.1893591058754167
-0.8742821297844103 0.746707480694724 1.0379743232923313
1.4340996939171753 -1.224836849603715 1.7026067542916388
-0.8725829917666018 0.7452562797317771 1.1475225487980607
1.2930954414570857 -1.1044078410093392 1.7005330046782376
-0.905472478822278 0.7672175195165993 0.6831316621576226
2.340965367678143 -1.9835275888233714 1.766136022991457
-0.9143197313943768 0.768566028669464 0.25225124054831255
2.0616520744014255 -1.7329996202798745 0.5687882208925475
-0.9063662101356451 0.7618803955830608 0.4904473019097427
2.018824250389582 -1.6969990731111744 1.092413745747809
-0.9125412493855551 0.7609755204523756 0.09351323672125347
2.4917003384313117 -2.077849043126366 0.25533855455087145
-0.9144390704619272 0.7385183265285241 -0.28219296198564875
0.7162891492734663 -0.5784886942382681 -0.22104453232685342
-0.9119946448430537 0.7365441620645519 -0.18567031293725625
1.8064571333294734 -1.458929022332857 -0.3677713056207049
-0.9104673322659014 0.7353106754769821 -0.0921056317832737
1.7977645422965565 -1.4519087210463169 -0.1818673038533939
-0.908746507474866 0.7339209047574499 0.2466898674697417
2.1340768297842683 -1.723520899232161 0.579320114002514
-0.8918303146867022 0.720259066814723 0.5840980795012103
1.9946831109636796 -1.610943889700005 1.306403869817628
-0.8622020729153699 0.6963307371558715 1.0005234079982328
1.4695313169919244 -1.1868213466184245 1.705285254610151
-0.8931595420644505 0.7155557233046944 0.6587496028576533
2.376343585873525 -1.9038102078379717 1.7526716333671002
-0.2488099686079685 0.19614596354163355 -0.10294348210365661
0.545474603190906 -0.4300175038362319 -0.22568651636325038
-0.9066076285199131 0.7147118254350301 -0.24380651035775333
1.7956571754152395 -1.4155819754039711 -0.48289127067193305
-0.9069924049115684 0.7035354251675141 -0.14500925131554115
1.795197155100765 -1.3924976515061975 -0.28701474677765537
-0.9080638003006662 0.7043664846190703 -0.2192258879076195
1.7999038011368114 -1.3961485004021215 -0.4345350060445814
-0.9086404931158127 0.6991159935963679 -0.09022905168523083
1.7943693929559306 -1.3806036056500017 -0.17818295566405115
-0.9088097347681549 0.699246209613408 -0.18161664112056802
1.8012211887667429 -1.385875437658907 -0.3599562479405721
-0.9028685244710459 0.6723648322444838 -0.11980801258815121
1.7849249677926649 -1.329230938958692 -0.23685432287662647
-0.8485471772818756 0.616505611314183 0.8958127701395456
1.6214635325943576 -1.1780622140395929 1.711781946486981
-0.8884664945344641 0.6455086929871265 0.4906758760808326
1.980831336981663 -1.4391582071228781 1.0939592630908606
-0.8971007556400128 0.6517818508782103 0.1180154782047351
2.43958260154822 -1.7724605106067162 0.3209321868603974
-0.8969754887866526 0.6516908391818947 0.08725836717669365
2.2741004430362057 -1.6522306848216153 0.22122599105083518
-0.8979736656818295 0.652416057146713 -0.06983254340974994
1.7755957041811883 -1.2900457916312433 -0.13808240578664344
-0.9003145489337601 0.654116808382336 -0.207761675893092
1.7854377146539797 -1.2971964308008002 -0.41201770230032597
-0.9008369874271758 0.6544963821660696 -0.23515783596269116
1.7857881782724345 -1.2974510575241263 -0.46616878453189603
-0.8995894547529502 0.6535899966231685 -0.28550118950963455
0.6718520990970882 -0.4881291225237006 -0.21322456866664832
-0.9014766998541431 0.654961160449955 -0.3001360323622139
0.6519223213440835 -0.4736492914124477 -0.21704984606727523
-0.901657421637763 0.6550924625114918 -0.314324290448846
0.6374344570939778 -0.46312324189477755 -0.2222142563522355
-0.8949380135897457 0.6395321491183356 0.11706657112994716
2.299792794250545 -1.6434562013231635 0.30083520047645396
0.5705535195347624 -0.40434828045928756 -0.22721828587530693
-0.8623549688375288 0.5811184687534509 0.5985626391572303
1.9496738426424782 -1.3138342317808411 1.3532732609183418
-0.8768247716369266 0.5809080104896718 0.4699406379456692
