0.998573214223952 1.1691790146057202 -0.036234895336423885		102 152 0
-0.915643685672858 -1.0720810120837623 -0.033225659013493836		86 168 0
0.994105308234976 1.163947768817096 0.08423910971008096		101 153 0
-0.914514078767255 -1.0707584123284593 0.07749465894057912		86 168 0
-0.9128836537682775 -1.0688494299258273 0.1887997108840827		87 167 0
0.7504901529261235 0.8787110699252869 0.15521400050150216		56 198 0
-0.9118515526644764 -1.0676409947962575 0.30228207378844113		89 165 0
0.7643145749869754 0.8948973884969919 0.2533730343263511		60 194 0
0.9762234671269567 1.1430108229144782 0.44953976568373816		106 148 0
-0.9097799481884182 -1.065215457594308 0.41894328348408677		92 162 0
0.9708637999555633 1.1367354589323448 0.5783355240184679		110 144 0
-0.9073874018459931 -1.0624141457473752 0.5405231594363491		97 157 0
0.9214548420639752 1.0788850020229062 0.6813113285766553		106 148 0
-0.9045090457038533 -1.0590440237072336 0.6687818344496929		103 151 0
0.9158509232979434 1.0723236561671678 0.819108700184891		113 141 0
-0.9029571533435735 -1.0572269912105468 0.8075769116818313		110 144 0
0.9064924298240529 1.0613662681437959 0.9646891310252208		121 133 0
-0.8824901887214268 -1.0332632545630653 0.9391459490303743		116 138 0
0.9028187135658788 1.0570648990568923 1.1317456293783918		133 121 0
-0.8696277208406396 -1.0182032396257088 1.090138426972109		125 129 0
0.88929562802233 1.0412314002157252 1.3062566582357271		146 108 0
-0.8695849343091037 -1.0181531430338246 1.277304278295886		140 114 0
0.8857769657853801 1.037111576062296 1.5227536720302546		164 90 0
-0.8675988417756728 -1.0158277274527978 1.4915033616749225		159 95 0
0.8688248517489585 1.0172632006980615 1.7529244015327459		184 70 0
-0.8668566804946563 -1.014958768238934 1.748953456858327		184 70 0
0.8011116012728658 0.9379811707580584 1.9103956463542744		193 61 0
-0.8099110250562273 -0.9482839722768546 1.9313794654120147		196 58 0
0.6655574645701501 0.7792676686149235 1.8992964913373622		178 76 0
-0.6760326613660135 -0.7915325482383097 1.9291894841735358		183 71 0
0.5601684883770577 0.6558730315661963 1.9510045697264597		175 79 0
-0.5522985792132238 -0.6466585518363811 1.9235945510257428		172 82 0
0.4519341751971346 0.5291469329409944 1.981559745414714		171 83 0
-0.43839201843888276 -0.5132911045763711 1.9221825303887898		163 91 0
0.33876306331728867 0.3966405857000029 1.9672876842768687		163 91 0
-0.3306164799607939 -0.38710216211175424 1.91997829656138		157 97 0
0.23223077790421728 0.2719073055471308 1.957931378517669		158 96 0
-0.2274525697632324 -0.2663127426184652 1.9176464355107623		153 101 0
0.12916975967418123 0.15123835706937636 1.9412004359510817		153 101 0
-0.12764914848360048 -0.14945795011666016 1.9183482520226447		150 104 0
0.026746010664955695 0.036812725523974285 1.9308512304558851		150 104 0
-0.026524717508880788 -0.03650814162482902 1.914875608220068		148 106 0
0.11678587352947405 0.16074196489240142 1.9392132632762409		153 101 0
-0.11540964248004296 -0.15884774535757445 1.916361137212254		150 104 0
0.20954841467156024 0.28841864941733253 1.9520358973586822		157 97 0
-0.2057512786928872 -0.28319234010671823 1.9166639011107611		152 102 0
0.3049434883269912 0.41971870409868395 1.9566669819764138		162 92 0
-0.29907514711407135 -0.4116416253500679 1.919012826600659		157 97 0
0.40532817121947323 0.5578863667241284 1.9636519231878213		169 85 0
-0.3965737071698039 -0.5458368806827524 1.921240066849565		163 91 0
0.49439919651758873 0.6804821155822854 1.902580753832914		169 85 0
-0.49914752438757215 -0.6870176282150046 1.9208535934369353		171 83 0
0.5937213048054679 0.8171872697328028 1.8720419275237241		175 79 0
-0.6101726799080582 -0.8398306449909033 1.9239141842680982		182 72 0
0.7091214617235587 0.9760219593343997 1.8684292567341378		186 68 0
-0.7311014748250219 -1.00627485197898 1.9263433120249775		195 59 0
0.7564082175566677 1.0411065951408256 1.686214893175547		174 80 0
-0.7143751977954469 -0.9832531066786805 1.5925132354179785		159 95 0
0.7652468306855297 1.0532719024534307 1.4535585944941751		153 101 0
-0.7166818421212678 -0.9864279302256979 1.3613111604788637		138 116 0
0.7679086687452873 1.0569356082341033 1.2462858406130775		135 119 0
-0.7190726343060269 -0.9897185733644039 1.167026860072089		121 133 0
0.7761370041102297 1.0682609402659833 1.075009727561957		122 132 0
-0.7347266354417679 -1.0112644575106733 1.0176531669228286		111 143 0
0.7784275775878262 1.0714136441880582 0.9153077676379747		111 143 0
-0.7586388045300628 -1.0441767347230526 0.8920392989797593		106 148 0
0.7832341466074021 1.0780293188860992 0.7739877642509261		102 152 0
-0.8121510302443528 -1.1178299947203743 0.8025632728803896		109 145 0
0.7869013002922398 1.0830767229174991 0.6428616926467713		95 159 0
-0.7810850990060536 -1.0750714086213782 0.6381101272316154		94 160 0
0.8360054618711279 1.150662803134576 0.5502453827194931		100 154 0
-0.7834904593785386 -1.0783821031502845 0.5156808505926654		88 166 0
0.8385721554809475 1.1541955538145205 0.42666305629481077		96 158 0
-0.9009597979630348 -1.2400647769876934 0.4584057060387322		109 145 0
0.8505028340857923 1.1706167241451813 0.3115227349065222		95 159 0
-0.9078513744337292 -1.2495502182455018 0.33252839581215704		107 147 0
0.8366707982911907 1.1515785601541815 0.19119046806784828		89 165 0
-0.8541091258534386 -1.1755803589341214 0.19517535915733863		93 161 0
0.8528639700983806 1.1738665490646811 0.0798521978094812		91 163 0
-0.8083625938208222 -1.1126156593201721 0.0756856099057859		82 172 0
0.6207470326370701 0.8543849929077946 -0.02488785579794548		42 212 0
-0.8169817655380216 -1.1244789314411623 -0.03275557240101904		83 171 0
0.8543738291665907 1.175944691788625 -0.1489276397764096		92 162 0
-0.9127279896999713 -1.2562623033310512 -0.15909947217891657		105 149 0
-0.9146971117540273 -1.258972567325455 -0.2842081428650364		107 147 0
1.102909119566542 1.5180241720941716 -0.34268803147288146		147 107 0
-0.8590765120326442 -1.1824173794631785 -0.38752249898200186		99 155 0
0.34410582564122205 0.473621037141385 -0.15522336788284075		0 255 0
0.8557149216590348 1.1777905472489048 -0.5112508187389009		102 152 0
-0.775472384415505 -1.0673461697341824 -0.4633095455121779		84 170 0
0.7892622876196786 1.0863263431894474 -0.5936338243681818		93 161 0
-0.7715605710594233 -1.061962020554614 -0.5803196981716346		89 165 0
-0.7372582300958801 -1.0147488986225548 -0.676782812208024		88 166 0
0.6155103916995991 0.8471773749974605 -0.565021639410578		59 195 0
0.618568556441285 0.8513865776577392 -0.6795077897760899		66 188 0
-0.6471281400823627 -0.8906954722375091 -0.7108809647536936		74 180 0
0.5224530221056498 0.7190948939217443 -0.6783490054745777		50 204 0
-0.5475959909584414 -0.7537012216777015 -0.7109944438093606		56 198 0
0.45074773441080707 0.6204010323363784 -0.6868551805144083		39 215 0
-0.46862385191942346 -0.6450053972834606 -0.7140950377137537		44 210 0
0.3865891602161037 0.5320943307715802 -0.6894522785256076		29 225 0
-0.3999120529881317 -0.5504317195113794 -0.7132126415246467		33 221 0
0.33330160117855423 0.4587502979262566 -0.6965078655725166		23 231 0
-0.3421582990757721 -0.47094049678706557 -0.7150159067178341		26 228 0
0.2815527735919756 0.38752414723050976 -0.6930642618083348		16 238 0
-0.29018686749119116 -0.39940795797304324 -0.7143177619543376		19 235 0
0.2387532195682145 0.3286156148679756 -0.6993094292305477		11 243 0
-0.2446169609273321 -0.3366863624609864 -0.7164843583494795		14 240 0
0.19819005879417767 0.2727852137414256 -0.7021779886604286		8 246 0
-0.2029883643754313 -0.27938951479236096 -0.7191781580055642		10 244 0
0.031123673434304437 0.04283806141362568 -0.13686934443576915		0 255 0
-0.025577324215741024 -0.035204166624575796 -0.11247874082790923		0 255 0
0.024843339485892853 0.034193923312510616 -0.14132793103872573		0 255 0
-0.024335808303070625 -0.03349536656839898 -0.1384407051870395		0 255 0
0.018915024408927585 0.02603429762171893 -0.14947052284297876		0 255 0
-0.018915024408927505 -0.026034297621718994 -0.14947052284297876		0 255 0
0.011306589067457655 0.015562184774645776 -0.14321305613909452		0 255 0
-0.012024569342010204 -0.016550399843794947 -0.15230723553774358		0 255 0
0.007253185006403484 0.009983152708646371 -0.14247711384379852		0 255 0
-0.00744309337131099 -0.010244539148651373 -0.14620755718736872		0 255 0
0.006514671579482195 0.010630977808068024 -0.1439602075750652		0 255 0
-0.006719254827258881 -0.010964827326110786 -0.14848105662432137		0 255 0
0.01026035112083089 0.016743371287061697 -0.14619981091923773		0 255 0
-0.010743373953598138 -0.017531592911634808 -0.15308240645506546		0 255 0
0.016899820982473505 0.02757800138242397 -0.15023265254434992		0 255 0
-0.01647403699838042 -0.026883185069629473 -0.1464476031401267		0 255 0
0.021744894077206405 0.03548444208632618 -0.13915823350198592		0 255 0
-0.022312116940389676 -0.036410065672590135 -0.14278822274738226		0 255 0
0.03231398790028824 0.05273163567294479 -0.15985987859758885		0 255 0
-0.14666082442677467 -0.239328713776534 -0.7255428101363341		8 246 0
0.1759521749819365 0.2871278535982538 -0.7012834147526846		8 246 0
-0.18021744049709573 -0.2940881343252211 -0.718283261248504		10 244 0
0.2132766853362777 0.3480359187912416 -0.7027439467708754		12 242 0
-0.21744678093099004 -0.3548408963229642 -0.7164843583494795		14 240 0
0.24939465340145955 0.4069750859140725 -0.6906124718682681		15 239 0
-0.25795513101461653 -0.42094451574973446 -0.7143177619543376		19 235 0
0.29431313946349075 0.4802753931776692 -0.6918817259092618		22 232 0
-0.3038258877163178 -0.4957987874632807 -0.7142446305736797		25 229 0
0.34257335166285 0.5590289018763873 -0.6872926491658136		29 225 0
-0.35549288261988377 -0.5801116602655403 -0.7132126415246467		33 221 0
0.39951960988017415 0.6519567494239996 -0.6848623790234687		38 216 0
-0.41618506487878554 -0.6791523002802583 -0.7134305465817081		44 210 0
0.46194004700311486 0.7538176450543871 -0.6747224251345272		49 205 0
-0.4867732189674344 -0.7943416986211281 -0.7109944438093606		56 198 0
0.5236071764685283 0.8544492543129116 -0.6470618181864575		59 195 0
-0.573499039557219 -0.9358653752681984 -0.7087170457954716		73 181 0
-0.6136260390137392 -1.0013466870307377 -0.6336757030349782		77 177 0
0.5017827060021439 0.81883495536165 -0.5181779924263955		46 208 0
0.4829321947305496 0.7880737167398584 -0.40861756236921587		36 218 0
-0.6405717108646416 -1.0453180271014517 -0.5419991747749008		77 177 0
0.515373664356523 0.8410133836819408 -0.34638630826806943		41 213 0
-0.6440988832367761 -1.0510738492877136 -0.43290344414966936		73 181 0
-0.7903721903839056 -1.2897701923376672 -0.4010793582634291		105 149 0
0.7006648042185506 1.1433810428758078 -0.35555677875918884		83 171 0
1.7508545484774996 2.85713494885013 -0.6119879362657543		216 0 38
-0.8100212815357132 -1.3218345948842922 -0.28313217271500624		106 148 0
0.5216497113229157 0.8512549615125482 -0.1022915889845731		36 218 0
-0.810830356684427 -1.3231548855307345 -0.15899774078631826		104 150 0
0.7152948410806863 1.1672550932120402 -0.03226201627156276		81 173 0
-0.6658024379755723 -1.0864908317049105 -0.030029755359568165		69 185 0
0.7138919750061227 1.1649658238414478 0.07519226890627531		81 173 0
-0.671744203100231 -1.096186911148108 0.07075296056565322		71 183 0
0.7132580198399731 1.1639313030340026 0.18335462620705442		82 172 0
-0.7613081802577456 -1.2423420383785644 0.19570670491844022		93 161 0
0.7091478875218095 1.1572241766762847 0.2922028037840313		83 171 0
-0.7789742710522713 -1.2711704784465816 0.32097460922084		100 154 0
0.7049712459103752 1.1504085170161331 0.40350562129456585		86 168 0
-0.8023871527150862 -1.3093768288885932 0.45926373373849916		110 144 0
0.6935491507417404 1.131769351744651 0.5135208953459462		88 166 0
-0.6420221743025907 -1.0476849683097875 0.47536905124491763		74 180 0
0.6562621048439867 1.070922422988353 0.6031262004642933		84 170 0
-0.6557922159815398 -1.070155634055415 0.6026943573300427		84 170 0
0.6470939646749866 1.0559613779857369 0.7193552453994274		89 165 0
-0.6556593302762116 -1.0699387842929795 0.7288771093177573		91 163 0
0.6391987552552095 1.0430775671738384 0.8455093968365442		95 159 0
-0.7232898604014985 -1.1803017789793446 0.9567421221931092		120 134 0
0.6361316341117035 1.0380724803611798 0.9911846798650391		106 148 0
-0.647860709984709 -1.0572125926130143 1.009460268895501		109 145 0
0.6282576845450933 1.02522336247654 1.1470424311429521		117 137 0
-0.5924052036647374 -0.9667174310641863 1.0815847091872186		105 149 0
0.6217615174004185 1.0146225811616316 1.3285821891312695		132 122 0
-0.5911313125485926 -0.964638629697087 1.2631314600708448		121 133 0
0.6087491758507246 0.9933883696502677 1.5266119310239405		149 105 0
-0.5878548799427762 -0.9592919776215216 1.4742135333113904		141 113 0
0.6028922495875509 0.9838307346463186 1.7870195916532496		175 79 0
-0.5876033038074013 -0.9588814426805689 1.741701965388297		168 86 0
0.5362026264768343 0.8750031606591122 1.9019340714640736		179 75 0
-0.54314298649282 -0.8863287988604872 1.9265518307416976		182 72 0
0.43631948402929005 0.7120086861403616 1.8888763693574782		167 87 0
-0.4441281339519833 -0.7247512446909129 1.9226808975883911		171 83 0
0.35996154164850336 0.5874038490405917 1.9617669093616428		169 85 0
-0.3525253347071065 -0.5752690621974392 1.921240066849565		163 91 0
0.2725440700255546 0.44475150048814927 1.9672876842768687		163 91 0
-0.2658561685578961 -0.4338378371948033 1.919012826600659		157 97 0
0.1869297210581323 0.305041580683228 1.9589139627455325		158 96 0
-0.18289800124486927 -0.29846241190392653 1.9166639011107611		152 102 0
0.10392057410595347 0.16958296418219299 1.9412004359510817		153 101 0
-0.10259082260913562 -0.1674130069586501 1.916361137212254		150 104 0
0.020657943867194165 0.040543497655891096 1.9308512304558851		150 104 0
-0.02047634015654196 -0.04018708030552674 1.9138771428883072		148 106 0
0.09024867896174077 0.17712300543827467 1.9402068489957902		153 101 0
-0.08909328099048804 -0.17485540924185636 1.9153675817297349		150 104 0
0.16184990883206876 0.31764833138887 1.9520358973586822		157 97 0
-0.1589170967994196 -0.31189236368292383 1.9166639011107611		152 102 0
0.2354144350584088 0.4620268433931946 1.9557014699974666		162 92 0
-0.23064944843453455 -0.4526750305865918 1.9161164235558006		157 97 0
0.30990974080630257 0.6082321130648296 1.9438594725931355		166 88 0
-0.30585275610192836 -0.6002698322633568 1.9184126824172576		163 91 0
0.37507681211918764 0.7361296918365017 1.8687769962751586		164 90 0
-0.38534557874647063 -0.7562832810977952 1.9199399427254231		171 83 0
0.45922143977516106 0.9012728220559348 1.874679431122601		175 79 0
-0.4708512397498734 -0.9240975896632377 1.9221557571655328		182 72 0
0.5159709903747318 1.012650086245349 1.7601644070708296		171 83 0
-0.475629824608231 -0.9334760905076984 1.6225460419949895		150 104 0
0.5198546896545784 1.0202722752521987 1.5004121387125082		145 109 0
-0.4777735536130037 -0.9376833955734213 1.3789569540540052		126 128 0
0.5260236101930824 1.032379463508693 1.2936242904510329		126 128 0
-0.4812701277696181 -0.9445458087464705 1.1835642269416944		108 146 0
0.5275190169012919 1.035314364424228 1.108455165365		110 144 0
-0.490142810328885 -0.9619594287493005 1.0299179981548146		96 158 0
0.5344523362369396 1.048921769790392 0.9584178739728663		99 155 0
-0.5618613336367432 -1.1027149560326206 1.007569634072958		109 145 0
0.5363835147977528 1.0527119211218503 0.8165753707901993		89 165 0
-0.527813205377657 -1.0358917418185505 0.8035281696748984		86 168 0
0.5403168510796756 1.0604315282304366 0.6912942024740286		82 172 0
-0.5305269029429736 -1.0412176731690046 0.6787687104855828		79 175 0
0.5416394955996944 1.0630273642604744 0.5729009335303414		75 179 0
-0.5563347865322235 -1.0918684966261212 0.588444382562667		80 174 0
0.5447526622857664 1.0691372979039477 0.46421436337452404		71 183 0
-0.5325088113763337 -1.0451073874812666 0.4537806898036157		67 187 0
0.5444287036684502 1.0685014933182544 0.358639018232192		66 188 0
-0.686761219186112 -1.347844783548206 0.45239967648517904		107 147 0
0.5466751680438049 1.0729104279015687 0.25924790133065734		64 190 0
-0.5887190908664369 -1.1554262725259252 0.2791862475234795		76 178 0
0.5465987237901436 1.0727603976062476 0.1617156902674307		62 192 0
-0.6435297802335868 -1.2629983072918742 0.19039353384600755		88 166 0
0.5479627248907957 1.0754374004959077 0.06642476755592476		61 193 0
-0.8469849918033039 -1.6623016429183792 0.10267264295231764		143 111 0
0.5481871381361229 1.0758778362887613 -0.02845598293399534		61 193 0
-0.5884620416183111 -1.154921784971121 -0.030546622948013687		72 182 0
0.5490853210989539 1.0776406196074793 -0.12391934927873804		62 192 0
-0.7532064612203387 -1.4782509136054134 -0.16998606766642255		118 136 0
-0.6610251601533987 -1.2973349237203016 -0.2659188472820468		95 159 0
0.4108851270851552 0.806407466973147 -0.16529189196741828		25 229 0
0.5488367864912445 1.0771528429754071 -0.3205385073028851		66 188 0
-0.554962443614534 -1.089175121998708 -0.32411608999937797		68 186 0
0.46401055364458477 0.9106719872481263 -0.3589258109247568		45 209 0
-0.5203538252420185 -1.0212518839997895 -0.4025089886982395		62 192 0
0.4225054312742145 0.8292135980517604 -0.41143525535598324		37 217 0
-0.5284235471167273 -1.0370896049275984 -0.5145781827902279		69 185 0
0.424848211739818 0.8338115636056461 -0.5049349199441303		43 211 0
-0.5204183264535251 -1.0213784747551105 -0.6185206357092988		73 181 0
0.3801108467083277 0.7460095410062241 -0.540615860794299		35 219 0
-0.5017273176902877 -0.9846953045978911 -0.7135859133882725		74 180 0
0.3819601857443678 0.7496390732265973 -0.6420900843324836		42 212 0
-0.4247477754711475 -0.8336144463296276 -0.7140177043343252		57 197 0
0.3481461782232794 0.6832753468324789 -0.6868551805144083		39 215 0
-0.36262686904490216 -0.7116953027659746 -0.7154240350082872		44 210 0
0.29734464896648877 0.5835717318173739 -0.6865727882421985		29 225 0
-0.3095057418826828 -0.6074392205331265 -0.714652915127167		34 220 0
0.2557238972275142 0.5018864072074404 -0.6918817259092618		22 232 0
-0.2648445852148283 -0.5197867652687826 -0.716558486331577		26 228 0
0.21772070151361436 0.42730093605657204 -0.6938815505384166		16 238 0
-0.22490264960372827 -0.44139630282822656 -0.7167706062965997		19 235 0
0.18395414826572923 0.36103034391757344 -0.6975922606412636		11 243 0
-0.1891624592104764 -0.3712522296936752 -0.7173432553338182		14 240 0
0.02681976595992655 0.05263675442814145 -0.12302468141444746		0 255 0
-0.15678309148569797 -0.3077041424354099 -0.7191781580055642		10 244 0
-0.12645594559501455 -0.24818376730836653 -0.7199900773401654		7 247 0
0.01948631465255352 0.03824404585068061 -0.1435223902331365		0 255 0
-0.03678557820383434 -0.07219576223392749 -0.27093651129309204		0 255 0
0.014095161058807064 0.02766331117080193 -0.14420841740270807		0 255 0
-0.01424080139101216 -0.02794914641681318 -0.14569847216190457		0 255 0
0.008961024724680534 0.01758700126474947 -0.14695372544579252		0 255 0
-0.009193399184594083 -0.018043061820987062 -0.15076448299104386		0 255 0
0.005778543516400652 0.01134103021180663 -0.14696254444096957		0 255 0
-0.005868269431558832 -0.01151712723551225 -0.1492444946861346		0 255 0
0.004870923220190474 0.011759448899461913 -0.14696254444096957		0 255 0
-0.004870923220190433 -0.01175944889946193 -0.14696254444096957		0 255 0
0.007399420148122075 0.017863780475293117 -0.14395531920912857		0 255 0
-0.0077099663824134 -0.018613505405863307 -0.14999697941921347		0 255 0
0.011820234620303413 0.028536570730768603 -0.14346757886173733		0 255 0
-0.01122340302017423 -0.027095691787284146 -0.13622356151273998		0 255 0
0.02997870801413183 0.07237500347014034 -0.26194491012138527		0 255 0
-0.08312461735973875 -0.20068057859695798 -0.7263178390778978		5 249 0
0.0391769523394191 0.09458152967027028 -0.26462142893315854		0 255 0
-0.10659385015993918 -0.2573403187216941 -0.7199900773401654		7 247 0
0.12886921955622158 0.31111781762506735 -0.7012834147526846		8 246 0
-0.13182869981268558 -0.3182626349978013 -0.7173883809136814		10 244 0
0.1552518093336707 0.3748110236763111 -0.698450837374641		11 243 0
-0.1592603044348051 -0.3844883869141795 -0.7164843583494795		14 240 0
0.182875415138739 0.4415003074525554 -0.6914297224281967		15 239 0
-0.1889290451668992 -0.45611506316813316 -0.7143177619543376		19 235 0
0.21579823919374713 0.5209830357977795 -0.6926527242217473		22 232 0
-0.22300585887442362 -0.5383837689833011 -0.7157871919802812		26 228 0
0.24985316015331036 0.6031988878439011 -0.6844132524033161		28 226 0
-0.2603667180909751 -0.6285808620058129 -0.7132126415246467		33 221 0
0.2923285471386121 0.7057435431708627 -0.6841981232073535		38 216 0
-0.30567004153946314 -0.7379527598957292 -0.7154240350082872		44 210 0
0.30500499363571093 0.7363471922268556 -0.6082637309234428		36 218 0
-0.35773058673355956 -0.8636380341678558 -0.7134130453348497		57 197 0
-0.41362456780074386 -0.9985780413152789 -0.6978979956373201		71 183 0
0.3034525634266839 0.7325992941615849 -0.5120076327006484		28 226 0
0.32291614484032294 0.7795885363827453 -0.4553008646401549		30 224 0
-0.40375542363707867 -0.9747518196263427 -0.5692815191263252		60 194 0
0.3550983213186015 0.8572831833032901 -0.41022765121586885		37 217 0
-0.4046033661098612 -0.9767989338442468 -0.46741839819728076		55 199 0
0.35841372195513177 0.8652872684847019 -0.3289035525994709		34 220 0
-0.40515777225459715 -0.9781373886779311 -0.37179890862132625		50 204 0
0.35577270192128563 0.8589112821004915 -0.24649988650731314		30 224 0
-0.40549071469222364 -0.9789411828263387 -0.2809473987510088		47 207 0
-0.4059264150944479 -0.9799930566465198 -0.19372494535598836		45 209 0
0.36207713153394283 0.8741315215743951 -0.17279824596964224		30 224 0
0.44083430576111776 1.0642681597278223 -0.1180271115196321		55 199 0
-0.40632087537172695 -0.9809453679977445 -0.10878663171972133		44 210 0
0.4395878747053872 1.0612590089685146 -0.02707057988235591		54 200 0
-0.4064295455977399 -0.981207721131211 -0.02502863275750515		43 211 0
0.43942633645480433 1.0608690211331153 0.06319347141892838		54 200 0
-0.40668923320786254 -0.9818346624815493 0.058485580637815206		43 211 0
0.4384421110624222 1.0584928908423945 0.1538873460789972		55 199 0
-0.4067014607866546 -0.9818641824681041 0.1427468002451972		44 210 0
0.4365712164770713 1.0539761517606698 0.24561116518493042		56 198 0
-0.40675120946891313 -0.9819842864115229 0.22883468888354253		46 208 0
0.4329666872199226 1.0452740483420908 0.3383592936810539		58 196 0
-0.40666173998450983 -0.981768287968858 0.3178022309101494		49 205 0
0.4321453622630003 1.0432911944919736 0.4368739742421044		61 193 0
-0.4065341679437353 -0.9814603018178404 0.41098253764597775		52 202 0
0.4273255556941837 1.0316551521055213 0.5362103286815635		65 189 0
-0.4063488292284719 -0.9810128545778187 0.5098886232675996		57 197 0
0.4250863258406595 1.0262491730238725 0.6452063626864708		70 184 0
-0.40627955960890705 -0.9808456229228046 0.6166609955536075		63 191 0
0.4201017839488425 1.0142154243864312 0.7587216644196018		77 177 0
-0.40534540595345697 -0.9785903764984768 0.7320710190254738		71 183 0
0.4185253144642862 1.010409490376148 0.8903786963480104		86 168 0
-0.4046106220005816 -0.9768164511140308 0.8607763155415536		80 174 0
0.41260474933848407 0.9961159817525234 1.0285403597917453		96 158 0
-0.40845999321969906 -0.9861096553178331 1.01820831936687		94 160 0
0.4092463264046815 0.9880080315575522 1.1939738581317614		110 144 0
-0.3903882189169055 -0.9424805326998826 1.1389554354814024		101 153 0
0.39971743163547235 0.9650032445713015 1.3686386348534816		124 130 0
-0.38812766712560887 -0.9370230779068874 1.328955102884042		118 136 0
0.40071659997842174 0.9674154503359436 1.621706987391075		150 104 0
-0.3864117255085864 -0.9328804283828313 1.5638149138340318		142 112 0
0.3841882244109958 0.9275124218770677 1.8606128333126324		173 81 0
-0.39725898969379403 -0.9590680406934038 1.9239141842680982		182 72 0
0.3195649692298509 0.7714980827740497 1.8888763693574782		167 87 0
-0.32482038458076035 -0.7841857777901267 1.9199399427254231		171 83 0
0.25300045593367104 0.6107971320016475 1.882599966226473		158 96 0
-0.2580665983970189 -0.6230278818455822 1.9202976043402227		163 91 0
0.19941820035803756 0.4814381238884113 1.965356637924214		163 91 0
-0.19461788507434852 -0.4698491376268668 1.9180473577783415		157 97 0
0.13684061630133346 0.3303624717581733 1.957931378517669		158 96 0
-0.13402508533369306 -0.32356517871081747 1.9176464355107623		153 101 0
-0.07513859515875441 -0.1814006154899287 1.916361137212254		150 104 0
0.07615147670543776 0.18384592785700735 1.9421940241402185		153 101 0
0.01405393856760549 0.043253575361992 1.9298527443898774		150 104 0
-0.013937598021552637 -0.042895515978699686 1.9138771428883072		148 106 0
0.06139796717045468 0.18896351277653603 1.9392132632762409		153 101 0
-0.06064298245553101 -0.1866399087485988 1.9153675817297349		150 104 0
0.1101106679058887 0.33888578988132695 1.9510533212164725		157 97 0
-0.10816984856714429 -0.332912562153846 1.9166639011107611		152 102 0
0.16000184531251208 0.4924350452359824 1.9528049405201808		161 93 0
-0.1570748996307185 -0.48342683269692616 1.9170818900961477		157 97 0
0.2024571004054817 0.6230988849021915 1.865636594336917		156 98 0
-0.20808203625623856 -0.6404106573677408 1.917470223006677		163 91 0
0.2554277507376642 0.7861257833830173 1.8696905938827242		164 90 0
-0.2620429283491674 -0.8064852066134413 1.9181126440373275		171 83 0
0.3065674762078058 0.943517674558135 1.838634216022313		170 84 0
-0.3024631916084806 -0.9308859854149214 1.8140188256686043		166 88 0
0.3210675636874776 0.9881443550819219 1.6091212984320105		148 106 0
-0.3036578702393704 -0.934562828169426 1.5218676742889483		136 118 0
0.3212744972309613 0.9887812310419911 1.3622890202038909		123 131 0
-0.304991139709303 -0.9386662096676562 1.2932432685024795		113 141 0
0.5535102732341346 1.703529455590081 1.9998296855885591		243 11 0
-0.30618552361211077 -0.9423421453423948 1.106246675132572		95 159 0
0.3742439292260431 1.1518043798667794 1.1553117120315		119 135 0
-0.314883953730752 -0.9691131605178067 0.9720641839889363		86 168 0
0.3769396398359328 1.1601009240318256 0.9930752005668353		106 148 0
-0.3142940109840198 -0.967297503438313 0.8280306845169343		74 180 0
0.38031916614234346 1.1705020365085166 0.8506158441941979		97 157 0
-0.31514974577184707 -0.9699311843069972 0.7048589472006191		65 189 0
0.38403848027166254 1.1819489083739052 0.7218609448255012		89 165 0
-0.3158182568766282 -0.9719886499286008 0.5936302662713412		58 196 0
0.38729395138379635 1.191968218221469 0.6018306754988991		83 171 0
-0.3161898714763144 -0.9731323620642293 0.49133936447132454		52 202 0
0.3909166830567343 1.2031178398508737 0.48940434238008956		79 175 0
-0.3165038256353564 -0.9740986136109405 0.3962438886840121		47 207 0
0.39301355770783275 1.2095713564440795 0.3803544098966925		76 178 0
-0.3165831529172493 -0.974342757880471 0.3063858636668		44 210 0
0.39560051789888695 1.2175332012354148 0.27561773188163274		73 181 0
-0.3167177522599979 -0.9747570120617631 0.22065954055920128		41 213 0
0.39770362715830965 1.2240059059800208 0.17286517020831962		72 182 0
-0.31712682012851917 -0.9760159935062984 0.13784179473253474		40 214 0
0.4000533802455953 1.2312377023731869 0.07124614522111974		72 182 0
-0.3167263392974235 -0.9747834402454808 0.05640629945704999		38 216 0
0.40208795825659976 1.237499489622754 -0.03066409966821066		73 181 0
-0.31650241014518427 -0.9740942571801408 -0.02413716016764506		38 216 0
0.40409052015606367 1.2436627414129084 -0.13398073421701184		74 180 0
-0.3164718371258262 -0.9740001631017807 -0.10492977929982009		39 215 0
0.40626664514507854 1.2503601654664354 -0.24010803746920056		77 177 0
-0.315676298913232 -0.9715517482416856 -0.18656815053209866		40 214 0
0.4078330726774373 1.2551811336949539 -0.3499321454892801		80 174 0
-0.3155336863933403 -0.9711128320370196 -0.27073669903444547		42 212 0
0.41088962488539565 1.264588234105904 -0.46694572952587354		86 168 0
-0.31496609578554063 -0.9693659677675394 -0.35793571914481437		45 209 0
0.2678968103205121 0.8245016027852059 -0.3832667556998938		29 225 0
-0.314607892642533 -0.9682635318513405 -0.4500939977091363		49 205 0
0.25886084501811935 0.7966917611315445 -0.4519936953781803		29 225 0
-0.31410652333352407 -0.9667204757829586 -0.5484574857737797		54 200 0
-0.32028300312640595 -0.985729725959207 -0.6692321759066253		64 190 0
0.2414227272031183 0.7430227530129933 -0.504453422324402		27 227 0
0.23797920419167007 0.7324246789307748 -0.5877346238443429		31 223 0
-0.289846900006416 -0.8920570324510441 -0.7158317018764304		57 197 0
0.2367429267357913 0.7286198081574358 -0.6861909076934735		39 215 0
-0.24705791803912444 -0.7603660870778197 -0.71608854114288		44 210 0
0.20218090750492196 0.6222488505590541 -0.6858529351241578		29 225 0
-0.21088307352418134 -0.6490313636543029 -0.7153730623206543		34 220 0
0.17425714736309286 0.5363083536745158 -0.6926527242217473		22 232 0
-0.18065943467615597 -0.5560125679382031 -0.7181011021835693		26 228 0
0.147846503221257 0.4550247489929931 -0.6922469857566089		16 238 0
-0.15325875708934386 -0.4716819536218231 -0.7175882440529039		19 235 0
0.12551999564562072 0.38631082418483836 -0.6993094292305477		11 243 0
-0.128911078580708 -0.39674750430735745 -0.7182021662770464		14 240 0
0.10366372018651768 0.3190441250203891 -0.6985997991747963		7 247 0
-0.10685009278127347 -0.3288507714985795 -0.7200730711236341		10 244 0
0.03258145818781346 0.10027541748179786 -0.2725349321301893		0 255 0
-0.08596393807428389 -0.26456979700198113 -0.7190646868433265		7 247 0
-0.06668403783430608 -0.2052323654350192 -0.7215662930570271		5 249 0
0.025122082328219855 0.07731781920112399 -0.27183788516959223		0 255 0
0.01332545033878063 0.041011519133111754 -0.2002935038179299		0 255 0
-0.05001627553543059 -0.15393426780621883 -0.7517896071219177		7 247 0
0.005913542803379027 0.018200013332340927 -0.14247382049420595		0 255 0
-0.006162417848573151 -0.018965971961748863 -0.14846991787498823		0 255 0
0.0038529182026096082 0.01185806292225452 -0.1439602075750652		0 255 0
-0.003933272062581439 -0.01210536667423846 -0.14696254444096957		0 255 0
0.0029106680476734307 0.012123804949783745 -0.1439602075750652		0 255 0
-0.0029257538328605866 -0.012186641767355611 -0.1447063430777782		0 255 0
0.004513810065216318 0.018801372026877462 -0.14395531920912857		0 255 0
-0.006978400372157849 -0.029067129465748572 -0.22255651846860672		0 255 0
-0.03651741475779318 -0.15210597929493547 -0.7265777656122817		3 251 0
0.012746088746451233 0.05309128052514573 -0.25360570410357075		0 255 0
0.019104292625513074 0.0795751056807902 -0.2736417887662077		0 255 0
-0.050376127394217325 -0.20983167185318333 -0.7215662930570271		5 249 0
0.024693071951844597 0.1028540469238451 -0.27341597837172665		0 255 0
-0.06485745962920629 -0.27015076168218705 -0.7181393151004755		7 247 0
0.030102671806572397 0.12538665195502413 -0.2685368069029187		0 255 0
-0.08071937544346193 -0.336220395976501 -0.7200730711236341		10 244 0
0.09493988499543812 0.3954530811439117 -0.7001680361533507		12 242 0
-0.09715231068878812 -0.4046684973757703 -0.7164843583494795		14 240 0
0.11155805090259002 0.4646727237762963 -0.6914297224281967		15 239 0
-0.11551473186083451 -0.4811534860620001 -0.7159529800018324		19 235 0
0.13149517064602745 0.547716804059902 -0.6918817259092618		22 232 0
-0.136038509807427 -0.5666411736243304 -0.7157871919802812		26 228 0
0.1525762625856491 0.6355258714692635 -0.6851330898362948		29 225 0
-0.15898983152423654 -0.6622403086946302 -0.7139327748548427		34 220 0
0.17815375629198738 0.7420638001237642 -0.6835338730925726		38 216 0
-0.18629229774181122 -0.7759632649535979 -0.7147595338606045		44 210 0
0.20601886451561136 0.8581303290011705 -0.67351359742179		49 205 0
-0.2180386196218693 -0.9081962121818229 -0.7128083897738429		57 197 0
-0.23530906140244426 -0.9801327793598131 -0.6508466643121926		60 194 0
0.18647852528479694 0.7767389584955698 -0.5157851781147117		29 225 0
0.2006657952399128 0.835833190777825 -0.46380611877690125		32 222 0
-0.23114871686300564 -0.9628036972061924 -0.5342623993307707		51 203 0
0.348625677172121 1.4521304529726613 -0.6602221480423784		113 141 0
-0.2310755108857389 -0.9624987723659139 -0.43760738277936184		45 209 0
0.34689146807394555 1.4449069522147424 -0.5218335067998283		106 148 0
-0.23201673333845665 -0.966419246031823 -0.34902589638912707		42 212 0
0.3634885453302827 1.5140387542947369 -0.4128470999138975		111 143 0
-0.2320770680347945 -0.9666705581286076 -0.26359109723148744		39 215 0
-0.23207428658133258 -0.9666589725411423 -0.1815597871596814		36 218 0
0.5398908463490633 2.248807218171689 -0.4223753893486256		202 52 0
-0.23237262290313 -0.9679016327537345 -0.10198722193380143		35 219 0
0.5243841348448712 2.184217116308419 -0.23014966423683322		191 63 0
-0.23236279167949292 -0.9678606827601794 -0.023457020482408043		35 219 0
0.5486685789971322 2.2853691059526056 -0.0553880851687371		202 52 0
-0.2323081391532631 -0.9676330386052395 0.05476523607855066		35 219 0
0.5177164083184412 2.1564440365408544 0.12204850603444788		186 68 0
-0.2328919599167484 -0.9700648270971589 0.13399838146445828		36 218 0
-0.23290039112608213 -0.9700999456114581 0.21479176738870628		38 216 0
0.4872778719367724 2.0296584079483995 0.44939072371950417		176 78 0
-0.23225662480643297 -0.9674184659082314 0.2975405385040616		40 214 0
-0.23237851145674673 -0.9679261603447606 0.3851028116404698		44 210 0
-0.23194516740039287 -0.9661211524464597 0.47710728155743753		48 206 0
-0.23174333872997172 -0.965280475531957 0.5766113322777175		54 200 0
-0.2309947722128124 -0.9621624715901357 0.683887266641156		60 194 0
-0.2303909799330045 -0.9596474957458695 0.8034759985675931		69 185 0
0.3053207062397936 1.2717522675044646 1.2476643925505306		135 119 0
-0.23046315843054832 -0.9599481408250942 0.9417660535040855		80 174 0
0.42935367290438325 1.7883867550361159 2.0534286542207663		252 2 0
-0.22586674397049297 -0.9408026967313851 1.0802312251509494		91 163 0
0.23761483342553513 0.9897370110374608 1.33371692645733		119 135 0
-0.2246077176432985 -0.9355584746601839 1.2607088139878204		108 146 0
0.22724717561668348 0.9465526083498746 1.5076063414566443		133 121 0
-0.2234537937128161 -0.9307520355778436 1.4824402349987165		130 124 0
0.2206326065801098 0.9190009454625869 1.75160455444502		158 96 0
-0.22173985301957594 -0.9236129588023418 1.7603949954243907		159 95 0
0.19475312430293004 0.8112051438833903 1.8870491342599893		167 87 0
-0.19814762399728986 -0.8253442526798909 1.9199399427254231		171 83 0
0.1543358778981557 0.6428551967258949 1.882599966226473		158 96 0
-0.15734907377362123 -0.6554060608132182 1.9193551428622804		163 91 0
0.1209921287631606 0.5039684861199464 1.9547359590940485		162 92 0
-0.11878097700818398 -0.49475837622331403 1.919012826600659		157 97 0
0.08339202049369732 0.34735276378977514 1.9559662135133067		157 97 0
-0.08180015859950375 -0.34072218180787966 1.9186289711346414		153 101 0
0.04645408628692725 0.19349519493069978 1.9421940241402185		153 101 0
-0.04583620612486439 -0.19092153883371854 1.916361137212254		150 104 0
-0.007051985047066862 -0.04452448127238564 1.9128786788697083		148 106 0
0.007121923347047404 0.044966054319820536 1.931849717800726		150 104 0
0.031113500619425055 0.19644291166273972 1.9412004359510817		153 101 0
-0.030699452429998917 -0.19382871427960655 1.9153675817297349		150 104 0
0.05576967782250957 0.35211588782481235 1.9520358973586822		157 97 0
-0.05475909966800058 -0.34573534847109183 1.9166639011107611		152 102 0
0.08079790877405092 0.5101379189047449 1.9479774130192773		161 93 0
-0.07955647452702093 -0.5022998115472016 1.9180473577783415		157 97 0
0.10238683385576329 0.6464450273396137 1.8637517975526887		156 98 0
-0.10533790250619644 -0.6650773415012119 1.917470223006677		163 91 0
0.1293058448901773 0.816404974031701 1.8696905938827242		164 90 0
-0.13259147626867474 -0.8371496341243729 1.917198996063351		171 83 0
0.1488130608099468 0.9395686880922399 1.763032147548366		159 95 0
-0.14703232011729145 -0.9283255338467657 1.7419351882458323		156 98 0
0.15321308037167752 0.9673493182647174 1.5168342191735416		135 119 0
-0.1477054975002655 -0.932575808568163 1.4623082600059523		127 127 0
0.15562809170869144 0.9825970997517466 1.3035596789677744		114 140 0
-0.14842820513439625 -0.9371388049878235 1.2432525600643558		105 149 0
0.2812479630060919 1.7757297524290006 2.0072738800779932		245 9 0
-0.1490649091719301 -0.9411587960692027 1.0638800559438701		88 166 0
0.3304707705577274 2.0865103281647 2.0152428439939976		246 0 8
-0.15093602417644006 -0.9529725512630591 0.9204225296813332		76 178 0
0.23818216351364144 1.503822995652847 1.2395655104631045		154 100 0
-0.15087983047934275 -0.9526177582228957 0.7852201496860026		65 189 0
-0.15132902120368308 -0.9554538368390775 0.6685861896651919		57 197 0
-0.1516547011964894 -0.9575100993869579 0.563098802322453		50 204 0
-0.15191740807663176 -0.9591687653493723 0.4663275465822688		45 209 0
-0.15208727022538904 -0.9602412327483746 0.3761199770887887		40 214 0
-0.15220583303253635 -0.9609898088515851 0.290979332039692		37 217 0
-0.1524156112274607 -0.9623142962475345 0.20976338262855082		35 219 0
-0.15251428677027806 -0.962937309105459 0.13095087271068806		33 221 0
-0.15256325846756916 -0.963246504233407 0.05367144723108483		32 222 0
-0.15197355483032868 -0.9595232620005703 -0.022894285575631158		32 222 0
0.2617603471747204 1.652689788456272 -0.03943328263450154		119 135 0
-0.15230812102408617 -0.9616356298131659 -0.09975545971999786		33 221 0
-0.15199262019379672 -0.9596436359680446 -0.1774467113041427		34 220 0
0.26648400575420594 1.6825137949673072 -0.3111118840897968		126 128 0
0.263353812125725 1.6627505302042591 -0.4463658185214266		127 127 0
-0.15175422866573743 -0.9581384910966745 -0.25721253072324296		36 218 0
0.26590627102401265 1.6788661214394685 -0.5969249545067623		134 120 0
-0.15150900112465043 -0.9565901853376964 -0.34011797937451393		38 216 0
0.24204553345933222 1.5282153534992027 -0.6840385903307605		121 133 0
-0.1512839291954464 -0.9551691371037733 -0.4275395797953908		42 212 0
0.1973144239136391 1.2457942428519846 -0.6805730839465214		89 165 0
-0.151055048729088 -0.9537240427126238 -0.5210161442847447		47 207 0
-0.15178916633610423 -0.9583590788658721 -0.6265180962576796		54 200 0
0.12692281512184128 0.8013591162223537 -0.5238808699016174		31 223 0
0.1389229039406069 0.8771246951780709 -0.67774456535592		50 204 0
-0.14697782923903713 -0.9279814919816513 -0.7170410506042791		58 196 0
0.11996299741383125 0.7574165566265428 -0.6868551805144083		39 215 0
-0.12506876303220005 -0.7896530920331135 -0.71608854114288		44 210 0
0.10256540902375538 0.6475725065770072 -0.6872926491658136		29 225 0
-0.10686334813827005 -0.6747086261712714 -0.7160932164144235		34 220 0
0.08841103124922858 0.5582052824638049 -0.6941947509042055		22 232 0
-0.091259224654814 -0.576188067892421 -0.716558486331577		26 228 0
0.027846300570267307 0.17581462240362344 -0.2575534936544672		0 255 0
-0.07767297640006737 -0.4904078723952606 -0.7184058932316106		19 235 0
0.024225689373465364 0.1529549829757655 -0.26661374525193493		0 255 0
-0.06525898569534075 -0.41202901978012835 -0.7182021662770464		14 240 0
-0.05409099631412502 -0.3415171099086004 -0.7200730711236341		10 244 0
0.02023626727901589 0.1277667631842568 -0.26939032594365797		0 255 0
0.016547115938318983 0.10447437831906603 -0.27341597837172665		0 255 0
-0.04351774468780524 -0.2747602264378813 -0.7190646868433265		7 247 0
0.012886474062729972 0.08136199513238279 -0.27544720825288593		0 255 0
-0.03375763137698077 -0.21313729623826122 -0.7215662930570271		5 249 0
0.009341953492287251 0.05898277301195301 -0.27737837044868574		0 255 0
-0.00573267627234676 -0.03619469349767224 -0.27283159748344044		0 255 0
0.005305699050329533 0.03349886541542834 -0.2525107434812752		0 255 0
-0.003489111558243118 -0.022029383385728418 -0.2575238481542607		0 255 0
0.002001418243244279 0.012636457464781953 -0.14772039218657781		0 255 0
0.0017814233557558496 0.022635129880037703 -0.26215544515829037		0 255 0
-0.0018636432328576888 -0.023679832471877726 -0.2742549769247669		0 255 0
0.002748353803149655 0.03492114611026467 -0.26079486211526154		0 255 0
-0.0029340161461050385 -0.03728020985165514 -0.2784126029882106		0 255 0
0.004592305710172242 0.05835077656455396 -0.2718659552106108		0 255 0
-0.004778774902939617 -0.06072009230484782 -0.28290499059033547		0 255 0
0.006484355322411211 0.08239154630866279 -0.27635047717150807		0 255 0
-0.01690871149598912 -0.21484555009296155 -0.7206160455338184		4 250 0
-0.021798066792423063 -0.2769706995173551 -0.7181393151004755		7 247 0
0.008299141452559193 0.10545059043069374 -0.27341597837172665		0 255 0
-0.027061696185663214 -0.34385145224321556 -0.718283261248504		10 244 0
0.01014942091699693 0.12896062012497983 -0.26939032594365797		0 255 0
0.012150300006695546 0.1543841994910219 -0.26661374525193493		0 255 0
-0.03273038971594841 -0.41587903282565253 -0.7182021662770464		14 240 0
0.014221200209187872 0.1806974814520756 -0.26225593923014795		0 255 0
-0.038823565631568746 -0.493300173503058 -0.7159529800018324		19 235 0
0.04424370974766775 0.5621696343417671 -0.6926527242217473		22 232 0
-0.04577070814541647 -0.5815719886153958 -0.716558486331577		26 228 0
0.05133352360881353 0.6522542608028569 -0.6858529351241578		29 225 0
-0.05348909425334071 -0.6796433827355338 -0.714652915127167		34 220 0
0.05993422114508581 0.761536484572648 -0.6841981232073535		38 216 0
-0.06278595991847956 -0.7977712612815081 -0.7167530522505128		44 210 0
0.06936554627292654 0.8813728325804243 -0.6747224251345272		49 205 0
-0.073529664908539 -0.9342829765102735 -0.7152270326137996		57 197 0
0.06123142063450723 0.7780189668688985 -0.5039138818482101		26 228 0
-0.07474996976259224 -0.9497884198264226 -0.6151669688662735		52 202 0
0.0977911149661463 1.2425539281386802 -0.6725188722265069		87 167 0
-0.07472936291720184 -0.9495265850299253 -0.5139209926043072		45 209 0
0.1195343059630978 1.518827364563703 -0.6735428615540333		118 136 0
-0.07487543981504777 -0.9513826680011812 -0.4219024621158976		41 213 0
0.14482344372138195 1.8401563265217946 -0.6482151372117845		153 101 0
-0.0751043624501752 -0.9542914058718551 -0.33615955649077006		37 217 0
0.1532910627093299 1.9477476270105838 -0.5180328479624463		161 93 0
-0.07513042005721253 -0.9546224991618063 -0.2538962466758694		34 220 0
0.15222987295591112 1.9342639327397135 -0.35435166753117214		155 99 0
-0.07515594107172276 -0.9549467743972483 -0.17494354114946642		32 222 0
0.15066777677714593 1.9144156188747268 -0.19675380364691133		150 104 0
-0.07530218261367941 -0.9568049493702834 -0.09833549793510771		31 223 0
0.14984771624893325 1.9039957619072003 -0.04500889439209794		148 106 0
-0.07536320196733123 -0.9575802737706526 -0.022636410372535363		30 224 0
0.14927164624449218 1.8966760984884028 0.10470316638129187		147 107 0
-0.07527022825419073 -0.9563989307364069 0.05279657209345906		30 224 0
0.14855526817108713 1.887573652019212 0.25431681128362355		148 106 0
-0.07533218752485571 -0.9571861979147802 0.1289637315068353		31 223 0
0.1484469397559736 1.886197208998034 0.4073433377939454		151 103 0
-0.07529836264392864 -0.956756412052544 0.20662121038142667		33 221 0
0.14743382509248082 1.873324366662474 0.5619751635857582		154 100 0
-0.0752158235127101 -0.9557076529525352 0.286700997524008		35 219 0
0.1471743368808511 1.8700272563188824 0.7256960625414429		160 94 0
-0.07511304558217947 -0.9544017355248526 0.3703719179561519		38 216 0
0.14620972590102566 1.8577707117184579 0.8948473047023381		167 87 0
-0.0749960785244532 -0.9529155281419944 0.4589984579841389		43 211 0
0.14546908559316069 1.848359984330862 1.0769327339537529		177 77 0
-0.07484517879399846 -0.950998165272203 0.5540917693489021		48 206 0
0.14309835407121319 1.8182369842384938 1.260546758438344		186 68 0
-0.07467631181701408 -0.9488525068894602 0.6578201643481252		55 199 0
0.20135898824608975 2.558508530123868 2.089394328300886		222 0 32
-0.07445998635217496 -0.9461038312435661 0.7726313810211689		63 191 0
0.1715339046604652 2.179544911811391 2.0856116841226724		239 0 15
-0.07434247924180681 -0.9446107618412722 0.9039002734781266		73 181 0
0.14398840299427484 1.8295461280801273 2.048962006731743		251 3 0
-0.07403174571109623 -0.940662517981669 1.0534753570403788		86 168 0
0.08095344544280017 1.0286110518949907 1.3519710956934023		122 132 0
-0.07354091846641007 -0.9344259665205936 1.228177449069625		103 151 0
0.072763816912325 0.9245519550735534 1.4363057158272465		123 131 0
-0.07314625102237576 -0.9294112411739905 1.443854691698854		124 130 0
0.07039450842027696 0.8944470362904328 1.6628271444908302		145 109 0
-0.07255269506194281 -0.9218693976183524 1.7138068503113253		152 102 0
0.06507466897518331 0.8268520671374933 1.8760858046817113		165 89 0
-0.06646904658479247 -0.8445693145247579 1.9162853490044973		171 83 0
0.051897004717260345 0.6594139671317488 1.8835423862639635		158 96 0
-0.05288374906220905 -0.6719517428009556 1.9193551428622804		163 91 0
0.04024268253773232 0.5113317634573207 1.9344604814215756		159 95 0
-0.039961493634605987 -0.5077589196846765 1.9209437676587884		157 97 0
0.028069621371787444 0.35665835601684415 1.9589139627455325		158 96 0
-0.027492370669107 -0.3493236904044989 1.9186289711346414		153 101 0
0.015612842091759269 0.19837996813146372 1.9421940241402185		153 101 0
-0.01541316454426359 -0.19584282433177386 1.917354693977222		150 104 0
-7.81240796528914e-17 0.045550092531631454 1.9328482064224182		151 103 0
2.3195078502973967e-16 -0.045079484532091464 1.9128786788697083		148 106 0
-3.4112385120557683e-16 0.19889159726677727 1.9412004359510817		153 101 0
1.0102766504473677e-15 -0.19634661133453807 1.916361137212254		150 104 0
-6.120661170393067e-16 0.35686395782820535 1.9540010531223333		157 97 0
1.8029587791547306e-15 -0.35040386858998257 1.9186289711346414		153 101 0
-8.801485480260736e-16 0.5131688972502979 1.9354259693656362		159 95 0
2.616736507179102e-15 -0.5085610418814273 1.9180473577783415		157 97 0
-1.1225542090181211e-15 0.6545030459204307 1.8637517975526887		156 98 0
3.464727876849508e-15 -0.6733676142217745 1.917470223006677		163 91 0
-1.4142266293778951e-15 0.8245620827160202 1.8651226157405894		164 90 0
4.3050266569873626e-15 -0.8366791367790399 1.8925308510242786		167 87 0
-1.5632338000894715e-15 0.9114404234778586 1.689195475500246		149 105 0
4.7653508273723744e-15 -0.9261428405382591 1.7164438350612365		153 101 0
-1.6212792620906596e-15 0.9452837170813508 1.4639858927670253		127 127 0
4.7969553819249356e-15 -0.9322851652038695 1.443854691698854		124 130 0
-1.7000510732905608e-15 0.9912114682303131 1.298798223454554		114 140 0
4.8228378036932335e-15 -0.937315397076581 1.228177449069625		103 151 0
-3.0641206612520055e-15 1.786529585605775 1.9946187705311647		242 12 0
4.841326560680766e-15 -0.9409086749977149 1.050502672682961		86 168 0
-3.634396081981594e-15 2.1190275593183707 2.0214517562507455		245 0 9
4.856839521339742e-15 -0.9439236088337163 0.9004583392286019		73 181 0
-4.228896138615684e-15 2.4656496598289745 2.007354416884389		230 0 24
4.8592434300884075e-15 -0.944390806938858 0.7688549952815369		62 192 0
-5.040254596936871e-15 2.938710629213259 2.0310679057454015		205 0 49
4.8762066078327145e-15 -0.9476875895241877 0.6549872003801561		54 200 0
-5.98596648114634e-15 3.490106101971453 2.027214936059232		177 0 77
4.89064229224748e-15 -0.9504931554212902 0.5520903562799104		47 207 0
4.890552683770878e-15 -0.9504757400720194 0.4564119493774744		42 212 0
-7.37488165110013e-15 4.299910387552439 2.064787557841882		131 0 123
-9.015009098062203e-15 5.256183502125071 2.033464037544856		78 0 176
4.897272696011062e-15 -0.9517817700895423 0.36821659675416285		38 216 0
4.9130513854539e-15 -0.9548483481422265 0.2855602073995281		35 219 0
-9.257570275644024e-15 5.3976083244400765 1.6142271760614093		78 0 176
4.9230737715162016e-15 -0.9567961923688035 0.20599283062417345		33 221 0
-9.315490391693403e-15 5.431378535330419 1.1693452039291057		83 0 171
