0.42363456122406 1.7645649404689439 0.785293148705839
0.42209130745259693 1.7581368258894774 0.9212702261683223
0.4122668889110933 1.7172151775972802 0.9708723119633754
0.3804295679285672 1.5846031918284684 1.1074954032828823
0.34830219343868823 1.4507830462521658 1.2342958052076025
0.34355601305574596 1.4310137821942885 1.2569303167094177
0.3916496596164645 1.6896923595886504 0.9983823286046516
-0.21529743711860672 -0.928856761664451 1.1163839527153678
0.4059980640519264 1.7515956161129378 0.8033575602432733
0.4330384575173428 1.9021837513030833 0.6338703894247859
-0.18583473218674046 -0.8163058080799374 0.14950344480326527
0.3864102679914248 1.7611584039600792 0.28557517565709767
-0.17858480021196965 -0.8139434889960714 0.3074222923832184
0.33919264994073156 1.545952671262518 1.1499176859421145
-0.17972413099409126 -0.8191362650375932 0.099257322342892
0.6570446216760089 3.111171664096846 -0.5036300642808084
-0.1721433537535199 -0.8151159094711353 0.18965684771590616
0.3566968791890521 1.688995216754052 0.24568169276265195
-0.17333453423893408 -0.8207562676002262 0.03295889007715325
0.41264259832155903 1.9539037638304855 0.5716879985966937
0.40565878148570106 1.9208346961748677 0.6378832361603018
0.37453828824671015 1.77347606398503 0.9057017837618461
0.37324081212897053 1.7673323854597314 0.9203632627753676
0.36473179622550544 1.7270413484511915 0.9703911054631554
0.35238107478851644 1.668559453465281 1.0358580638207788
0.34078126238584094 1.613633187477461 1.0926335467475092
0.3490638646532653 1.7548625520454462 0.2833881469325599
-0.162585536337725 -0.8173726876791282 -0.016365598368923033
-0.18414376569685734 -0.9257532255166039 0.8521220798691842
0.33708861123458733 1.7670803831942103 0.8037650076397578
-0.17357285719893548 -0.9099007821351834 1.0260653146430687
-0.1517617148395052 -0.8128930475094698 0.19853028791531996
0.5964278453534396 3.1946927414571444 -0.5147320788216773
0.36011741786637663 1.928924864747461 0.6375745536862677
0.33100926842613326 1.7730106255675495 0.9190028214540813
0.29046573194038205 1.5558441355501742 1.1499176859421145
0.3120860574200597 1.708820606526945 0.9998772061972843
0.32671170300339997 1.788903019574101 0.8732276047396128
0.4745985163461013 2.6576636823123576 -4.630334288577715e-15
-0.1610879132001031 -0.9020624418876257 1.2612240225893927
0.307780226410797 1.7235121933447848 0.2772959639489316
0.3444556937204577 1.9288880092051919 0.6366485082115476
0.31691755028869845 1.7746795126419133 0.9185493420214677
0.3276991806085303 1.9221687764413375 0.6335617112030261
-0.13848848459101032 -0.8123250124800367 0.06485378736044495
0.3020228058898906 1.7715601429844978 0.8029501133390184
-0.1583612247173389 -0.9288915553143158 0.5423902662951977
0.4429282774136042 2.6610987469591234 -4.626906210598861e-15
-0.13549463039515833 -0.8140473515705539 -0.13070621459994436
-0.1336476267030804 -0.8029506132017187 0.45586031263493215
-0.1525372675068275 -0.9164389634305323 0.7934809438971556
0.2787530009463258 1.7163275948129204 1.000873794115479
-0.1307578402810198 -0.8050973038875867 0.2544360793558618
-0.024222935821936836 -0.15293759773563156 -0.23775689386224008
-0.12890821966437874 -0.8138944671600616 -0.19783444399092798
-0.02387940355057296 -0.15076862033696808 -0.8548003259286675
-0.12910924985272476 -0.8151637218162266 -0.16416731781077618
0.04903987585081813 0.30962559043258203 -1.3524674060123631
-0.1281346645274702 -0.8090104322427204 0.06446416267104857
0.3466015025445284 2.1883557616791824 -0.44071698260833764
-0.12832960861750858 -0.8102412607864773 0.12992925333125396
0.2388672547031615 1.50814849118837 1.2037485464817046
-0.14619184169174254 -0.9230189619144045 0.5379181548983375
0.18254199570271165 1.1525248018598122 1.5289937870713768
0.16860448181101864 1.1214634167241015 1.5609091369015498
-0.12125452945761415 -0.806517818732891 0.16222930423432216
-0.12123161649805388 -0.8063654144454147 0.2649485111253575
0.3173412759635549 2.168670525542545 -0.5261964141010865
-0.11849140482453824 -0.8097554167602931 0.12961848637471268
0.2834227854737075 1.9368758106165391 0.6360311461892786
0.26020143312818916 1.7781839977029636 0.8029501133390184
0.26050169430795156 1.7802359449907479 0.9167354293500309
0.4466459999866845 3.138298370642893 -0.5020664174350385
-0.11520862273246099 -0.8094979760617623 -1.4023804382566078e-15
-0.11513246844885536 -0.8089628881752389 0.0643083218879912
-0.1301830740593076 -0.9147139551631451 0.671275463173103
-0.1297289546379157 -0.9115231457967252 0.7863593027397815
0.23823935302539317 1.722418549285547 1.000873794115479
-0.11086013080399032 -0.8014945610294183 0.3615155598841942
0.24638992236945212 1.7813453875562544 0.9162819524506816
-0.12685869354250146 -0.9171606794636123 0.5329494909637634
0.26223572925730787 1.8959071145146478 0.45950041940528163
-0.12759639857561858 -0.9224941259190637 0.5706870830107807
0.23974304106512534 1.73328988577586 0.27713975919732525
-0.15861885543260243 -1.1467797212933326 1.3554897010053732
0.2256182413355911 1.6311706651259446 0.129598111132907
0.3854796055059925 2.7869334535341337 -0.110541391846008
0.4016520460283062 2.9038566704129223 -0.23071426401428544
0.4202284065967439 3.038159704798191 -0.3630133529633979
0.21408636460467068 1.6427613104874916 0.13038138385434375
-0.10532601981521518 -0.808204252800432 -0.0867428112593803
0.20322865953024127 1.6087204894856746 0.19191794771337295
-0.10087990702097761 -0.7985466901035754 0.3150292495690888
0.23440493573521265 1.8555061270661806 0.44900817200005844
-0.10094018037107266 -0.7990238027976804 0.2792795061392596
0.2377929245031677 1.8823248196745699 0.6999455680932111
0.22512466454638944 1.782045216366123 0.8025426669277426
0.22101064985281182 1.7494794367811888 0.9694286940932839
0.21546879853038695 1.7056111664659899 1.0167127154149274
0.20988008235052663 1.6613719226051922 1.0627185355547648
0.2039361850656826 1.614321130794483 1.1058111588744606
-0.0972873464873425 -0.7952101946068284 0.40820083121770084
-0.11561550715134013 -0.9450214571670527 0.952067487103723
0.4830861497100885 3.9486638806907073 -1.2067449313284413
0.3956136361450952 3.2336784581638987 -0.5159830230761531
0.36783187927362593 3.006595110884463 -0.2863259467733935
0.23069625682886866 1.8856718978537859 0.4877681116367162
0.19789615892462095 1.6175694859851204 1.1074954032828823
0.1921021770144472 1.570210465015862 1.1493306091551634
0.2038672428408132 1.7224656377491072 0.9983823286046516
0.2045067599237613 1.7278688903010226 0.27557772601463637
0.4250617002699949 3.9938944431967385 -1.3927834460409845
-0.08447703097175761 -0.7937491059805301 0.42666378800327776
0.3941035417845288 3.703010514891343 -1.050254980924652
-0.0849024180468116 -0.7977460576564557 0.22625827477329497
0.36916904420277397 3.468725112860491 -0.7653602473432923
0.3281617244297357 3.0834189173884012 -0.3670077145110704
0.30868659232253376 2.900429902254669 -0.18351013548922576
0.29527829904945124 2.7744451147235853 -0.05479079755662474
0.2797555578542079 2.6285929013543634 0.08307338201332129
0.17627182894736465 1.656256203929512 0.1310863427842642
0.17175399411051745 1.6138064714819556 0.20502253073758497
0.19266866047362158 1.8103214002931312 0.40694006304616537
0.18641645714482397 1.7515754814847326 0.8373483368151496
0.18956142705857232 1.781125727612676 0.9126541556404226
0.1871135891355425 1.7581257577908238 0.9629742076261744
0.1832363159452738 1.7216947647384417 1.0056876202832787
0.1757063597764968 1.6509430360343715 1.0812822790112222
0.15156206224548105 1.4240823810217904 1.2928895209379663
0.13604763940624093 1.2783083272133966 1.4239701051598228
0.16947957101459799 1.7207549617300975 0.27385951999146757
-0.0790126299484104 -0.8022286946393355 0.03167216137088433
-0.07897057470065387 -0.8018017005431701 0.04116650747305526
-0.07882308429324529 -0.800304205306213 0.08558680010195006
-0.07846105361457185 -0.7966284461400996 0.23597453647820082
0.15231736463043755 1.6113494060977034 0.19156594661007942
0.17463551795265805 1.8474508065402053 0.4455108901961328
0.1783739526989083 1.8869993151604865 0.6992541151701723
0.15624490213924566 1.6528984129860471 1.0812822790112222
0.15412278725321674 1.7795159856715423 0.7980607891562764
-0.06973026309809223 -0.8051120803069481 -0.08600714244810721
-0.06310036770329991 -0.8017661909660827 -0.06329548656458313
-0.062095362423939426 -0.7889963881255915 0.44322552441190766
0.31869341730699136 4.049383808373883 -1.4443826633702774
0.3037488715622403 3.859495350451944 -1.1412595072394809
0.27985591971227725 3.555906612494743 -0.8563374495011606
0.2733069775591562 3.4726944126918204 -0.7642890893349783
0.2691239445932195 3.419543939408459 -0.6822928615348863
0.26021101355548465 3.3062944128435916 -0.5654135513265274
0.24321063737263557 3.090284152472318 -0.36689023269533944
0.24080353688972017 3.059699040915849 -0.32664420343858597
0.22387616798725143 2.8446164259963203 -0.11211088421409103
0.22000737389017697 2.7954587361167866 -0.05506550737334746
0.20852303439160755 2.649536367188223 0.07307655626225783
0.1310726893027014 1.6654364256011767 0.13147799207370306
0.12844579726203786 1.6320585975126771 0.1482680392082936
0.14399541187612036 1.829635184367828 0.4406148130532278
0.15306212008543696 1.9448386351585627 0.6338703894247859
0.14434398650679123 1.8340642449909685 0.7620434100528892
0.1403252435739125 1.783001274503755 0.9112937403131371
0.10659725726150547 1.354446575079404 1.3586347927239302
0.09780334628166694 1.2427093417378783 1.459524921819945
0.11547544912643876 1.727169664364289 0.9963891665151703
-0.06068204461354165 -0.9076231131463847 0.5331547373361548
0.10113052531463172 1.607423669697111 0.19062728804412876
0.11609266746133438 1.8452401090081698 0.44387884908973674
0.11889616923201385 1.8898004936220916 0.6985626637944884
0.11267036718391368 1.7908442037795322 0.8017277755871346
0.10901813592028844 1.7327936501796726 0.9993789130942644
0.10419645695937883 1.656155257712771 1.0807371839200575
0.1579337770552941 2.6780653319262107 -4.601195728905623e-15
-0.046996958550330814 -0.7969221514632416 0.06282810194663271
0.09929596418635118 1.683750520286438 0.2671432142717669
-0.04686843642463903 -0.7947428162024879 0.1421696372705802
-0.04655859541723205 -0.7894888770147024 0.2569661655993622
-0.004129764503890154 -0.0808247806223456 -0.9344277927600892
-0.04083456386092258 -0.799184714469689 -0.08516648726048304
0.0014704378917666406 0.028778352835584418 -1.048008418010312
-0.030522953925574102 -0.5973733012274246 -0.7003466914780894
0.00844774529354415 0.16533319501898644 -1.1632070195043824
0.01882601409419953 0.36844920763000877 -1.4138142602867405
0.20402193244201147 3.9929705231955293 -1.2300005902332942
0.15697030748260324 3.0721099603990885 -0.32738465722376553
0.1481770222645145 2.900014106499367 -0.14837032108039
0.13411865833600667 2.624873918878401 0.11360499759295327
0.08626363791480177 1.6882898779292619 0.13304462730715724
0.08353936686267881 1.6349724042727785 0.1482680392082936
0.08172108667469015 1.5993863321939212 0.21510468238507013
0.08722744742080142 1.7071528643806138 0.31218819653137997
0.08897335752158886 1.7413225611634586 0.3610809876391544
0.09232091380416538 1.8068385250653551 0.4118693885372087
0.09697365723823424 1.8978986731673688 0.5279135688646216
0.09638948021100875 1.8864655805477684 0.7137658450172738
0.09285243459285376 1.8172410676562192 0.7789469349152505
0.08945533756548349 1.750755527928376 0.8502851427663998
0.09036896819114283 1.7686364494238305 0.955549349514474
0.08722937683574988 1.7071906255022933 1.0291531489598302
0.08420032483163309 1.6479081982607888 1.0931851972118576
0.07763645307779532 1.5194448212238156 1.2091141453186396
0.07105414966147183 1.3906207129452648 1.328316732012168
0.06448292621596341 1.262013453886466 1.444738382696389
0.07662354943466702 1.772717166422319 0.852041477595813
-0.03425996194598169 -0.7926182369612973 0.062438653443397614
0.07717272633344935 1.7854225986694123 0.7984682300948633
-0.04063258559836651 -0.9400514924954165 0.8494493418943418
0.10520531877186481 2.677654167532116 -4.596053654573038e-15
-0.031185954573837053 -0.793735546908877 0.06251654029602287
0.06598629448979915 1.6794633437094268 0.26620609699226894
-0.03102449185290062 -0.7896260462423368 0.18971870756718842
0.06819765146937319 1.7357461372162621 0.9998772061972843
0.08130242905357135 2.58708524077988 0.1118788271698372
-0.024919986866911596 -0.7929668396665325 0.062438653443397614
0.051047971225671354 1.6243727827943562 0.1471875237602087
-0.024793207639536075 -0.788932659239222 0.16669599887421546
-0.024645617220505296 -0.784236255955828 0.3505682364336584
0.0737357813334833 2.681704688169661 -4.601195728905623e-15
-0.022019691651823478 -0.800836571700328 -0.4082008312177036
0.04599892320388527 1.672939864144354 0.1317129834934774
-0.021784098493461638 -0.7922682583814208 0.07178063676297154
-0.027436062812369915 -0.997825166266289 1.1687447112278233
0.05881493027320652 2.9950348490750827 -0.3188166507614561
0.056306759027905794 2.8673111528600437 -0.1465343016913827
0.05430939958061852 2.765599544549595 -0.05431987025263159
0.04985884449856221 2.5389637650533263 0.17980293482451062
0.03280589916966968 1.6705760053100764 0.26464425832029154
0.03526621234692597 1.7958626233727368 0.8025426669277426
0.03488799016385938 1.7766024012877035 0.9053986612984868
0.02311608687496114 1.4714947588980232 1.2569303167094177
-0.014756222962589497 -0.9393330656714949 0.8481129910690373
0.03044567478950027 2.584189579551346 0.11170621211395208
-0.009299310151696443 -0.7893134429500319 0.08401078269525604
0.019133983237636744 1.624067800759117 0.1470974820413535
0.02092317045161647 1.7759317021572705 0.9049451973523217
0.013629298324064596 1.7353004777532528 0.9988806205631012
0.013578034985047768 1.728773560917772 1.004182559118426
2.4843917721476387e-16 -0.14485197855634585 -0.8702659962955647
5.106107769936156e-15 -0.9923687311707794 1.1619144983149565
6.806453472156103e-18 -0.003968489444566279 -1.0105623439904776
4.762762311381733e-15 -0.9256397641354513 1.0253248397709216
-2.9803333346028593e-16 0.17376775479394932 -1.125720110593157
4.778991217441897e-15 -0.9287938414955178 0.9287938414955162
4.000815975992798e-15 -0.7775559883635984 0.43545227632877004
3.994413455095335e-15 -0.7763116625824782 0.4149472286188069
-4.831925031505172e-15 2.817244481712381 -0.0885354745914618
4.0036635980940255e-15 -0.778109421870836 0.39646655293458655
-4.77372738429494e-15 2.783312456819065 -0.04372376602971292
4.024099952312632e-15 -0.7820812140498187 0.21725785286235735
-4.659437152998714e-15 2.7166757599883975 0.010668415602383756
4.03314516096576e-15 -0.783839144481121 0.1431544465921492
-4.657615371232164e-15 2.715613573676476 0.021328817690660883
4.048178807459286e-15 -0.786760923920147 0.10567520329915013
-4.61401839564654e-15 2.6901944419459305 0.05282863355439077
4.060311337589591e-15 -0.7891188732768353 0.03410870619501385
-4.4090823084309366e-15 2.570706855311741 0.16173516640861033
-2.8027236787795904e-15 1.634122583923201 0.14799790779656444
-2.777396630536691e-15 1.6193556977577206 0.16591601531981134
-2.7597599624074083e-15 1.6090726727440778 0.17764327690129073
-2.746635190344678e-15 1.601420299947238 0.18316665339765498
-2.7385795170116554e-15 1.596723455295063 0.1889846748035248
-2.7192917433019916e-15 1.5854777563875324 0.2066211121844904
-2.717879128793373e-15 1.5846541342486862 0.2128456595952712
-2.8433722439856912e-15 1.6578226507226108 0.2826323738552524
-2.893053358065812e-15 1.6867891275563676 0.30806239490990606
-3.0612439894859073e-15 1.7848523477335196 0.4063275732584997
-3.216464281653789e-15 1.8753532368633183 0.5209627980828123
-3.1718945327244766e-15 1.8493669315287553 0.7490707260118469
-3.1177108375312497e-15 1.817775233543666 0.7781607805044342
-3.0291763681502954e-15 1.7661553835504367 0.926269486248904
-3.024911601927303e-15 1.763668819907752 0.9605853911470845
-1.8384617447280603e-15 1.0719115407221111 1.6042289889123524
-0.037643559274884573 3.1951367242778237 0.28939467102262717
0.009119385535154437 -0.7740416737280302 0.44557415111266363
-0.04072710465148831 3.4568640758765095 0.14942912654883636
0.009299683492185736 -0.7893451316081985 -0.0621271204336797
-0.04317929792850499 3.6650030761556533 -6.2863728083670594e-15
-0.039297866703484494 3.3355522035837835 -0.5283362327532748
0.012355073088909043 -0.7864836896687901 0.02162771494943652
0.012350213649012998 -0.7861743535611311 0.030892685632062267
0.012210326052420775 -0.7772695650329665 0.34732539672640805
-0.028948115217625303 1.4741259317842175 0.6107206758139594
0.015497308189737975 -0.7891699927127229 -0.16669599887421818
-0.050726411542079006 2.5831429133945214 0.6959105690760358
0.015401316692784783 -0.7842818141965857 0.08348553985356236
-0.054969706600833244 2.7992243831308636 0.5569076981348454
0.015393852724618927 -0.7839017262722223 0.12418177340384025
-0.0595657198362903 3.033267333501796 0.39537476972017965
0.015164516225047676 -0.7722232153024753 0.44458221196485936
-0.06064693195883604 3.0883259380300006 0.36559793508046007
-0.07513338189844858 3.8260199590374437 -0.10521999796435819
-0.07943821327093605 4.045235044732497 -0.22266567571227108
-0.08335688495563148 4.244785706498585 -0.3509172774825927
-0.06822047431990573 3.473993713150697 -0.3974237635987595
-0.06547373677831694 3.334121496689572 -0.4746072429965406
-0.06414817500160436 3.2666198657701178 -0.5570140610433285
0.01828735049182966 -0.7759956266564567 0.30380316032267063
0.018425904015976463 -0.7818749326195481 0.12387120651051761
-0.04552615749678915 1.6557457964853048 0.9276126489029893
0.0215610439221381 -0.7841559623042635 0.06173773698202776
-0.04088430959888756 1.486925923087978 0.6024946244387459
-0.041512996131993996 1.509790692304913 0.5572017018832545
-0.042052453387109855 1.5294102721608356 0.5440522130945183
-0.06563825838995045 2.3872049914478666 0.8071684755005752
-0.06652197799816684 2.4193450864400505 0.7863899663408718
-0.06975131905927712 2.5367933443504147 0.7157201139753793
-0.07864474388431106 2.8602392835656123 0.5109669705640907
-0.08020768381635802 2.9170820167312286 0.46219501849336875
-0.09029637812032258 3.283998842228585 0.2585539950177966
-0.09233834709810858 3.3582634351005183 0.19812200817186298
-0.09503553715095989 3.4563578348452255 0.135851993663871
-0.0982770427004134 3.5742485043613157 0.07021575285473455
-0.1156610615317945 4.206489784730972 -0.3311830457606755
-0.09397728599113428 3.4178701827821114 -0.4319406016649909
-0.09832797449823011 3.576100848481252 -0.9335236102652931
-0.11122531211669553 3.5392468186725745 0.1530551745632859
0.024362289433758656 -0.7752206195972533 0.3212654195595857
-0.1028076208372953 3.271391539022493 0.29642704247389334
0.028996911612646156 -0.9226966885802342 0.9231522084683536
-0.12852034179046867 3.2710611290871565 -0.5184849192803184
0.030912946731711962 -0.7867870333281113 -0.08380067965781522
-0.1320294769487863 3.3603745829200125 0.26467126720099843
0.030710927533352 -0.7816453013821916 0.10194342429594955
-0.11658271552852094 2.9672282517774327 0.4703253898035228
0.030643080817528506 -0.7799184871536062 0.15525512872056946
-0.09610098896684842 2.4459335004632283 0.7953451522649103
0.030607546418493656 -0.7790140763046383 0.18716903328668213
-0.06729356160991912 1.7127355137205433 1.0503754741073679
0.03034390603205799 -0.7723039803920929 0.3711412254617471
0.030305063248051035 -0.7713153655227221 0.3933080345608023
0.03653391444301037 -0.9298502148613284 0.8400951440270393
0.032797155367095744 -0.8347433454607243 1.1498121123943963
-0.12056487938450855 2.7893178132497107 0.5553478608465593
0.03396082965264692 -0.7856976889658848 -0.061893485949424405
-0.13317601265374365 3.0810815412335284 0.3650105285107173
0.03415209929344331 -0.7901227903629983 -0.256966165599365
-0.15797633983574544 3.6548472575542883 -6.274371063560292e-15
-0.07876961359601245 1.6703056224869557 0.9625068703455567
0.04380087620059579 -0.9287953367770166 0.8394270103024609
0.036579155714457016 -0.7756591236950167 0.3216455956419992
0.036856529323669375 -0.7815408168739754 0.09260425371532813
0.0072938320006621015 -0.14274963397898313 -0.2175990395512178
0.04020933465769855 -0.786948178187201 -0.12480294168901111
0.004514689970012355 -0.08835826499559461 -0.24880601797674223
0.03997909838138725 -0.7824421593799217 0.061659864721685394
0.004283434132381784 -0.08383229206747254 -0.8522738990481565
0.03990914580720141 -0.7810730979099001 0.12387120651051761
-0.0067900913951404376 0.13289078515273633 -0.9093436830375713
0.039779257754105526 -0.7785310223540063 0.1550614648613841
-0.02246988674766811 0.439764462423546 -1.0871427329375276
0.039382160130953386 -0.7707593132779345 0.33038027552919524
-0.07133935281217699 1.3962025038842925 -1.2621039041566942
0.04748542508552185 -0.9293505868628338 0.7947758307234518
-0.17012443702564037 3.3295531229792825 0.2887467353678926
-0.1652882125638559 3.234902016167764 0.34473287133834823
-0.16177708971805851 3.1661848451323844 0.37523152812147353
-0.15776614179984258 3.087685457268486 0.4152690230131392
-0.1542867230643772 3.0195887762779985 0.4545670789465472
-0.1508814622377731 2.952943460543199 0.4802204735203886
-0.14862024810906616 2.9086886039476925 0.5201034773166072
-0.13364435885852083 2.6155912706349604 0.6834197029084593
-0.12240197153364034 2.3955633517672137 0.831792633433665
-0.07797980630952722 1.5261646837254457 0.5637663593698534
-0.07687421058346106 1.5045267593517628 0.576025681842096
-0.07607177746354762 1.4888221154622603 0.5834739010307283
-0.07543247570414453 1.4763101612318055 0.5987472333571685
-0.07608240144987713 1.4890300404816188 0.6382617070864649
-0.07765439897703524 1.5197960454564134 0.6799277715570688
-0.08430017623537657 1.6498624181186792 0.9251726766211098
-0.24697026370521682 4.187847043093359 -0.3301633421498919
-0.10407194548381032 1.6541762044806807 0.9540367470349886
0.04915920261150631 -0.7813631503971766 -1.3427847612043066e-15
-0.09338967288270836 1.4843863435880766 0.6160686260215502
0.04888443232477096 -0.7769958017529004 0.13902818539653208
-0.17598328781543182 2.797174259953155 0.5574926383955144
0.04830466889284719 -0.7677807258853555 0.41119875476721596
-0.19370567462936952 3.078863531907607 0.36512800975246834
0.04822406555596308 -0.766499572532686 0.4301091080277932
-0.2065322078207904 3.2827354389099663 0.2588676983658959
-0.2354935650398323 3.7430630299672165 -0.5940150962033437
-0.17076731975106507 2.554171787770012 0.721959140855477
0.0512369904653653 -0.7663531624648157 0.44210247815209996
-0.2615725604532018 3.4992238997585874 0.09648261489130182
0.05802973465817509 -0.7763009776740516 0.0921376250931921
-0.2287401975536446 3.060004324338969 0.3998955576771641
-0.12335850547396598 1.6502458432379443 0.9525420389689453
4.26320860763883e-17 -5.416920140167993e-16 -0.15840454538932905
0.04096135720169978 -0.5204633908763503 -0.7185715176471207
-0.011170023902234653 0.1419286106097551 -0.8988729053967573
0.06197608309975513 -0.7874808006116183 -0.25665921723502705
-0.02365686207027794 0.3005889328803899 -0.927978257453706
0.06139215721568206 -0.7800613187778346 -0.06158199395107962
-0.04973590913807494 0.631954644248147 -1.2441160182858377
0.06053804170314512 -0.7692087522071981 0.2675631533574714
0.06047971889548036 -0.7684676906722211 0.2843793452331363
-0.11658941106525549 1.481408927065132 -0.7571495889447409
0.06039281536572302 -0.7673634766308282 0.30126898709500516
0.0604713164477517 -0.7683609274510957 0.3121805648235776
-0.27068994379009503 3.439441845820485 -0.9147714160105187
-0.2515929242790059 3.1967912060618704 -0.6772141354831818
-0.25227237265591407 3.2054244162465264 -0.5092592284143421
-0.2752921469086964 3.497918380882895 0.17927976609753188
-0.2648717877860474 3.3655151644460544 0.2656908239263704
-0.25382664383820475 3.225173304104247 0.3443097346447362
-0.24269911328067661 3.083784622632258 0.4031247221761428
-0.23383766036108658 2.971189187575977 0.47204529467887246
-0.228896767566505 2.9084091921485347 0.5209819966404919
-0.2262561050052884 2.8748563930065654 0.5383761645328591
-0.21990418742098483 2.7941476277130985 0.591917378440591
-0.2116824150676717 2.689680104897683 0.6477318028850417
-0.20129818644115607 2.557735969941933 0.7235867247266916
-0.19205379717424492 2.440274867255667 0.7953451522649103
-0.1196772609872106 1.5206437803680741 0.5627298165465292
-0.1160536504818635 1.4746014434029815 0.599121968653859
-0.12906864364329546 1.6399726111520454 0.9212687555210046
-0.13244747212494679 1.6829046976083242 1.1279580869409755
-0.11075317745616678 1.407252547939909 1.4116040521335989
-0.24090482305024463 2.7815094139125756 0.5553478608465593
0.06615309249480068 -0.7638097369903254 0.40979318446277807
-0.26670309308004037 3.079378630651209 0.3658328979605616
-0.3634438869234154 4.196356802269639 -0.3314968010454204
-0.1443971468531873 1.5943646923117942 -0.2535560921969273
0.06896054713946889 -0.761429598283238 0.42816633426327666
-0.13958287428049748 1.5412077818302747 0.7431064489246456
-0.14358222999609913 1.5853667675437095 0.8110908429993253
-0.1504057330639546 1.6607086465652605 0.9685643534039814
-0.16919903663049 1.6513982902407345 0.9555314610170051
0.0789530906341877 -0.7705894872631913 0.1383302266273056
0.07896989390751284 -0.7707534887693003 0.18601025618548156
-0.0021527747870798675 0.0202275463870556 -0.17186684359665078
0.08337726151092925 -0.7834156340736388 -0.4827889565347745
-0.02777716338349382 0.26099518826239315 -0.8776371350952765
-0.06370504893926159 0.5985748440766897 -1.2166272324661374
-0.151483605193593 1.4233451958475298 -1.2922202485703842
-0.19812930329261783 1.861629789162776 -1.077617421573417
-0.5885834918483857 5.530350854846149 -1.4980273346725166
-0.34454916046378076 3.237395833382001 -0.7951541322439056
-0.34546984928398816 3.2460466573932063 -0.6894002330011856
-0.36051755868972124 3.387435455631722 -0.4031936554628605
-0.46718889156237464 4.389722990212828 -0.38233834335268174
-0.4646443401010999 4.365814296639265 -0.3455375008189731
-0.43284237189469804 4.067001902999506 -0.1606953704715432
-0.36599489470380275 3.438900694340045 0.20394791373854051
-0.3264976259821241 3.0677829907954637 0.4267221831755174
-0.3149959629292159 2.9597129667840054 0.4714198739859382
-0.3087492959540338 2.901019067745742 0.5209819966404919
-0.3066574406796779 2.8813639232081023 0.5292023772722535
-0.3002121364243886 2.82080362141295 0.5758511982857109
-0.29620562782834137 2.783158328016231 0.5910913188642828
-0.287864250600352 2.704782458964014 0.6192301857200425
-0.25365383635909877 2.3833402230467167 0.831137842062277
-0.16132854655827572 1.515848605552585 0.5623843037547159
-0.15776788352331497 1.4823924924744312 0.5834739010307283
-0.1562461908699792 1.4680946156519596 0.5979977653238732
-0.15643025955393927 1.4698241313753653 0.6327618799536988
-0.1679014232267026 1.577607582155681 0.8083708485610757
-0.17326536151068156 1.6280073318683124 0.9168768957082466
-0.19896326437285974 1.6810321328779112 1.0373281002951933
0.10754017729529403 -0.9086023702847459 1.0134775986573352
-0.29748943219582347 2.5134755216702214 0.7138212939499735
0.09062431140150017 -0.7656809409819454 0.2505213180549852
-0.3126609643062365 2.641659149250833 0.6386329623331863
0.09093240247501373 -0.7682839893188411 0.13815574521694432
-0.34241566662497686 2.893055359800957 0.46141325986227333
-0.38625568451370784 3.263457800719855 0.2586324208245596
-0.4605294183000611 3.89099340895001 -0.15394462117200117
-0.38929429960294015 3.289130929980917 -0.5245833334557324
-0.4495867392094875 3.67484540680652 -6.349810861535763e-15
0.013258025470112083 -0.10836884132265748 -0.1278296483254904
0.09478033837993553 -0.774718337474742 -0.061426256901725984
0.09373575595834863 -0.7661800987340954 0.18531504083243924
-0.20999521441010757 1.6622832866995185 -0.8537073764963606
0.09720192178175836 -0.7694324390523327 0.06103694074829735
-0.34091362899837785 2.698609248234408 0.6192301857200425
-0.1860457603223772 1.4727038366751781 0.6632310189581591
-0.1910655126596076 1.4661140729128215 1.2627681873879693
0.09979769396738379 -0.7657834296369909 0.2080099977698198
-0.21562656445305606 1.6545798152577929 0.9344446584167827
0.09905091722681429 -0.7600531443885828 0.34246187160259917
-0.2094638568697955 1.6072911539536379 0.8419810206219687
0.09813885277161966 -0.7530545473390636 0.44510517218813367
-0.20110022170227562 1.5431139874460702 0.7248240631902237
-0.19007344029988063 1.4585015465720013 0.5957493818206169
-0.19723157633057167 1.5134284866792784 0.542714400956734
-0.3104019624877799 2.3818253704102372 0.7908878090815852
-0.3201383326237974 2.4565360237186358 0.7514833412375076
-0.3210150432473985 2.4632633381629945 0.7322861932816777
-0.3269549953759217 2.508842717124865 0.7135500344953076
-0.3290566131223608 2.5249691823934923 0.7073537822925505
-0.36079531493695854 2.7685116026798027 0.5553478608465593
-0.3692549206215112 2.833425185318403 0.5102641696221442
-0.3738357048200583 2.8685751822225085 0.49318180191364325
-0.37634655221156066 2.887841813046546 0.46125690830437405
-0.3904946076575852 2.996404906956233 0.41795764732680263
-0.3985346451864796 3.0580989929468294 0.3650105285107173
-0.41318797429709003 3.170539232553874 0.2895749863730539
-0.44463365893170603 3.4118332271290415 0.13518483496026157
-0.459614588736269 3.5267872641295255 0.06984284784118433
-0.470812881031751 3.6127157694807073 -6.2486530923634175e-15
-0.49022533197642226 3.761674454507328 -0.07449444405859673
-0.2542935453542434 1.951285401039139 -0.3116666111130537
-0.4227436289070674 3.2438631909415974 -0.6507007166683328
-0.4385856244777257 3.3654244937945266 -0.8147991326513156
-0.2518031789642616 1.9321759282711979 -0.8705925230972433
-0.345604648999006 2.498646216906675 0.7435889384116957
0.10706469503126187 -0.7740543883855312 -0.09248759321641026
-0.20087521435115618 1.4522839778416217 0.6072827973554766
0.10664189101564352 -0.7709976075893886 -0.030580977290575833
0.10623377042676363 -0.7680469847653035 0.10104560957230777
0.13356907048137814 -0.965675240829839 1.1414248256713941
-0.5918001537260195 4.158204614481948 -0.33055553565310397
0.13818212495513862 -0.9709182162419259 1.1482545526635108
-0.3778233843869991 2.6547254685988966 0.643765622398964
0.13157705448402418 -0.9245085721432507 0.572248528846475
0.10712438817163794 -0.7526951833558885 0.44560781682068545
0.1098322690618934 -0.7717217461954454 -0.08296034668302857
0.1099214540391151 -0.7723483925075338 -0.12356065123232132
-0.21492451244617125 1.4687671937517863 0.6632310189581591
0.10983408996804822 -0.7505924115614825 0.4406217248243768
-0.3661825894627586 2.5024459434829796 0.7132787751783527
-0.3707411951821013 2.465964623261367 0.7351118574872608
0.10184398128460023 -0.677409627534256 -0.6850226273635073
-0.21783309271768797 1.4489048085244058 0.6069008152506485
0.11598885577209743 -0.7514109145402734 0.4376393753382224
-0.8791652685282475 5.695498710280342 -0.9127622208486866
0.11876619355222402 -0.7694033493087713 -0.061270525879581705
-0.548879443805437 3.555807168686868 0.09892792974135206
-0.46766663241754447 3.029685995483219 0.3995080596134274
-0.25126659776565413 1.6277810722738209 0.9480579505464647
-0.16768390844331515 1.0587145309205992 1.6042289889123524
0.016278242589199087 -0.10277677880379954 -0.12679492323008068
-0.18329871071580456 1.157302512419879 1.5478984066780863
0.01785092933340536 -0.11270633211714086 -0.12344483392444788
-0.1991640364511983 1.2574722368125328 1.490663362476636
0.12178601408497944 -0.7689266308952452 -0.08285531409258197
-0.22199428047591643 1.4016167246039963 1.3969703277973888
0.12111928880065088 -0.7647170931214436 0.12262905597089861
-0.2325213273511775 1.46808188275773 1.239505715132191
0.14486060321787814 -0.9146138529835829 0.7908912096906102
-0.2569736449453386 1.622467740005178 1.144892561966404
-0.2640211751743244 1.6669640946631543 0.9714754377561061
-0.26112603544446733 1.6486849018085736 0.9434470245655063
-0.26079293096794326 1.646581762915375 0.9164996154890868
-0.25723613404227225 1.6241250309385284 0.8872538843092824
-0.25345772416792745 1.600269089871321 0.8497311469294432
-0.24811842163381403 1.5665580604092548 0.7847535232241639
-0.2449992468100486 1.5468643656411698 0.7596354410979325
-0.24578392602550173 1.5518186352262706 0.7468829795034588
-0.23948453623400276 1.512045853388666 0.6840003612242641
-0.23410084586036176 1.4780545701375494 0.6406188271218437
-0.23008923729466224 1.452726270479581 0.5957493818206169
-0.23231221273005367 1.4667615850018687 0.5678261076943106
-0.23587946506694554 1.4892843298471476 0.549557151560658
-0.24756863399686077 1.5630868378836915 0.5418351305477422
-0.37879444356851133 2.3916139918311488 0.7762694658423066
-0.4381895839759105 2.7666201495426974 0.5343396266789144
-0.47770857583295473 3.016133244238538 0.373598406815072
-0.5298342584452611 3.3452418517854534 0.1730566717604135
-0.12207032705364713 0.7707217123318328 -0.6151616676885054
0.00031436026246941227 -0.001984792583319871 -0.17056659044498307
0.02501278817773541 -0.15792452924342096 -0.2078129050151111
-0.7231484491515993 4.34465246414092 -0.34663566799144907
0.1251158426184918 -0.7516919307138421 0.4386311288834403
0.1252436209715561 -0.7524596189210921 0.4271949874460814
0.12733475841897807 -0.765023104986032 0.06103694074829735
0.1273993783303225 -0.765411339320745 0.03964694238236579
-0.24793695757551612 1.4543114739942753 0.6591588592113393
0.1299550471910728 -0.7622708533715774 0.12247380050334547
0.15354020252930892 -0.9006131253738724 1.0119967414036295
-0.2821358017065572 1.616565253069994 0.9445703636903625
-0.29653389207374325 1.6605348065698353 1.0336749039333768
-0.3297300746542806 1.8054300497074223 -0.440614813053234
0.15619779730732536 -0.8552577354444467 1.1966321298037987
-0.26022687846531806 1.4248667690244832 1.3076137282293752
-0.24317010142915696 1.302510880448163 1.4677107031309282
0.14209214198944872 -0.761099164246379 0.12262905597089861
-0.25841293209069416 1.3841572369237152 1.4080726188659436
0.13937591070042948 -0.7465500038563138 0.43714350876864677
-0.313822929820997 1.68095410670811 1.0851974289776523
-0.3045059394786586 1.6310487884859943 0.9121693825165302
-0.29638665743066905 1.5875588481241656 0.8228777874263875
-0.2863925746281317 1.5340267670257943 0.734330423750956
-0.2701002622977678 1.446758990464287 0.5827094231411002
-0.5116608246954423 2.7406485721232867 0.5545679440704878
-0.6003549797553563 3.2157279561377345 0.2574560358530556
-0.7161356750462159 3.8358930770793505 -0.15331665317510318
-0.7830995886051138 4.1051518057621665 -0.3289083245740829
0.14378584323478344 -0.7537517866018745 0.31784410562372367
-0.2772965704313609 1.453639528614258 0.6611949280485464
0.1745038483978533 -0.9147812089122647 0.5706870830107807
-0.3111647656050968 1.6311828252759513 0.9645512320093161
-0.2533923928520201 1.3005608740692007 1.4677107031309282
-0.2066209523387118 1.038753673593048 -0.16774560397098634
0.14952226987829367 -0.7516992123114203 0.31746399011672666
-0.7158363454052404 3.598752329154768 -6.293230955324758e-15
0.14832918444959478 -0.7457011668182427 0.4376393753382224
-0.5754723625541148 2.8930949348952364 0.4671983065250938
-0.4745795329127178 2.3858724279667207 0.7904043423517683
-0.3095141357722457 1.5560326381389968 0.8083708485610757
-0.32233862809628344 1.620505714866096 0.9510473368467679
-0.2831541468848644 1.4235120249934676 1.3102909004495535
-0.25836714019340123 1.2988993273618885 1.4669693106016624
-0.31920841677363876 1.5724711626933199 1.165769029078567
0.1551995779543712 -0.7645376749839276 -0.12356065123232132
-0.3406562231787513 1.6781264502823838 1.0493316703846465
-0.5306607665680501 2.6141188914599494 0.6072508313189958
-0.20123154328941928 0.9717103680444661 -0.23823691279952186
-0.29312281357451 1.415436528512142 1.3049365693073582
-0.27365115406729984 1.2957654446814508 1.4669693106016624
0.1604821543753629 -0.7598989700459474 0.021354939713102813
-0.2908056831718435 1.376993846985149 1.4073663346833318
0.14241936645062003 -0.6743698718506052 -0.689244513942623
-0.30342790261285485 1.4367613120360239 1.3256848947440283
-0.5804429186851542 2.7484549780385636 0.5244361275153507
-0.5985002048886351 2.8339580250362726 0.45875529106569773
-0.25413265614161173 1.2033434147784698 0.06768470426692004
-0.22396641889035288 1.060503279645583 -0.08530437896375961
-0.22792026523250286 1.0586448143722513 -0.08522622659185933
0.16370410490992 -0.7603733769682397 -0.015273952781034713
-0.33260624502487135 1.544890605336103 0.8051975554574818
0.15966122327448481 -0.7415949867530996 0.4366476490319916
-0.268371024821506 1.2465306385337525 1.4929418475723992
-0.3611422421489051 1.645993255023012 0.9699806623610651
0.19622420199779417 -0.894339335766391 1.0142180313183449
0.16702873879800073 -0.7612739396549119 -0.04903457165958423
-0.21972878872799406 0.9830100929431947 -0.21272380350101763
0.1691723020143326 -0.7568333730378117 0.09178767720876266
-0.36852225852023573 1.648673811459736 1.0352405558042879
0.16837137118998094 -0.7532502145056741 0.163003667783156
0.20091791901561923 -0.8988550994562104 0.9210366442221493
-0.25686908864872277 1.1082091503137712 1.5657572450599113
-0.29813228001597586 1.2862307506740738 1.4625209740830674
-0.3320805676486907 1.4326936948530347 1.3276928384677238
-0.35369893856619217 1.5259617349729386 0.752182719992641
-0.3387153782429812 1.461318228267589 0.5534012362423744
-0.28137882407515463 1.2139513912904043 0.16239758910209884
-0.2600263531882536 1.1218305224729341 0.03166345678729545
-0.15865146345940387 0.6844692930600954 -0.702615470936986
-0.22697429241003164 0.9620436172557928 -0.23730728830433126
0.17504013605454344 -0.741917702955746 0.407450699853217
-0.3477831852304408 1.4740990708119819 0.6982261707371186
-0.3388057699968102 1.4360477790411632 1.260173570000502
-0.32854314607870555 1.368480690826403 1.4073663346833318
-0.27206542458273997 1.133234050464029 0.059548229322990046
-0.2791864267323202 1.1239330750845216 0.045501448982307596
0.1863167747237129 -0.7500636331286482 0.18554677500405686
-0.29058917045304067 1.1698376019070873 0.14266716223324744
0.18355700671880404 -0.7389535137128108 0.4069822230219936
-0.3811827952710387 1.534544341115332 0.8056508808040045
-0.4068517179312829 1.637880851837954 1.0341967872696862
-0.40906236202253055 1.6195699372612724 0.9615103755529978
-0.35910486176441647 1.398621094527524 1.3035979948587635
0.1928716517314226 -0.7511854874994612 0.08254022854699253
0.23142276357787497 -0.9013321549130302 0.8400951440270393
0.22957861855998662 -0.8941496842811552 0.9231522084683536
-0.3469006934093663 1.3293940338528356 0.42858302774210116
0.19806505320633458 -0.7590255800858899 -0.18832791474884988
-0.42455556918227705 1.6269833166458443 1.123518516105721
0.19706831148931908 -0.755205863039868 -0.061426256901725984
0.19488274201758726 -0.7468303161715818 0.163003667783156
0.19244164239240227 -0.7374755257678286 0.3883452885857888
0.19216556269108717 -0.7364175321841633 0.42622366758241453
-0.3228421694312725 1.2176052018578536 0.22495000788087371
-0.3392443378473617 1.279466282832377 1.466227918958579
-0.005942182002253174 0.022060973557696695 -0.15196711459634515
0.24281244755715914 -0.9014666637620411 0.797365643501798
-0.21011278110477258 0.7800657243970106 -0.2624920662370291
0.20080674480524754 -0.7455160891530861 0.1757680632384846
-0.4152904235148558 1.5418092290764456 0.8534858904935381
0.20172072497334728 -0.7489093363328362 0.13850471136296522
-0.366032363753906 1.3589335188612912 1.4073663346833318
0.20232486433810123 -0.7511522670518797 0.039748219751210574
-0.34495730419442117 1.2609515327752965 0.3138513824639738
0.20456221249083714 -0.7477535110920415 0.12278431443135564
-0.2844932269323536 1.0241139980756628 -0.12580191880530645
0.2113496447785276 -0.7608129446170339 -0.40233318400940843
-0.29478308597287084 1.0611552619231317 -0.04327172653316365
0.20859440085708067 -0.7508946632628785 0.030619938184195877
-0.3882213073878503 1.3975126210708313 0.6007892229707543
0.20710928247010196 -0.7455485587341191 0.1634138662543582
-0.44645425792660504 1.6071386302347221 0.9776303078293268
0.20349564205583895 -0.7325402359274091 0.44560781682068545
-0.3945169745479513 1.4201756592577393 1.2588762662173658
-0.39095019151758065 1.3862048165838354 1.300251573439594
0.25359816326724793 -0.8991912602300373 0.8434358595135706
-0.35398112236510265 1.2551223850217539 0.2968790387118058
0.20739125231627634 -0.7353539123800212 0.40838767367549506
0.2090353891243675 -0.7411835817648902 0.3189844889893438
0.2113206914976446 -0.7492866527594075 0.06127052587957886
-0.46979449894029535 1.5936571422517876 0.9650528699067746
0.2218062886144732 -0.7524208496356488 -0.08348553985356505
-0.3977472096708051 1.349255223150569 1.4066600513272554
0.2663929309679959 -0.9036695790183796 0.6295022623367013
0.264840817746176 -0.8984044336684105 0.7999555080255897
-0.38385455762093545 1.265398892963672 1.4647451383363421
0.2299869404993171 -0.7581653366516168 -0.4036871678660398
0.22656562200617275 -0.7468867610876494 0.06142625690172313
0.2249677736330168 -0.7416193609164835 0.17642909153660072
0.2718482533718372 -0.8961635912384552 0.8454403260297417
0.2692568039596838 -0.8876207274057727 1.0860346301113346
-0.15617956787841017 0.5076696195138248 -0.531150167090251
0.23066061707856222 -0.7497740536730212 -0.061737736982030625
-0.41882016273524125 1.342613116549243 0.5188561366663723
-0.3702049965311271 1.1867673249269168 0.16201103983740306
-0.34915810213073434 1.1192972291701913 0.03223868000392556
-0.4597075156805447 1.4535816616677206 0.7028238420046155
-0.16413442819598068 0.5051538275424398 -0.531150167090251
0.2472883565279265 -0.7610753038211084 -0.6834711776215032
-0.36290744353876303 1.1169142644976005 0.06000594292186454
-0.5048460382658803 1.5537563407790362 0.9149249756871785
-0.3799638112394274 1.1097834772134112 0.0460883483379272
0.2503395574815974 -0.7311820135705666 0.32012492716252205
-0.3332144180035044 0.9732396731765383 -0.21725029387738368
0.248211606041062 -0.7249667760159284 0.4291377078509733
-0.17227595924756647 0.5031769011643215 -0.5318514830288635
0.24765693830304422 -0.7233467241247035 0.44812114166642725
-0.40076012591229376 1.1556950908835946 0.144776304643826
0.2507765937312877 -0.7231789281031977 0.4486238268126678
0.306771860310332 -0.8846557081366518 1.0371727453915172
-0.39909332396603825 1.1223336665925456 0.09374785116828781
0.2639567448385032 -0.742301420410723 0.040254665698329826
-0.4505540261719867 1.2362084387986239 0.29953591661649015
0.2688190570546986 -0.7375727827012051 0.1243370611789743
-0.4651170825671253 1.276165851593995 0.3830754739338179
0.2632884899957681 -0.7223982791512541 0.4305948180308897
0.2627132461425114 -0.7208199527698326 0.44160655111780306
-0.4405088659657502 1.1940515296637702 0.20157847978685292
0.2662674232610636 -0.721749432551079 0.41119875476721596
-0.4791601945524292 1.2988205402063402 0.43185149333374884
0.3257547181298243 -0.8829968010413316 1.1019675643896845
-0.5115952693453413 1.3867396575351763 0.6122486444269919
-0.5808336272342426 1.5744184389086215 1.1212987455172025
-0.44921875614256523 1.2030901842723696 0.22933276616567919
0.27500662958494776 -0.7365181710232793 0.10245651485801625
0.3332783016435577 -0.8925803917481022 0.860140580324164
-0.5019726470985924 1.328432064210726 0.4924507207240756
0.2752087187179332 -0.7283187408883706 0.252976229737919
-0.520047901944885 1.3762668381678005 0.5758339776726694
0.2744806954665491 -0.7263920832582795 0.3216455956419992
-0.5508256246680447 1.457717717942136 0.7482928477585684
-0.18595192647717323 0.48632312975819897 -0.5632483417655288
0.28244797428135704 -0.7386908296603917 -1.3564032582243665e-15
-0.2841393929060921 0.7431144245910687 -0.258500981359147
0.3298719256833411 -0.862719469256898 1.0231034307493354
-0.5765664375872501 1.5079036810913995 0.862900707844741
-0.5323925047677046 1.3602523434893024 0.5388912533146465
-0.43632281704910647 1.1147961872000118 0.09421709147839298
-0.5889488294814731 1.4875149431076555 0.8151708840996654
0.2840119455521749 -0.7173322908237877 0.44408625212357755
0.32738573725383047 -0.8268819835403098 1.0412765071484176
-0.4403455916785196 1.0995508736183839 0.0325674103106606
0.2966993452282805 -0.7408636089763058 -0.1685426101486307
-0.4640143564013735 1.1586522054366024 0.16265529161486178
-0.49430685808791586 1.2342931277552731 0.31920715033244146
-0.5731881868871994 1.4312612265224631 0.7107655055405956
-0.616442020543418 1.5392668282198703 0.9285886424301604
-0.6281251186468584 1.5684397346119607 0.9902563477278147
-0.6321679239811183 1.5607477547658999 0.9780956813536216
0.29217567659708976 -0.7213471515200299 0.34773073059333137
0.294433641819313 -0.7269218003075403 0.2312001877219418
0.2955791997538181 -0.729750047212213 0.18902329292091374
-0.4545327993847024 1.1096443462753836 0.0943735082667902
0.3003492715589201 -0.7332383307529015 0.06236076802545467
-0.557554596940787 1.3611499699751195 1.2562816685229976
0.29535002046484865 -0.7210337313936105 0.3481360705299299
0.2946673777482456 -0.7193672056070664 0.37329205722604525
0.34288521182926046 -0.8370807062610809 0.657219615284155
-0.4555156242673037 1.099711997978965 0.06081971349390478
0.3035891619765354 -0.7329290722332225 0.08443101210889746
-0.48721218213153283 1.1762342578553302 1.490663362476636
-0.5984399602158452 1.428865226482638 0.6921457784062379
0.30492188330892334 -0.728046762947729 0.16669599887421546
-0.4565826787276863 1.0782565823985726 -2.008311189054349e-15
0.31128189601738926 -0.7351171408813717 -0.06282810194663561
0.30777855777672575 -0.7268437268988472 0.16669599887421546
0.30338908947719345 -0.7164776457755131 0.4158844112132337
0.3524660731982619 -0.8323768754374206 0.8160443642849536
-0.5894682098287506 1.3476363006888616 1.2562816685229976
0.32108579734480786 -0.7340631249023492 -0.08527156268092585
0.31225542537278883 -0.7138752171922195 0.3481360705299299
0.3095272167447142 -0.7076380140288563 0.44458221196485936
-0.5780105584888876 1.3074340760655052 0.46447382167147194
0.3227364930920656 -0.7300155377119375 0.03136033682513252
0.27726902043969887 -0.6271701446213838 -0.685726257335974
-0.4890786405495871 1.094630134272126 0.047105758687813935
0.3230402040650463 -0.7230116235574202 0.12542415540268398
-0.5078718359728596 1.136692077534384 0.14735439964969496
0.37435442074639236 -0.8378604090878021 0.562359940385918
0.36569509341941364 -0.8184795573213348 1.0496205566279835
-0.5502573714500281 1.2186849883739002 0.3044071685703409
0.3260073860656336 -0.722026324609227 0.1414714487164954
0.31874188874937526 -0.705935031749193 0.41401007150279173
-0.6994877304876996 1.5331126604208696 0.9699806623610651
-0.6660303251689433 1.4597818935705997 1.165769029078567
-0.46155705254202745 1.001194643321514 -0.13048514640763478
-0.4798427121896523 1.0408593053345276 -0.04503196705677276
-0.6042286671092834 1.3106732992581203 1.3029287088920753
-0.5319347573113729 1.1420384943124595 0.149112345138224
-0.5267786583206089 1.1309685962713896 0.13278282790278906
-0.45127372421383 0.949311015554569 -0.2219833813170087
0.25292240942437316 -0.532054087052027 -0.6897598881220942
-0.6327147308832923 1.3176254541779981 0.5392367122382388
0.34403619416191517 -0.7164537578466387 0.04060923508286144
-0.566171742315618 1.1672806305415349 0.20547867958952484
0.3414286462816926 -0.703926062940918 0.254203810771495
-0.6157995523843796 1.2695986678079836 0.44017170965816454
-0.7323567476250844 1.509905532644197 1.1212987455172025
-0.5289752181636499 1.0797727625856128 0.03306054668260033
0.22582452545452095 -0.46096520845740985 -0.7065085705743824
-0.5577934654839747 1.13859812425372 0.16523244629699083
0.3424296685320577 -0.6989859193512218 0.3224059656050932
-0.6878583607701761 1.404093607739946 0.7207974862764072
0.3390386144072995 -0.6920639166663349 0.4435902987997269
0.397520739360894 -0.8114407862335649 1.0008906594701652
-0.581694724096751 1.1756780746911408 0.23424199591135697
