-0.5242962094724329 2.1106823059578645 -0.23146206611284648
0.0966071473978975 -0.3889156414977352 -0.0928853210687565
-0.9378296487163206 3.7754620571070445 1.0642376639330495
-0.9355355626380781 3.766226653901359 1.1274422390891832
-0.9325330448470632 3.7541392859968767 1.1900219920670096
-0.9748037298226225 3.8594673138466917 -0.14074708406537959
0.7790379927738748 -3.0843867102381375 0.6718440500006034
-0.5996448489086258 2.3741288871560804 -0.12511627531373185
-0.9683601469936081 3.771513763502151 0.9997697522071554
0.09500264849704244 -0.3700108864332606 -0.013507061094855437
-0.9731130330777361 3.790025032618604 0.939418052295467
0.7889697144093528 -3.0728341579518084 0.8145606346180879
-0.9776652124871446 3.807754600847756 0.7499284179274788
-0.9817732988538574 3.823754540871946 0.49872076437500545
-0.9826611704484534 3.827212572421094 0.24859796780100585
-0.5807785966754997 2.261983289698074 -0.1469279373377161
-0.9659299864675213 3.701640225936782 0.4071497254936387
0.8053812202033777 -3.0863846900761582 0.6605623626934987
-0.9728882591635322 3.7283057425637036 0.6102792190041063
0.8040202216243945 -3.081169066627267 0.453199366811468
-0.9763531385018925 3.7415838651156252 0.8166405140843304
0.6903254053831656 -2.6454673996584996 0.2043748321752513
-0.9773160467994306 3.745273925614824 1.376387142768366
0.6952477200483717 -2.664330710897112 0.1081872022839684
-0.9711354670331569 3.721588686515749 1.593152080960347
0.6705043571017233 -2.5695091100653364 0.0312864251529024
-0.9662211721611611 3.6441209877914473 0.7961902240076769
0.7010100063988501 -2.6438721801717535 0.2911045616999959
-0.9698764433538815 3.657906910573151 1.019311884659653
0.8150158625971046 -3.073847371435614 0.8565579261401219
-0.3480223297418115 1.292069379734725 -0.3773886272173612
0.09992147850646685 -0.37096896297374093 -0.054678392837289674
-0.47725186165368577 1.7718475631192718 -0.2611587134605858
0.8221521169780925 -3.0523259143157073 1.1661956994197935
-0.6031226402899564 2.2391560228952487 -0.11848791458036859
-0.9438423810357429 3.504113775506646 -0.12831293023441068
-0.9574843608405117 3.554761055518184 0.39180931193258306
-0.9678000457019575 3.593059116882107 0.7098410062328508
-0.9716745311090546 3.6074435500891746 0.9592453484453338
-0.9830386245845173 3.649633938329439 1.565606329435639
-0.9781225206047685 3.631382386986346 1.6803208902382696
-0.9802262068079353 3.6391925425292357 1.7374841644995014
-0.8210431461444655 3.001228270910922 1.9067346480447216
0.8396930975971642 -3.069401011666102 0.817046468342397
-0.9768625161466258 3.570807958168585 0.8887756468465953
-0.963985239416941 3.5237365622803685 0.4615085024512466
-0.9570930829667605 3.4985430814225635 0.22819758536737006
-0.9546392845022211 3.4895735049058163 0.19909944837800403
-0.47994075639269645 1.754367932077819 -0.28807469387331286
-0.4481974234501298 1.6134136485641708 -0.3194299113099991
0.10331768333997354 -0.3719212822679017 -0.07835825486482405
-0.963817722204287 3.469535044985491 0.9850999796885939
-0.9659809251261244 3.4773221069722373 1.048511715077438
-0.9640110311901001 3.47023091546529 1.1080095329430757
-0.968989619651377 3.488152755604789 1.6175170696393284
-0.5391431227606546 1.9407984679955137 1.8184570382074343
-0.8940882146482099 3.1701976785972654 1.8446530684775615
0.7596224676034572 -2.6934181034410445 0.10995283883593418
-0.6272924365204547 2.2242112058721455 -0.136285401848502
-0.4940346131906274 1.7517146051409043 -0.22992551643006393
-0.9235418206943772 3.178851797328216 0.7947306185442246
0.892724203358007 -3.0727768626972423 0.6757683396041171
-0.9246386976441148 3.1826272725530416 0.8926947534407178
0.8907727843350071 -3.066060034363535 0.8197808929017172
-0.9229825610326384 3.1769268129462915 0.9330333419618785
-0.08040969114246019 0.2688717082159208 -0.12538854051079337
-0.8497733891521266 2.8414488290095714 0.3156433734597405
-0.9011889227408758 3.0133706726135716 0.4981573194901112
-0.9056212049160348 3.028191215545625 0.6675067005646708
-0.829849182212152 2.7748268151865414 1.8862469298857805
-0.9237398054131563 3.0451620384578018 0.817046468342397
0.7920657620896419 -2.61109089003554 0.10720630811088762
-0.9174281591986944 3.0243553293176033 0.602886734584119
0.9177467703590395 -3.025405649553659 1.4574901444415858
-0.8910274925570103 2.937323994978516 -0.1568367177385938
-0.9312349480536963 3.0270265065943325 0.8664017543257542
0.7996653388262023 -2.599352807893169 0.14966738448263686
-0.9327634156617673 3.0319948682025086 0.9216178869773756
0.9317122681838603 -3.028578059925879 1.3271017987521847
-0.9300773119096933 3.0232635514988297 0.9730949039274225
0.8336996899299673 -2.70998319514523 1.7222101814357984
0.6039528372534129 -1.9631793790813548 1.699199722199629
-0.932767262561226 2.9901749553402195 1.2974343799784835
0.8216696547392689 -2.634029003567336 0.17359489291657854
0.9555890764645031 -3.06333491614502 0.40538094240911887
-0.44855849250409296 1.4183287778622264 -0.25962233472931046
0.5622041473708459 -1.7776730004555186 1.6831878089299757
-0.8891539941327546 2.8114788124719765 -0.18551835957374718
-0.90178701745611 2.851424061152685 0.18815418843900752
-0.862658012123606 2.727699295621223 0.3614107175865617
-0.868914677516374 2.747482687817139 0.5496964283508858
-0.8740150352855234 2.7636098692712094 0.7442144909645391
-0.8718927112732163 2.756899143082973 0.778829387540692
-0.9178959601920905 2.902360064918498 1.752172953743246
-0.48351814873896726 1.5288701840125969 1.7761934467499112
-0.8644010440300219 2.6603528627282804 1.0319638951306627
0.9920257978726874 -3.0531414665658527 0.8242554224821137
-0.8596744207671425 2.645805812125687 0.6218428216202314
0.4834446228830044 -1.4878895569828907 1.6791459027811622
-0.5904028639870854 1.8170731747941598 -0.17303622637851893
0.4482152663573151 -1.3794647463785017 1.6715014473529886
-0.08780266661820983 0.2702288215709496 -0.0985295677809834
0.09560823000832974 -0.2942518755150955 0.39565123544672914
0.0931893273424546 -0.28680725860230233 0.40164953091282574
-0.45650642689423665 1.3864330444853725 -0.28438933763992796
-0.8415830052907233 2.522539980466362 1.1881359737650399
-0.8504311715600388 2.5490612540993194 1.1130671791444695
-0.8495759539195543 2.5464978460022456 0.8258537514763756
-0.850539140071341 2.549384876231277 0.7807976204176944
-0.8472987406814055 2.539672183647891 0.7324220392948733
-0.8605040514221531 2.5459070724840775 -0.1690767747551727
1.0325663054913403 -3.0549744136758976 0.7741958127951702
-0.8509735144096807 2.5177098065391657 1.1008280555244567
-0.8936853876928111 2.6102414170795343 1.405776359307188
1.042368953044744 -3.0445105745092884 0.8262441088622198
-0.8623511617969477 2.5187216324530195 -0.13602871741161332
1.0331162643075305 -3.017485682199511 1.4250371721973456
-0.8383671116503255 2.4176475967686026 0.4052871623208603
1.0515876008396152 -3.0325238199729387 1.0150880745320159
-0.8444664029474521 2.43523647488843 0.618802719504339
-0.8468852583555341 2.4422118677479716 0.7290120384541287
-0.8731256250170465 2.4862977540866322 1.5168098499687954
-0.8759246373863275 2.4942681743423294 1.6199997852106678
-0.8626028569335341 2.425819148299768 1.6767751104284343
-0.8144606938837663 2.2346780283005603 0.6506764848594836
1.1089052340333216 -3.042560777420866 0.8314644295660728
-0.816774997191311 2.241027902261368 0.692973697371801
-0.8149092549051867 2.235908768428903 0.732116715785551
-0.5271019825659918 1.4287724429606912 -0.19238712589759827
-0.8184147752351383 2.218410319906995 -0.24226825670516172
-0.807119243029487 2.1877924401080153 1.0750324490626877
-0.8099836247175349 2.169284641378056 0.29252465258627763
-0.837134863972394 2.2420006377421635 0.15056679542865362
-0.8288871105918064 2.219911642127441 -0.18649251738827202
-0.824129507639181 2.1809954572984074 0.49238843394428994
-0.8561263072775293 2.2656725305162224 1.4842212538740842
-0.8622454735283963 2.255044759418749 1.389668261275988
0.9893395557105045 -2.5874360015612736 0.05439835779827773
-0.8044152159384589 2.079286335439208 0.23727725475163275
-0.7620861590363612 1.9698724060844786 1.8039455063698997
1.165264729178687 -3.0120253577299985 1.191452204380685
-0.8126432555088158 2.076287481186375 0.5352926627040324
-0.7999378286491657 2.0204123246502816 0.3441707551453263
-0.8056815888124969 2.0349194068361887 0.5987363235431994
-0.8077712450595387 2.0401972760462685 0.6374995611514935
-0.8067977414280658 2.037738486544538 0.6742375433641677
-0.8070443091599238 2.0383612455471325 0.9080858526065282
-0.8081669078221158 2.018007324969487 -0.13676507401648075
1.108495848925531 -2.7679341002197275 0.18758936471897883
-0.7979918797656409 1.9926000966469735 0.820722739218654
1.216216767176069 -3.036915173285231 0.4132735238431406
-0.8139401272010388 2.0095218024393713 1.328616044932762
1.131724707792878 -2.794094305793292 1.7352179102650573
-0.5558730131716524 1.3723846533987147 -0.25842127687780825
-0.7874759694465197 1.8802170714452293 0.38885776550068774
-0.7918146758284729 1.890576384140283 0.5262722250638938
-0.8089008107450371 1.931372095757642 1.363710492041751
-0.6012461011884289 1.4198908466139109 -0.3004215530013516
1.2047874099670157 -2.8452020098700173 1.7303551137892421
-0.7973726262690057 1.8830593514735041 -0.1609390372316657
-0.7736476130489888 1.8270308316372672 1.1111380252112861
-0.7887692805460593 1.8425565758110045 -0.31744808552341186
1.2784921398128466 -2.986543920300732 1.4976666052735168
-0.7740100221235143 1.7886316278659384 0.46789463071294124
0.13982168460454902 -0.3231088489772572 -0.06002139807550309
-0.7696919007503891 1.7786530381317307 0.3382436220596291
0.1392093362614656 -0.32169379544771065 -0.05129193570229865
-0.794317234797393 1.8355588275456647 0.07071719114195282
1.3097849351586572 -3.0267344010608253 0.7371853831068527
-0.7684374858667697 1.7567940619986835 0.8567370973880626
-0.774137280676543 1.7326334156400487 0.5111535167385877
-0.7841157536770179 1.7549667099913753 1.6416900839249675
-0.787284032911641 1.7077510833872938 -0.23756070531951431
0.33368764817031915 -0.723824463412904 1.5642748158886857
-0.7687179892257886 1.6674782213790675 0.86402201029092
-0.7636763124612586 1.6228947732579644 0.7429320592877622
1.4238119813595247 -3.025754478626235 0.1708633278686205
-0.7762067216684223 1.6328484281043154 -0.14228891760789295
-0.7476398760992797 1.5727544768651263 1.0023686802603906
-0.7702139584691153 1.620241897270678 1.619576380572416
-0.7561072334931992 1.5745897610885766 0.8052489898995702
-0.7760534665263605 1.59999539368718 -0.09086119783617051
-0.740992992928477 1.5277109459310292 1.105812212861396
-0.7529567654336365 1.5369759845125277 1.0488097694145777
-0.6268809811715436 1.2545857801463172 -0.4134389382968896
0.8090152360652052 -1.6190936422927884 0.11387328616243556
0.8569244584353836 -1.7149750471029386 0.24219219712760892
-0.7400191316847694 1.4665785897071102 0.5053621720639796
0.1542235938255027 -0.30564212605859187 -0.059749258455065575
-0.7439356849416767 1.474340460861645 0.4797758874064322
0.15271205885447403 -0.3026465483347331 -0.024001955368254873
-0.7420327109705891 1.4705691247390056 0.45061613954006796
-0.12899477123287126 0.2531664931768654 -0.0985295677809834
0.30996588554259574 -0.6083423033140964 1.5609156901634036
-0.7608141828410803 1.4931819079812128 -0.2385069576877025
0.9373262019784043 -1.8396062510880316 0.08111986219524407
-0.7316133979546577 1.4358721407941242 0.5945200006934472
1.235920296526276 -2.425630157929475 0.08555324410817469
1.3122114088449202 -2.5753598964427167 0.0340532273329387
0.15447090931864185 -0.3031662294236955 -0.048424947199673385
-0.7479815289275001 1.4538539419046463 1.3964069421166592
1.5311151331347168 -2.9760330779953073 1.2347005984300925
1.2054420520586635 -2.3430213332085716 1.7160493848540974
-0.7576153738244488 1.4584716799240156 -0.17491513429220334
-0.7604832276938402 1.4500440386204785 -0.3323816277377092
-0.7686772999306386 1.451778787341337 -0.1292848065205639
1.5548247724643631 -2.936552989011452 1.6930376456709533
1.4114281687468915 -2.6657239330830396 1.736215262303637
-0.13285097719879524 0.24621605956831014 -0.12500107946725725
-0.7481220977387552 1.3735786838171677 1.4120325514088057
1.0134208142311614 -1.8606765291013256 1.079561534760522
-0.7458216440165736 1.344114397641103 -0.3562970128562806
0.1632157502485358 -0.2941462500999432 -0.06554084545494704
-0.7442328900533353 1.3412511566860705 0.9989808506929135
-0.7551290694251559 1.3360459773673135 0.08445848015278107
0.4682632628764852 -0.8284957817757846 0.018688398005164714
1.0219336978072984 -1.808102033644274 1.058241727214223
1.5275982292729235 -2.702771687503932 1.7386586367511518
-0.7456370541753186 1.2953942823513027 -0.4215388910792282
0.1811175954288323 -0.31465536246882797 -0.18498761984437861
-0.7591281361148162 1.3188323214204407 0.3653296880019693
0.17211925777527826 -0.29902256219179185 -0.1272849889152028
-0.7463332502164386 1.2966037828261148 0.8378337006723794
-0.7570215236219563 1.3033079975489572 0.4636794973880327
-0.7591419341590541 1.306958551628139 0.4391125916292147
-0.7571934355051851 1.3036039655304406 0.4124206618019584
-0.744504887756486 1.2817590308196811 -0.216903801301162
-0.7437079843147425 1.280387061071807 -0.25243693847454646
-0.7416557877249143 1.265386374879239 -0.19114396355656693
1.725339365558863 -2.9437118422794994 1.4290502661825373
-0.7445268648755811 1.2702849032367478 0.6509385624522054
1.7342358880906428 -2.958890768382205 1.159210207529688
-0.7231440373401161 1.2338022935577067 1.5841195035953506
-0.7449676602128062 1.2484560099770592 0.6702244224058213
0.17269991957953698 -0.2894196138125456 -0.09935303174950655
-0.7437350140176715 1.2136652374014845 -0.08955400854976399
1.813928726709481 -2.9600626530122067 0.8334678546053572
-0.7477314037628903 1.2201867527496435 0.5927681133808202
1.2564241867303663 -2.0502979288653402 1.074391300173932
-0.7394367805175052 1.2066511578125643 0.8672319360860183
1.2376623800624453 -2.0196814430007093 1.1260265102459766
1.1405347431756652 -1.8611835448801868 1.222453398652252
0.9761131477905179 -1.5928718870505303 1.6865358798894754
0.684975578035649 -1.117778552659478 1.6764461114838176
0.1432163934310102 -0.2337079132448916 0.40675136870001105
0.09907072077253529 -0.1616687228377249 0.4288883495055902
-0.726467596757798 1.1648519226334837 1.2393505675143028
1.6504437976959867 -2.646398324611891 0.061246862272487865
-0.7399785230173795 1.186515970005 0.9107050227137818
-0.7371799478145626 1.1717554372023236 -0.2416090228590596
-0.7458099250956634 1.175208393412865 0.31112342837008095
1.8380207510935422 -2.896257265113587 0.9384106632100356
1.836068328628318 -2.893180739592255 0.9955216223972353
0.10717204151817826 -0.1688761150707388 0.43386058967765273
-0.7413531159058477 1.158107936222966 0.4348776443944581
0.4581489529213164 -0.7156993434931475 0.13459192643163734
-0.7337858624885168 1.1266995512064228 0.6850973867438321
0.17858041604429464 -0.27420325860326894 -0.0571104892011569
0.1763534074029235 -0.27078377375757257 -0.016511316331119155
-0.7245896716859569 1.0752601015884002 -0.31129009238673105
0.18191909446770332 -0.26996016040784826 -0.06608293925530004
-0.7248609076878318 1.0756626042217208 -0.25271847258345986
-0.6939941968981633 1.0041260153182612 1.3520650872028104
-0.7098161563469388 1.0270184849769912 1.066269691824926
-0.7243961101807261 1.01369355206147 -0.04405290074482237
1.3304860651869914 -1.8618337763453692 1.0549510982044505
-0.721043427236111 0.9924311371223498 0.4525580781619551
0.2763865157101604 -0.3804134032854819 1.5500971377737442
-0.17069912367396395 0.2349471876651156 -0.10070565120783315
0.16829216975675063 -0.23163429981005423 0.40065982672345746
0.5878280963427784 -0.8090759641511771 0.24009625857740527
0.5808911188545317 -0.7995280337536389 0.2249831799890161
0.5804048787405921 -0.7988587816518045 0.2004490551534546
2.8859004846902216 -3.9721012514065674 0.03856217108944484
-0.7113514981464372 0.9710492696771211 0.5549255463072035
-0.7069275053481158 0.9338784718275951 0.6559432155600398
2.3361277160748157 -3.08611472177433 0.993802907137434
-0.7086791507499566 0.9210697207566708 -0.2983897297119116
1.8669704850561417 -2.426500033917785 1.0886867287361515
-0.7094150801486844 0.92202620760275 -0.09155826861253763
0.19169907846797737 -0.24915113770026598 -0.01977811662397121
-0.7069369640781057 0.9040247125428292 -0.20029090826067364
0.4984747747305545 -0.6374451158078781 0.028611593629225277
0.5758044432597121 -0.7363336092880122 0.16313815910222265
-0.7108110781350399 0.8944127726510024 0.27428161316290994
1.165090457735741 -1.4660320002703568 1.690553577818939
-0.6875739518955363 0.8582325820472211 0.9392251571307673
1.931876318106952 -2.4113758179959373 1.2798380975427919
-0.711009274407559 0.8803771506054003 -0.16105553203275125
0.1983031647364563 -0.2455405033530424 -0.04491899451947375
-0.6790579371465185 0.8408147591311886 1.1971745314804672
-0.7126105151633483 0.8753052572699926 0.34723473368045926
-0.7135489974536235 0.8764580026548182 0.32835072379279845
-0.7130755582346873 0.8758764734344169 0.30898001801472186
-0.18418286050357965 0.2208671016636977 -0.12849279084601126
-0.7002357272592871 0.83303101903792 0.3869706030053205
0.19935753430148367 -0.23716443404287654 -0.015830500382327146
-0.7036709777928388 0.8371177431812534 -0.2130658092308449
-0.6746718148148402 0.7899392016443109 1.0388387747865389
0.5940921205846972 -0.6955925016174631 0.19318805333854627
0.5979772723950171 -0.7001414299288575 0.26750170054822103
2.191400089110641 -2.5657998435141445 1.3976601205116603
1.8325612808917158 -2.1456535806066803 1.729152932451679
-0.6727168115138569 0.7510726888088052 0.9102652951926383
-0.6885143965261914 0.7626626908768837 0.6865373593043607
0.6037144500280298 -0.6687303697681172 0.11381368712571839
0.6016617352916488 -0.6664565916854079 0.17127687434359423
2.082153442270635 -2.3063871360027117 1.7401239673430593
0.3877711907291545 -0.42953149746488745 1.0053298942765327
-0.6939336572002456 0.7448040271302119 -0.07207662988313876
0.6481283480810093 -0.6956408566427059 0.20079452926607466
-0.6908878545575633 0.729955157573392 0.05531220802726321
0.2106402898183909 -0.2225512649142633 -0.02411644232231866
-0.6690595412599034 0.695863180875481 0.6286921056852428
-0.6911829554680207 0.7132454803500993 -0.2927866233806597
-0.6749716323866981 0.691065624249753 0.5409866897193816
0.6433301046230089 -0.6586696373859606 0.2210445323268503
0.11046173499061152 -0.11309557940542232 0.04059057799312199
-0.6858136920176324 0.6912213236764506 -0.07663329260914993
2.1342344322966995 -2.151062841845452 1.7441940942541203
1.133101720171191 -1.1420362118647378 0.25480538168321326
-0.6796598906786491 0.6796598906786455 0.3545995854557333
2.267163268356944 -2.2671632683569167 0.16382438532233684
-0.6851585882300463 0.6851585882300427 -0.29393097480399116
2.1896514473457165 -2.1896514473456903 0.8733413297638725
1.1976425095861156 -1.197642509586101 3.0243587483075776
0.3744351786274445 -0.37443517862743997 0.9813936998027196
-0.6869601613093221 0.6553274016878334 -0.192727095580625
-0.6852366499597751 0.6485626877803335 0.21089612033191707
0.22253635379745834 -0.2106261767466555 -0.04853024734759881
-0.6728838133550212 0.5885468349665044 -0.17053151255916013
-0.639303665977368 0.5547594621382103 0.7229313673067597
2.4488147251976478 -2.124973173350862 0.7783960779669534
2.158374725563288 -1.8729421800133663 0.7697312091739426
2.150306540533527 -1.865940965683242 0.9250546439664133
-0.6687892115585894 0.5401268441768147 -0.12234779402357616
0.2338186446750183 -0.1888363694798517 -0.04277460653245697
-0.6673800338571423 0.538988765554115 0.030331518512774883
2.2137771987607606 -1.7878884279407619 1.7437767871727352
-0.6692780065843178 0.5405216043047192 0.15014441442282936
0.6441983454920088 -0.5202667946207425 1.5639168629055757
-0.6501707365300944 0.520884981617054 0.4665542297372472
0.6230938937115823 -0.4991923400056485 1.5669438430585259
-0.24154023428706897 0.19195776222839406 -0.13784967443129914
0.2363760574444423 -0.18785366821114427 -0.05759651731345458
2.135595074190586 -1.6972081387500317 1.0063648507641527
2.53927095982956 -2.0180189548094676 1.6526462085382838
-0.6182979969062473 0.48742683839217277 0.8721121855797753
0.6017248161549766 -0.4743615961689788 1.5640477363889116
0.23422056293581978 -0.18464460349133524 -0.01876428254837629
-0.6588793785424195 0.5152361225284254 0.3855926640555139
0.23705357774465954 -0.1853731808982163 -0.05252033017921549
2.571950078287486 -2.011235483807452 0.3474832707783232
2.169599195297542 -1.6966017046987025 0.5703674143722777
2.5464843885424373 -1.991321606292 0.7626739271958193
2.5393925155228128 -1.98577584287142 0.7873277297129956
2.1317978301431655 -1.66704147039374 0.9146866935647249
2.122060954708721 -1.6594273453994448 1.1282442952841667
-0.6639812182459931 0.5108729939291937 -0.14621465689317545
-0.6611078048673402 0.5086621643828003 -0.08546503886907174
-0.6386966064154189 0.48743784027888554 0.5232618816784603
0.23946270735641537 -0.18275216077353987 -0.061149485019401414
-0.6632060450160572 0.5061428524833385 -0.19337568289262463
-0.6545423233216286 0.47555283427259537 0.2984775515780471
0.23992147933828073 -0.17431315812121825 -0.015152777235151961
-0.6408063638727837 0.46557307557005245 0.4853873868616526
1.9259801835906052 -1.3993065114741297 -0.03739811977092406
2.5738687812690673 -1.870025131097282 0.1375154750312576
3.2281040609918183 -2.3453548851373376 0.55190545763795
2.559526788974732 -1.8596050637591224 0.4629509945578696
2.1245605449746074 -1.543583589246279 0.7629529433371177
-0.657522589027313 0.4544418271742263 -0.028260761372795307
-0.6587927539192584 0.451507159194829 -0.15560653128739454
2.114272579280492 -1.4490280901775794 0.7885334833594136
2.5455019210293854 -1.7445734402078867 0.3898467413701543
-0.6500372179502254 0.41611589205911725 0.04247563602085702
0.8596887949883153 -0.5503225968319541 0.161670081300385
0.8080155632779502 -0.5172444094374866 0.26245965481628314
-0.6410018198904381 0.35567882612321244 0.16386042702483095
0.6618286242526259 -0.3672351947598963 -0.17543712221060156
-0.3349483044574509 0.1807282986994021 -0.11219587956025179
1.3387118381066903 -0.7223297139589016 1.6849719282068345
-0.3433566141161785 0.18007518337271616 -0.09308149051211152
-0.6213477159810632 0.32276429401939416 0.32278665764135617
1.667707426664483 -0.8663046412721711 1.6965801506437654
-0.6390975471894991 0.33198459304295863 -0.05667940682882365
-0.6363736783386087 0.3242485845019002 -0.10164839873949466
0.847247894387257 -0.43169436422086804 -0.18526462521566323
-0.6229462946736682 0.31740699080448737 0.2579296728582954
3.366343717085047 -1.7152377956004754 -0.5377083623914125
1.774930808338095 -0.9043724179399623 -0.21200979996618433
2.489012457739091 -1.2682151913267217 0.3975716460057684
2.061803095294892 -1.0505411488991165 0.7922646595059804
-0.6334579686679916 0.2980826937044239 -0.10244369011772453
0.7961339343448476 -0.37463219256365937 -0.15356262201310283
-0.6337495271604959 0.29821989071688043 -0.11940868312086773
1.85319267053957 -0.8720462769602524 -0.14501453960958152
1.8512522258858675 -0.8711331730165507 -0.07234079777510316
2.132123364001777 -1.003301098237329 0.1296798633308761
-0.6338432379794043 0.29522932076909225 -0.1419415296028779
-0.6175470045670683 0.2817578667542321 0.24137150136738522
6.812806933697492 -3.1083657341885074 -0.7672477739857796
-0.24638171624186214 0.09643194490111191 -0.13481071880345216
2.158000702230198 -0.8446251937369343 0.14579866693087096
2.4572529816474504 -0.9617502781809775 0.33335294599497245
2.4493668312092707 -0.9586636983968271 0.5017549596645454
2.4479158232442586 -0.9580957848265046 0.5551590667620078
-0.6213961671068807 0.2292451490471192 -0.08631607696855625
1.8073257115271197 -0.6667576564637175 -3.3040047244364113e-15
1.9901732020479568 -0.7342136570575074 0.7825841370999187
-0.616662850403544 0.22201228713644816 -0.046405530840832286
1.8154793791040018 -0.6536127949659556 -0.1366196849101152
2.450104152094542 -0.8820917721459106 0.277143914603179
2.016673084662447 -0.7260469860304192 0.8878206145805546
-0.6149672202194785 0.20785589160343587 0.03572459070819657
0.7987820222280687 -0.26998438935940905 -0.17116281858938845
-0.6003956324978943 0.19508036653077748 0.23289640416217458
1.9914927503518352 -0.6470752194943383 1.2831922247319119
2.015348782256026 -0.6548265141339703 0.7535227416915217
2.4402127427129807 -0.7928731831059505 0.4063814535785669
1.8227649236365484 -0.5922522252919702 -0.20397630940125125
0.2948772553353384 -0.09581142822954906 -0.0654795732004393
-0.5969503157753459 0.18364589642365534 0.28792621489275144
2.426206877146199 -0.7463986953152505 0.6517562250720583
1.9981311307263818 -0.6147054000593737 0.9637558070175002
-0.5993164147935784 0.16902471001405905 0.19693268485356766
0.2954116121948643 -0.0833146912941135 -0.07880762396492938
1.7838990323873245 -0.5031115604391992 -3.1789623237478232e-15
2.002882212963109 -0.5648712047291462 0.6761622313201492
1.98437304214525 -0.559651078677423 1.0505304849181683
-0.5776581474138208 0.16047025109540394 0.39045788920165325
1.7156744889137914 -0.47660492155534817 1.607524120142407
2.0131224422143497 -0.5592343243736907 0.5715828925844724
2.421662318410729 -0.6727244513791231 0.6034056911450477
-0.6092024979207985 0.1640903158423678 -0.08979245388010898
1.8119449000169192 -0.488052186173724 -0.2670687980160252
2.437143710300096 -0.6564511513680112 0.13890435994703107
1.9779659711338995 -0.5327704039897231 0.5951330218270158
-0.6020850820736755 0.15963996686469423 0.13923230560388958
1.3946357182056894 -0.36978096031854324 1.5982084516391457
-0.6057255928254891 0.15806196117637916 -0.022134195835553698
2.4115482923325784 -0.6292850377670051 0.5570953015332335
2.0079080508670204 -0.5239565376484154 0.6383978429779392
-0.6081122564908465 0.15105586952233468 -0.14523638589713825
1.7732481947616952 -0.44047714065875865 -0.09335806516564955
1.9715519819518799 -0.48973605738647263 1.1693251799893676
-0.5932652820719696 0.11558775326670483 0.10548827604441052
1.7523018814624132 -0.3414065235974578 -0.0912178812973866
-0.5950758692258205 0.11594051569446101 0.021436107054143956
1.970922129502331 -0.3840009987052695 0.9256922773964089
-0.6032329689887903 0.11507284314920606 -0.18103377003898358
1.9609241546059042 -0.37406628826787997 1.117972661501438
-0.6015812771270724 0.11231121549367343 -0.14692228518674114
-0.5694451579428197 0.10169000272637466 0.32394961867702077
2.4080846782066225 -0.43002936117117146 0.1346214363213486
-0.5804477288237191 0.09193388866739093 0.21680773560433203
-0.5906671337286203 0.06755910497738753 -0.1206859746096052
-0.5660676592967642 0.0647454754716465 0.2626621946611899
-0.5841882553531226 0.05522204877893721 -0.060121607065443075
1.9286257566201748 -0.18230880992979262 1.1871319171529504
1.9310714841117806 -0.1825399992452296 1.116491859319125
2.269087553743092 -0.21449192521122018 0.5471881645899997
-0.5781369413721554 0.04778548289395418 0.03192529789118071
1.9414820340830925 -0.16047176696303458 0.8980875922427266
-0.5793170371999494 0.0296003641247826 -0.08255657971084374
2.3699191197946465 -0.12109167241354285 -0.33772943683348045
2.329528740982894 -0.1190279148452443 1.0421867397075473
2.3002721371903636 -0.11753304058865577 1.5000530254746534
1.9727896461807932 -0.10080023220237716 1.687119534920334
-0.5659924422361549 0.006668249870671598 0.12652308000999377
3.4421733791364515 -0.04055402595053359 -0.545224539931528
3.378573452249271 -0.039804722298059876 0.7135664032444432
3.0010298601015415 -0.035356685855090865 1.5292072075243017
-0.557108727423184 -1.9110216545138997e-15 0.2055282604142813
3.4257657527761407 2.3502459087754998e-14 -0.24255722439481828
3.4202094680300883 2.3464340207379655e-14 -0.12093053707539153
3.408694659541286 2.3385342886797508e-14 0.06693816560614793
3.360372092485875 2.3053826012266676e-14 0.9762783414795693
3.3608652132199497 2.3057209066075456e-14 1.0339371443990304
-0.5646225437261222 -1.9367959153648653e-15 0.042206434536019265
0.6776893724011261 4.649286582468972e-15 -0.15707996223124038
3.398094805488594 2.331262260929234e-14 0.5245347394705503
-0.5654108922421794 0.0044408180743544315 0.08047236835543624
3.3137641576047003 -0.0260267779894987 1.6884992492156734
3.3680063878925135 -0.026452804229814067 1.1384046821159874
-0.5664146372312802 0.015574058552835083 0.05356218283780351
3.0504800486047947 -0.08387557765711764 1.363463736421608
3.37474493168992 -0.092791520049569 0.7546299621934505
3.3917603812625883 -0.09325937449846333 0.46931461213733683
3.4199159280920868 -0.0940335355213018 -0.12096585873462139
3.426464981807979 -0.09421360739680192 -0.24269842320237867
3.4330582463092063 -0.09439489488594302 -0.35187736680244897
-0.5752802029598001 0.020340550648445463 -0.09813740409165773
3.1999443107819796 -0.11314248081331553 1.1385869255043504
-0.5754804836831361 0.02034763210227607 -0.08426260598660769
3.43213592339963 -0.12135222839769941 -0.31103318146570225
3.4477894018569493 -0.12190569846280379 -0.7003315222986831
0.3975546571338022 -0.01405659467742846 -0.14675730556704655
-0.5625364707204493 0.022102118130321473 0.15877410205551248
3.4476507159376144 -0.13545856555423477 -0.5464755419164214
3.3914174828005454 -0.13324915580689248 0.5375622008954543
3.3606313690376712 -0.1320395661027991 1.092777815671315
2.555964362412443 -0.100424113306958 1.1428810854783036
2.7043612541000805 -0.10625464306096985 1.379004045733813
2.6989049891608796 -0.10604026582764647 1.554705220132008
2.6705149406126076 -0.10492481778223213 1.637756311109258
-0.5638110531489474 0.0332496777086792 0.21595498438180064
2.420246565135343 -0.1427294087564203 0.34505054677048763
2.395545816897172 -0.14127272940702593 0.885298963668402
2.369442872071317 -0.139733358197718 1.3662357280488662
-0.5651697398924695 0.03555746612716461 0.1914022771873259
2.39488970721834 -0.15067368903881517 0.6971554558999631
2.3491503389799373 -0.14779601190570424 -0.027731277201322724
2.3482444486518603 -0.14773901811714504 -0.12022142862859969
-0.5810397472386849 0.04572881984062737 -0.06898323828865177
-0.5719756896809021 0.045015463040073304 0.11881674335439624
2.095446323355099 -0.16491520220740408 -0.14882433275001972
2.081465780886952 -0.16381490965282697 -0.07382329152852643
2.359131335798927 -0.1856676627508024 0.3748050952965072
2.2628156991070316 -0.178087457749251 1.6491155111959752
1.6833166894557978 -0.13247989658652662 1.688521838769044
-0.5874400061131954 0.053202796850177064 -0.3005406821464407
2.038866530093261 -0.18465443394447842 0.5514218099514308
1.2774608811514059 -0.11569605582982305 0.7183405319159538
-0.5796448340803226 0.06169036819352892 0.0068676630772208595
-0.5858349151170387 0.062349165366988896 -0.13168915599946754
1.844419906455453 -0.19629769203970976 -0.13132945126947135
1.8439128724462073 -0.1962437294873364 -0.06556460526898547
2.047422079309901 -0.21790278200371618 0.03234511940562017
1.943013849703217 -0.20679083594956035 0.8730376452529207
1.9324729031543286 -0.20566898540337036 0.9902049015317121
-0.5845738798597321 0.07851808817568989 -0.0069490153960440485
-0.5729503508363509 0.07695685304662542 0.20556638403606428
-0.572343452139343 0.07916469188197879 0.2261435923311802
1.747756162118304 -0.24174396953743163 -0.027717340597210035
-0.5846217597218577 0.09024304499368554 0.018590075039821515
1.964983782457265 -0.3033176869374727 0.6116674876686196
-0.5841416558848156 0.0948718881219146 0.08422500047093229
1.7690516082354748 -0.2873160381006969 -0.09157456879285963
2.3833299982752383 -0.3870825076007811 0.34364262196480155
1.9750327968139674 -0.3207699513444576 0.5389509159688607
-0.5860648228254751 0.09754793305713515 0.04441198264911439
1.9257665742460433 -0.3205354451450465 1.30445855814676
-0.5736075531744448 0.09547447486844046 0.23553131339552708
-0.5916576859212771 0.10086821784510283 -0.0734287771860069
1.9627695300295023 -0.3346209628401324 0.8247360688218454
-0.5907316526258851 0.10071034390820642 -0.05427284049855358
-0.5777484753368931 0.09849691883781547 0.20066154645410317
-0.5608812586367707 0.09788945003435089 0.3804337909308323
1.754937493364899 -0.30628562360540673 -0.020988357600632584
2.386363862744211 -0.41648716641672556 0.047570524473636105
1.9660357522393277 -0.3431281676309484 0.7096749125444467
-0.5821967084810833 0.10632799879565949 0.20522755493817743
1.9371256254526479 -0.35378195748913127 1.28245960473219
2.378838273234282 -0.43445301109897555 0.5405284922580604
0.29147351407402244 -0.05323251574933243 -0.1323838731127692
-0.5953189852025028 0.1257247042722954 -0.01433891882625799
-0.5949124245960163 0.12808129389878017 -0.009559770630272905
-0.5881279346796663 0.13632073561858266 0.20405437875683688
1.9843320228889854 -0.45994346658447344 0.6884754392740261
-0.5970884176233142 0.14087066185507507 0.009637332027059698
-0.5921354527632565 0.1446208144819038 0.1719081894484492
1.9878245597601767 -0.4854983864554778 0.6471451431969378
-0.5982952000565496 0.14861730003125115 0.007263037981059016
2.416846219949785 -0.6003477209339421 0.08805091188542556
2.410561555432611 -0.5987866021550243 0.26434748447820067
2.401452533450978 -0.5965239093359819 0.43185756352343485
-0.597206580988869 0.15333658812235382 0.08528300162741137
1.7957557353627769 -0.46107170672120484 -0.19731756174473078
-0.5969264972055636 0.1532646748295543 0.12762717729107437
1.7936685526865472 -0.46053580929383364 -0.13111785332829268
2.416500481383832 -0.6204518684269557 0.18649638719612485
2.416737376128705 -0.6205126926594395 0.19637070318933114
-0.5853306784947002 0.16756450744767262 0.2864997952124098
1.7965993669692697 -0.5143183145315497 -0.11757289629436248
-0.5950297616446175 0.17795163229294098 0.2430818778136859
0.3190845115540954 -0.09542650356430298 -0.06760811270680755
0.24462077218340192 -0.07315712340586134 -0.130095015705352
-0.6065520819236512 0.19708071820806763 0.09076762872674764
2.3657713969351946 -0.768685723648664 1.6200472078621728
2.423622099695525 -0.7874825564164103 0.6118040055502503
2.433642625044018 -0.7907384224687367 0.20138848229358433
1.9991657433498926 -0.6495683260484644 0.024765306597416614
-0.6083841015688376 0.20032071039502378 0.030205925662212772
0.2932208503230483 -0.09654790269482276 -0.07155442279174348
2.4168424780180002 -0.7957860845820439 0.7176189406874597
-0.6106712244766849 0.21176232272923712 0.048315362654799805
1.7927034351156708 -0.6216553657167875 -3.2543288575472555e-15
2.3634351256084507 -0.8195678652577707 1.6714508432128623
-0.6096279188634394 0.2140860871593444 -0.007612347012148594
2.003256037382727 -0.7034934479725923 0.8310007324601408
-0.6110495976952584 0.21728459397702513 -0.028032024127812676
2.4410261863439753 -0.8680103641137628 0.20389743837056826
2.4243150310708526 -0.8620680042757021 0.693051503229046
-0.6191853365809246 0.228429530605505 -0.17498990973914993
2.041338488742593 -0.7530895278710665 0.11974279681484418
1.8301141572992587 -0.6751647579621205 -0.277623343504782
-0.6149458064641707 0.23236865671139595 0.046545273554596894
2.4379349653552973 -0.9212188571650239 0.669153137855327
-0.618711251287179 0.24496511374287722 -0.06817976664372287
2.444371296643899 -0.967795060242505 0.4588318706385042
1.7562853199350705 -0.6953625496025484 1.705285254610151
1.3408832230306507 -0.5308932245247864 1.597466921832377
-0.619036885310756 0.2507357524363885 0.007868740363992497
2.0308583838023098 -0.8225823323900848 0.7501896636048494
2.4601797224456012 -0.9964753772733213 0.19841510969549475
2.459958993636373 -0.9963859729011756 0.18791951105007762
2.2092921070626947 -0.894855431010467 0.03744520345181552
1.8528414643006252 -0.7504780566727249 -0.031403735781664104
-0.6194284353072995 0.2594301557008059 0.021104687768509666
-0.6087343245953974 0.25495122859812286 0.22306589406651392
-0.6217337054294632 0.2807235321311228 0.14127100920137953
1.8280390979478278 -0.8253913017233414 -0.04726791103423319
2.4599165103133784 -1.1106948931549854 0.42748639347596734
-0.6278721636322212 0.2864687547847474 -0.15142060186074266
2.0232928766843643 -0.9231340781148616 1.0252484620721625
2.4647607054377083 -1.1245552375573973 0.5610447242532781
1.9015692217873215 -0.8675972573001246 0.01641626865222224
-0.6141854007823448 0.2860731610505187 0.2590664779403051
2.4050808124470886 -1.1202302590101894 0.748272311659877
-0.6243091236397417 0.29078855382235247 0.12857735067298084
2.2801424787808924 -1.062036912175918 0.04939507702966243
-0.6238697978753612 0.2905839261806223 0.1201143502850952
-0.6239324878510343 0.2906131257016205 0.024336428948248858
-0.6230708141373673 0.2931948697988801 0.1942074377922129
1.875986114137879 -0.8827720573634427 -0.29507557387925953
2.0106480512168288 -0.946139154991647 1.2907188359707382
-0.6209204757345408 0.29516680090523884 0.2085529248343421
2.3835112781921843 -1.133049120458247 1.7187767968411276
2.046526687425727 -0.9728568454439179 0.7658942981424965
2.0121366355907564 -0.9565088556774584 0.02624821373180639
0.6696145106488747 -0.31831447129221924 -0.17185256615606045
-0.6300471667927994 0.30254434013630493 -0.16200151193076703
2.486491347479906 -1.193996138110292 0.08668333799103609
-0.6172412697924591 0.29639503598572287 0.2679929057046378
2.4273344671697377 -1.1655894088029157 0.7252818173484563
-0.6153142780510693 0.3014393544173716 0.32902075137433134
2.4815591554175334 -1.2157032860132764 0.3822167952091308
-0.6261838210573651 0.30676428859086025 0.2205232266482174
-0.6271314983887053 0.3164435306412425 0.09997287454125862
2.020420486215967 -1.0194815500110523 1.267374620254759
-0.628506378868084 0.3202399952028739 0.06667891116831247
1.8804178258899922 -0.9581207379739184 -0.31729079964516693
1.8819798867554676 -0.9589166477385376 -0.28370331076277994
1.8088194443975683 -0.9216395404609182 -0.24027645541804674
1.9394214310910547 -0.9881845764357812 -0.15411604562523443
1.827423155182287 -0.9311186045607663 -0.07251728169496433
2.485609156218197 -1.2664811225895232 0.19751883112413596
2.050392628845134 -1.0447272258523628 0.7677415523080442
2.0410031517267706 -1.039943048303111 0.8965514993169232
-0.6290814734104059 0.323651027616318 0.011113601337741705
-0.6313222299811427 0.32794563916096114 -0.011175852850940499
-0.6343828673742677 0.3455177683674142 0.053998604837571504
0.4628873425544833 -0.25211242268714834 1.622220587475595
2.309194040718635 -1.2577066826833285 1.7569672116016397
2.031956923699994 -1.1067089888499888 1.3318356783876506
2.4940257902067553 -1.3583756270873748 0.2684548630935017
1.946266827216115 -1.0600377238600556 -0.17442035796233538
-0.6360247098610842 0.3529171293576257 0.10060848996032319
-0.6125251921113148 0.33987772661594834 0.4680609148170478
-0.6372886423975994 0.37016669886326753 -0.0960458292883954
-0.6357743253401167 0.36928711352483773 0.008662275844904425
-0.6368890361416686 0.37328712334055525 -0.0668586508289631
0.8742097746544584 -0.5123832150634897 -0.14421411449578378
1.8362324700810218 -1.0762344735804068 -0.10875051125055009
-0.6400886937097243 0.3853647376144948 -0.008802453538104825
0.575866037902846 -0.34669955394988633 -0.24797928478207204
1.2543896099966267 -0.7552039704389953 0.20252078749029057
4.57849985727751 -2.7564811150497714 0.8464436893756174
2.4922761138751053 -1.5004722628672051 0.5549403216326693
2.0793511025392464 -1.2518711858419846 0.6231769623689574
-0.6428275384324791 0.3939252221894729 -0.017767249528676827
2.5179230320253723 -1.5429852185008128 0.16251836906687048
2.0877326743245863 -1.279364228251576 0.6595236553966507
2.087151955182585 -1.2790083631036697 0.6696613495554179
2.08424324310496 -1.2772259020500285 0.6894085136577663
2.084471508065727 -1.2773657829978915 0.7102585363713536
2.0754534216277594 -1.271839492521191 0.8871608647348386
2.0719103721568235 -1.2696683090129826 0.9842488480242607
-0.6349466138079354 0.39946041364187973 0.25354718603623816
1.891359583985101 -1.1899004819210726 -0.318020073567227
2.0775291605339867 -1.3070243068829082 0.7975067700955301
2.073332944355853 -1.3043843648566087 0.871029236344173
-0.6403473929653776 0.4170391862997033 0.2616362616552329
2.5227454069182746 -1.6429889514665168 0.38032606698950594
2.528207697425682 -1.6465463785968013 0.42939825547769556
2.093377529985887 -1.3633544405959552 0.8117118862364148
2.3909053438060015 -1.5571254448042569 1.7484773335971637
-0.647736440307042 0.4291339604354073 -0.05501407001289586
0.3651162160460607 -0.2418943231552063 -0.1956867016572433
-0.6472961832377412 0.4361959754695151 -0.11421787141271324
2.0939197277183603 -1.411037762679815 0.6907565462327596
-0.6489422055667027 0.4373051868846584 -0.13340984730520142
2.0825558975355785 -1.403379974606889 0.9264591628950232
-0.6469367220059297 0.4396577422709028 0.1619844047477255
1.8843498551110751 -1.280602839142959 -0.16131333460648625
-0.2840967219978836 0.1930719328976489 -0.10125848743301988
1.8812808773454148 -1.2785171640071493 -0.08042463474324466
-0.6513429315954935 0.4464013833739833 -0.16029407469517484
2.091807696980864 -1.433631662198661 0.8020104837177117
-0.640270831761083 0.43881306016791344 0.30380316032267063
-0.6522154675422636 0.4660800561732929 0.1140892858077696
1.533230794032565 -1.0956629061591638 1.7012675063896108
2.096163998628711 -1.4979409150028897 1.067171263674767
-0.6561138991001139 0.476694650911648 -0.09598833887440536
0.5562098483719217 -0.4041101093376093 0.10612551109525693
1.250799105968068 -0.9087587444768739 0.20766352796361748
-0.659729139832823 0.48728350362491335 -0.1969067016393107
-0.6518520462615066 0.4854332384547498 0.25703789757158485
-0.6564718385204508 0.48887359080174203 0.23084266816641685
-0.6578539205879017 0.48990282523869855 0.02577675290388832
-0.6466516893691223 0.4935089676580569 0.2892585201461476
2.4659029580413616 -1.8819176431058142 1.737193307058808
-0.6573566209336954 0.5140453435309018 0.009831465243338094
2.071357668124111 -1.619777956406434 1.7569672116016397
-0.6579142492369796 0.5144814024730284 0.06243178005092579
2.1158642113208788 -1.6545815630917355 0.8378773718918445
2.1392679256166423 -1.6728829994383825 0.7659054854340114
2.4672613895927333 -1.929370129097164 0.7910809948245012
2.54037299388127 -1.9865425657103588 0.5497905842951631
2.550650541896956 -1.9945794904664744 0.47380530741145643
0.23693568493246303 -0.1852809900702616 -0.04763859700041792
-0.6674891151859679 0.5610832193856435 -0.2570523332554983
-0.6674124315994738 0.5610187600969371 -0.11362480788002642
2.1297973600469944 -1.7902817173000143 1.1524628314345604
-0.6576475068189706 0.5616840334172828 0.40697395909183787
2.586113095047264 -2.20874924490399 0.47041028130889523
2.3328826934774445 -1.9924700499510515 0.7877140588573219
2.1479705513861282 -1.8345401608831842 0.8206710111150947
1.8157456587901197 -1.550793296886762 1.7348843918013446
0.6074511268048005 -0.5188122747669932 1.5678335218047466
-0.6654773744107315 0.5820686939969661 0.013888830622664628
-0.6660832360663947 0.5965939082142259 0.3022347288333941
0.21834901441153642 -0.19556968980603068 -0.0046048164657894524
2.4144109808649317 -2.1625268511726388 0.7781627294057416
-0.6727318279583988 0.616985366493657 -0.15562115917971803
0.6247201850655661 -0.5729522468238213 0.10708600856871885
-0.6745218859473658 0.618627089894376 -0.13392814874709744
2.14292130205196 -1.9653464128879374 1.1380504253153507
-0.6728267920563128 0.6170724613155758 -0.014341735499879582
2.3143887316848066 -2.122605056699701 1.7586848984179204
-0.6721302684766173 0.6164336557198988 -0.010744779818661574
-0.6725253615500711 0.6265916492134693 -0.09417825230853803
0.22142898812826334 -0.20630531246460262 -0.02381850678308952
-0.6733318142849821 0.6323006607690901 0.06539986439333531
2.1550811342232326 -2.023755890143649 0.9605739961210644
-0.6679833843952262 0.6322328194229003 0.3599789719087353
0.22301407114717087 -0.2110783265964148 -0.061079162663071195
0.5968914436144365 -0.5649457293423874 0.03552361802620877
0.5631452501181706 -0.533005636882975 0.1605752730663021
2.1541691254674022 -2.0388776899609096 1.0942345014953014
1.3632650389176277 -1.2903029017045036 1.694571289594467
-0.680386586360174 0.6541790826995674 0.13055198527598835
0.5599007469432741 -0.5383341829203212 0.18647375437812716
0.15026556893770104 -0.14447755734701695 0.42550968756876556
-0.6805435959023084 0.6594926247688233 0.19625211324182926
-0.6783791057020448 0.6625805658468855 0.13495844808278895
0.5909658023591976 -0.577203001142099 0.02920814808412527
1.7469399158200227 -1.7062560273383802 0.4261881036422539
2.1671548261608664 -2.116684695808046 0.931947347214243
2.1562338407009785 -2.1060180454575317 1.2484713118142312
-0.673652589409738 0.6631531259853781 -0.03342334928424001
0.7183977254479035 -0.7072008700344989 0.031680238220791905
-0.6736525894097382 0.6631531259853781 0.03342334928423677
0.5678267865758757 -0.5589767106305709 0.056416109574679095
-0.6774920039380075 0.6774920039380039 -0.13636043854480157
0.5560262565301313 -0.5560262565301246 0.10876398346044767
-0.6767657313364437 0.6767657313364401 -0.21393524669231553
0.6275069445229567 -0.6275069445229492 1.570123265591251
-0.6868650982454696 0.6868650982454662 -0.30301431257365913
-0.6783615763687603 0.6837104481967715 -0.22324335316658503
0.5469345367889249 -0.5512471081925905 0.08264525501679411
0.5521490327772871 -0.5565027204110886 0.1115713573376429
2.1577873649862633 -2.1748014890897878 1.2408965188759609
-0.6798678859906068 0.6906319881604396 -0.2569574177334091
0.5489639845889889 -0.5576555326668357 0.16525994829434087
0.5414217302937089 -0.5499938645891163 0.19815715702465847
-0.685289970432613 0.7071643915312505 0.17186384080051526
-0.6810499369106972 0.7083339317473764 0.011576898083614288
0.5673247764657257 -0.5900527519531354 0.012858768239845535
0.5316484043757989 -0.5529471249743407 0.22285522454561824
-0.6763452414072305 0.7145902102760074 0.37621130472579634
0.5113402306598689 -0.5402547405960189 0.11781758685459695
2.140753883320976 -2.261806062904533 1.30431865157808
1.0456480890506066 -1.1047758483148316 1.6849719282068345
-0.6677596033401367 0.7110917528954274 0.5666018276630701
0.5431716629805058 -0.5784190718035823 0.10023932316648063
0.5289456850548314 -0.5632699439898913 0.11306826459931017
0.1394456411176901 -0.14849452539508592 0.4418702174858187
-0.6865882792086586 0.7369201796583938 0.31853600058004894
2.141542198920536 -2.2985327739551105 1.4482831550828785
-0.6922655665056469 0.7607899239500854 0.07689003216697705
2.1534670034892995 -2.3666293357381183 1.5056847120518184
0.5306984713482802 -0.5832300047733031 0.15042238543757858
0.5263577146486792 -0.5784595754479724 0.12387120651051761
0.5048649227745515 -0.554839305588343 0.0947668440230628
0.5058747392609888 -0.5559490794166126 0.04729026615961831
0.20557535913408412 -0.22592436979220243 -0.0035987290657305392
-0.6890078480963889 0.7632092838083357 0.28998581753311703
0.689146313776604 -0.76336266129586 0.012116333910070932
0.5223209819088821 -0.5785713814757216 0.2001323272113133
2.1513330278906917 -2.383016890135576 1.2857144723597216
2.145223949318616 -2.3762499055582533 1.5372594425158783
1.779142059650016 -1.9707434986267516 1.7291409989369546
1.6289990002969743 -1.8044310580439331 1.7228147938179272
1.2832243327330988 -1.4214188222332733 1.7016814753891705
1.0233051172553338 -1.1335080838565217 1.6782464243462476
0.8146269745608465 -0.9023567315572198 1.673232566420823
-0.685540602554708 0.7714647016176805 -0.10574164934816638
0.2052292949572891 -0.23095226775396713 -0.02798189612292009
0.5166656520820809 -0.5814233491557426 0.14837618749353793
0.4791478574355834 -0.5392031595062118 0.20956689503213133
-0.6922108373797677 0.8104747586044941 0.3932109132246798
0.5670639619875908 -0.6639465938512206 0.044613714576330274
0.5241000789574648 -0.6136423500468882 0.11162066773546707
0.522641997347319 -0.6119351558262924 0.17988248295110965
0.5114887552141661 -0.5988763871139425 0.17929396600782171
0.5371774497521832 -0.6289539839677768 0.2509069021147129
