-0.3839289705730861 4.7017738491226825e-17 1.3411277141102895
-0.40323439874233324 4.9381971572590594e-17 0.6465647838159059
0.40852618875207514 0.0 0.6550498859657209
0.4409073696848932 0.0 0.39804106742589873
-0.409732101121315 5.0177710614613804e-17 0.3698967495270979
0.4633822290924776 0.0 0.22700861164565228
-0.4095005745468407 5.014935678677906e-17 0.20061226145429736
0.48335344493213683 0.0 0.08631597344776804
-0.41050587889348483 5.027247106180772e-17 0.0733070487326258
0.5013752394479102 0.0 -0.051369925720705124
-0.4148283231146399 5.080181780980078e-17 -0.042502498066535783
0.527287860869608 0.0 -0.21116702341879245
-0.4205306355174867 5.150014967298923e-17 -0.1684131366350581
0.5640233046543477 0.0 -0.44105975990424334
-0.4285316728100072 5.2479994144003616e-17 -0.3351068566870229
-0.4420145097239399 5.413116545101096e-17 -0.6083807797699604
0.06877087451821938 0.0 -0.09465498834186885
0.07118098682242399 0.0025167917481234083 -0.19542500575484825
-0.07289206823642456 -0.002577291549760982 -0.2001227222393398
0.07118098682242399 0.0025167917481234083 -0.19542500575484825
-0.07323428451922467 -0.0025893915100884987 -0.2010622655362381
-0.055804727367535285 -0.001973123492868514 -0.07685661446562
0.07107760012075545 0.0025131362382851672 -0.09789105631936862
-0.4266895563322376 -0.015086735971593832 -0.3338748461844971
0.06534175862652347 0.002310330416314191 -0.05112843585482151
0.5260308278014298 0.0185992089428591 -0.21079525049023826
-0.4184125279337652 -0.014794079776418749 -0.16766959077794968
0.49907379087346726 0.017646071720086275 -0.05116607680911502
-0.4115867518358873 -0.014552736438477484 -0.04219672469915063
0.480100157297449 0.016975208803628416 0.08578858460796497
-0.4072980842646391 -0.014401099271930621 0.07277965989282274
0.4586055149871552 0.0162152089664476 0.2248089157963727
-0.40565497607474393 -0.014343002843119951 0.1988525047748737
0.43543939155371725 0.015396109500480135 0.3933503477760986
-0.40576720132859173 -0.014346970863309386 0.3665462354915263
0.40245373198534234 0.014229814405201392 0.6457162736009243
-0.3982229437384531 -0.014080223715002125 0.6389281918810723
0.3264796347659397 0.011543549582406307 1.1411602843361388
-0.37873838001069837 -0.01339129551387821 1.3238228403798342
-0.0 -0.0 1.896
0.0 0.0 1.923
0.0 0.0 1.923
-0.0 -0.0 1.896
0.0 0.0 1.922
-0.0 -0.0 1.896
0.32833862741158454 0.023247621662986565 1.1498127212013665
-0.3796758542727604 -0.026882492274172737 1.3295911316233193
-0.39694886502394544 -0.02810548702836864 0.6380796816660907
0.40433887048981676 0.028628727478364712 0.6499588246758319
0.43536384599676636 0.030825413559362632 0.3940204505832129
-0.40352601372149266 -0.028571174132402594 0.3652060298772977
0.45864192925703057 0.032473590251030894 0.22524885496622862
-0.40399904315414215 -0.028604666412529314 0.19841256560501777
0.4772365717045634 0.033790161548129215 0.08543699204809627
-0.40555288912342524 -0.02871468460777251 0.07260386361288838
0.49615397163012637 0.03512958530032031 -0.05096222789752492
-0.4088308726232241 -0.028946778287464087 -0.04199287578756053
0.5222670937919999 0.03697849351207818 -0.2096799317045756
-0.4148504574801702 -0.029372987754275024 -0.16655427199228703
0.07779171444138144 0.00550794879087235 -0.060984519875028065
-0.42274689262084053 -0.02993208534837717 -0.3314108251794455
-0.061563330449668406 -0.004358917578141838 -0.08494678440936947
0.05218225152400465 0.0036947015662344906 -0.07200251249937031
0.06639888749217301 0.007066692526522868 -0.18321094289517026
-0.02690006211221368 -0.002862916459463109 -0.07422392045496641
0.06673939460751749 0.007102931975376831 -0.18415048619206856
-0.02690006211221368 -0.002862916459463109 -0.07422392045496641
-0.05786395334612716 -0.006158337618447985 -0.08009268244311979
0.04675875017868861 0.004976434439149889 -0.06472135954999579
-0.42064190367195 -0.0447680241234662 -0.33079481992818255
0.619604740790526 0.06594321616696794 -0.4872601537489616
0.5215573947982112 0.0555082454417285 -0.21005170463312983
-0.411707253238942 -0.043817128260196285 -0.1658107261351786
0.49460280194744766 0.05263952539161605 -0.05096222789752492
-0.4065635032008019 -0.043269689871908365 -0.041890951331765486
0.4747656469076042 0.05052829912620518 0.08526119576816191
-0.40134827882910873 -0.042714644622152804 0.07207647477308532
0.4536360989756593 0.04827952623107071 0.22348909828680494
-0.39916404772070807 -0.04248218154584369 0.1966528089255941
0.43031223041298794 0.04579721645320191 0.39066993654764137
-0.40005013530675726 -0.042576485965069334 0.3631957214559548
-0.3920243982462538 -0.04172232382098247 0.6321401101612203
0.39728647070593504 0.04228235501321044 0.6406252123110353
0.3215649945090069 0.0342234791773587 1.1296237018491686
-0.37438375530920975 -0.03984486767202271 1.3151704035146066
0.0 0.0 1.923
-0.0 -0.0 1.895
0.0 0.0 1.924
-0.0 -0.0 1.896
0.0 0.0 1.923
-0.0 -0.0 1.896
0.32496591716993123 0.04494823275909461 1.1459671937057097
-0.37540106371056653 -0.051924258816504344 1.3238228403798342
-0.39156880499678154 -0.05416052840702143 0.6338371305911833
0.39890744391238386 0.055175585164315095 0.6457162736009243
0.4308671766294438 0.05959615184280055 0.3926802449689843
-0.3977801067517562 -0.05501965554087892 0.3625256186488405
0.45367487754488217 0.06275083913547087 0.22436897662651678
-0.3976326867893379 -0.05499926488932438 0.1966528089255941
0.47196910371368217 0.06528123722504267 0.08508539948822755
-0.39883339549358676 -0.055165343026947124 0.07190067849315097
0.4917198872759401 0.06801310161396762 -0.05086030344172987
-0.40401834425478045 -0.05588250834013362 -0.041789026875970435
0.5177173435957455 0.07160898553922232 -0.2093081587760214
-0.4082886333152949 -0.056473160887059795 -0.16506718027807019
-0.4166872053090293 -0.05763482415349085 -0.3289468041743938
0.19663890587617117 0.027198456342096854 -0.15523332331825326
-0.0588064470182675 -0.008133917216094516 -0.08171071643186968
0.04716160602455117 0.006523240539640167 -0.06553037654437073
0.029347806886995897 0.0051220122470572475 -0.08174026683015287
-0.02867314465970864 -0.005004264839078927 -0.07986118023635627
0.029010475773352265 0.005063138543068084 -0.08080072353325457
-0.028335813546065007 -0.004945391135089763 -0.07892163693945796
0.046901651438573715 0.008185648556316205 -0.06553037654437073
-0.05732424064714566 -0.01000468156883093 -0.08009268244311979
-0.4151664391162623 -0.07245814291707427 -0.32956280942565674
0.19943509318295213 0.034806995756426276 -0.1583133495745678
0.5185216889775579 0.09049652164927821 -0.21079525049023826
-0.4060381479824264 -0.07086500107985817 -0.16506718027807019
0.4909694872339143 0.08568789266695837 -0.05106415235331997
-0.40081141772189804 -0.06995279062033136 -0.041687102420175384
0.47130714746598645 0.0822562650334212 0.08543699204809627
-0.3966350273942149 -0.06922389382442246 0.07190067849315097
0.4494049127331801 0.07843371314832394 0.22348909828680494
-0.3945562816515715 -0.06886109461447347 0.1962128697557382
0.4248361613351568 0.07414577960561888 0.3893297309334127
-0.39485632895178085 -0.06891346125134983 0.3618555158417262
-0.38680398344618644 -0.06750810198699313 0.6295945795162757
0.39149567596777096 0.06832693341271129 0.6372311714511093
0.31612559359735626 0.055172748282304285 1.120971264983941
-0.36953617845042586 -0.0644943875718532 1.3103634941450355
0.0 0.0 1.924
-0.0 -0.0 1.896
-0.0 -0.0 1.896
0.0 0.0 1.928
0.0 0.0 1.923
-0.0 -0.0 1.896
0.3188256257135101 0.06733240246592538 1.1382761387143963
-0.3699885217317254 -0.07813743326704527 1.3209386947580917
-0.3857302656042843 -0.08146191332278296 0.6321401101612203
0.3934966467909478 0.08310208607424828 0.6448677633859429
0.42558211699410003 0.08987817814085144 0.3926802449689843
-0.3921746470594096 -0.08282289453252532 0.3618555158417262
0.44898870355141557 0.09482138715331291 0.2248089157963727
-0.39187663754194 -0.082759958259056 0.1962128697557382
0.4681062469094222 0.09885879826372897 0.08543699204809627
-0.3939412654031968 -0.08319598454704773 0.07190067849315097
0.4866617256918023 0.10277750762884703 -0.05096222789752492
-0.3980892916158942 -0.08407200124039696 -0.041687102420175384
0.5131835501141926 0.10837861999910442 -0.21005170463312983
-0.40328052433752487 -0.08516833146832288 -0.16506718027807019
-0.4115760786120033 -0.08692025965112529 -0.3289468041743938
0.5518510716969932 0.11654476762210794 -0.44105975990424334
-0.056359820658827595 -0.011902563098605896 -0.07928366544874484
0.049458618129175236 0.01044510639265414 -0.06957546151624547
0.023595476640920852 0.005861146856923993 -0.06670757407977992
-0.02957742846537966 -0.007347071412200494 -0.0836193534239495
0.023595476640920852 0.005861146856923993 -0.06670757407977992
-0.02957742846537966 -0.007347071412200494 -0.0836193534239495
0.04905864774288997 0.0121862314289727 -0.06957546151624547
-0.05704493923591857 -0.014170036545317087 -0.08090169943749474
-0.4097766925109387 -0.10178905939903335 -0.3301788146769196
0.5519753208822719 0.1371113822501905 -0.4447557914118208
0.512637226514411 0.1273397488278038 -0.21153879634734668
-0.4009201507889507 -0.09958908300241243 -0.16543895320662438
0.4856224633077019 0.1206292467739928 -0.051268001264910074
-0.39486995525417506 -0.09808620662139766 -0.041687102420175384
0.4671868625659881 0.11604981975129781 0.08596438088789933
-0.3907554740071353 -0.09706416416826334 0.07190067849315097
0.4444862035707591 0.11041094675268066 0.22436897662651678
-0.38870754273050695 -0.09655545539548147 0.1962128697557382
0.41997931839622893 0.104323404839474 0.39066993654764137
-0.389003142253797 -0.09662888269865512 0.3618555158417262
-0.3815837330293176 -0.0947858918696047 0.6304430897312573
0.3867194494900083 0.09606161046811895 0.6389281918810723
0.31250788172985916 0.07762736123704156 1.1248167924795975
-0.36432542793122047 -0.09049890660455097 1.31132487601895
0.0 0.0 1.925
-0.0 -0.0 1.896
0.0 0.0 1.926
-0.0 -0.0 1.896
0.0 0.0 1.925
-0.0 -0.0 1.896
0.31459691607915635 0.09006067719349606 1.1430830480839673
-0.36539810017267865 -0.10460369655527167 1.327668367875491
-0.38053983849526796 -0.10893837098315445 0.6346856408061647
0.3886797280887496 0.11126860351755352 0.6482618042458689
0.419598733560033 0.120119887266923 0.3940204505832129
-0.3867729822951325 -0.11072275322903444 0.3631957214559548
0.4437605808762361 0.12703677748524794 0.22612873330594044
-0.3867796502578867 -0.11072466208830943 0.19709274809545002
0.4637408307929739 0.13275658828448647 0.08614017716783368
-0.3880280420920802 -0.11108204325844781 0.07207647477308532
0.48201306723460563 0.1379874405391188 -0.051369925720705124
-0.39307017982822 -0.11252547234440038 -0.041890951331765486
0.5087099389291637 0.145630040389509 -0.21191056927590088
-0.3989356889497127 -0.11420461062124651 -0.16618249906373284
-0.40516669432196895 -0.11598838069253517 -0.32956280942565674
0.5467857071036664 0.1565301137570288 -0.4447557914118208
-0.053683178294265756 -0.015368057167681458 -0.07685661446562
0.050292661770417385 0.014397443030775265 -0.07200251249937031
0.02344826920105912 0.007618804505995542 -0.06764711737667824
-0.02703064366233205 -0.00878278852774486 -0.07798209364255965
0.023122598795488856 0.007512987776745605 -0.06670757407977992
-0.027356314067902315 -0.008888605256994798 -0.07892163693945796
-0.45168573145495766 -0.14676159065708286 -0.6536857314549575
0.0458393935387457 0.014894121824109902 -0.06633939353874568
-0.4030627166310169 -0.13096301545055994 -0.3314108251794455
0.546157472907084 0.17745732019230154 -0.44906782817066115
0.5094265507694125 0.1655227201289747 -0.21451297977578038
-0.39729973630196813 -0.1290905096326492 -0.16729781784939546
0.4815667063298864 0.1564705079365879 -0.05187954799968037
-0.390740765646843 -0.1269593708797854 -0.04209480024335558
0.4615689340812113 0.14997283785221355 0.08666756600763674
-0.3857330645871381 -0.12533227017264087 0.07242806733295404
0.4398486135360346 0.14291547789859338 0.22656867247579635
-0.3834796650052031 -0.12460009626498719 0.19753268726530596
0.4150921924049964 0.13487162906488254 0.3940204505832129
-0.3833249327821651 -0.12454982071808027 0.3638658242630691
-0.37594951546080835 -0.1221534023624341 0.6338371305911833
0.381485585969602 0.12395218071047535 0.6431707429559798
0.307291890486681 0.0998451877117679 1.1286623199752543
-0.359903193713106 -0.11693963637451517 1.321900076632006
0.0 0.0 1.926
-0.0 -0.0 1.896
0.0 0.0 1.926
-0.0 -0.0 1.896
0.0 0.0 1.926
-0.0 -0.0 1.896
0.3097008863997885 0.11149917993731619 1.1498127212013665
-0.36123138505660946 -0.1300513010138429 1.3411277141102895
-0.374914442049322 -0.13497750465329122 0.6389281918810723
0.38387654026564044 0.1382040585493858 0.6542013757507393
0.41484126502670726 0.14935204542788258 0.39804106742589873
-0.3820171245279611 -0.1375346276920064 0.3665462354915263
0.44021211240837216 0.15848611252809341 0.22920830749493185
-0.3819114679627336 -0.13749658898790448 0.1988525047748737
0.4603353291026031 0.1657309163295629 0.08737075112737416
-0.383458402914442 -0.13805351983991762 0.07277965989282274
0.47922216718868177 0.1725305964424839 -0.052185321367065524
-0.3893680108408039 -0.14018110960951816 -0.04240057361074073
0.504849427150071 0.18175697775172792 -0.2148847527043346
-0.39479574579901744 -0.1421352144356073 -0.16804136370650388
-0.4002325244682884 -0.14409257519802332 -0.3326428356819713
0.544019764740229 0.19585916702842424 -0.45214785442697575
0.04756108225349302 0.01712304323646694 -0.06957546151624547
-0.41864813099877 -0.1507226015116916 -0.6124258647418351
0.02415933629740592 0.009675275143416163 -0.07140529056427147
-0.02797396834436475 -0.011202950166060814 -0.08267981012705118
0.02415933629740592 0.009675275143416163 -0.07140529056427147
-0.02797396834436475 -0.011202950166060814 -0.08267981012705118
0.046380673253908614 0.018574424791488683 -0.06876644452187053
-0.4119695094906001 -0.16498459667734056 -0.6108078307530852
-0.3978161075191259 -0.1593164749788117 -0.3351068566870229
0.5426094701823371 0.21730298609242346 -0.457075896437079
0.5050059453022157 0.20224361338869007 -0.2178589361327683
-0.39297390965496654 -0.1573772827734516 -0.16952845542072073
0.4774438752943464 0.19120561931611005 -0.05269494364604077
-0.3860184523656418 -0.15459177731940804 -0.042604422522330834
0.4569332564008174 0.18299157408267577 0.08789813996717723
-0.38108233583828177 -0.1526149727849515 0.0733070487326258
0.4351706665135768 0.17427614240026704 0.22964824666478778
-0.37848176742751705 -0.15157350316038543 0.19973238311458552
0.4093047602161845 0.1639174240488874 0.39804106742589873
-0.37760775858328144 -0.1512234821191755 0.36721633829864064
0.37727954493403565 0.15109203987576353 0.6516558451057949
-0.3708933026369752 -0.14853449232578306 0.6406252123110353
0.3032681718286794 0.12145213629061243 1.1411602843361388
-0.3558993794080458 -0.14252976061737405 1.3392049503624612
0.0 0.0 1.927
-0.0 -0.0 1.896
0.0 0.0 1.927
-0.0 -0.0 1.897
0.0 0.0 1.926
-0.0 -0.0 1.896
0.3050801094138996 0.13487450545639834 1.1651948311839935
-0.35693365936378696 -0.15779872008017554 1.3632394972103157
-0.3697690499730392 -0.163473186908211 0.6482618042458689
16.356472570469712 7.231120879009155 28.675402715299917
0.41072476003144004 0.18157951691561336 0.40541219830415615
-0.37745944888839794 -0.16687307670261323 0.37257716075555514
0.43531149875824293 0.19244920039951516 0.2331677600236351
-0.3769961847736482 -0.16666826977995738 0.2019320789638651
0.45558397526032207 0.2014115685061978 0.08895291764678336
-0.37905307032528784 -0.16757760936978108 0.07401023385236322
0.47493857602140294 0.20996814799271962 -0.05320456592501602
-0.3848640185001025 -0.17014660268375548 -0.04311404480130608
0.5017894373596955 0.2218387896121878 -0.21971780077553935
-0.38971463916768245 -0.17229103964804426 -0.17064377420638338
-0.3948200342124545 -0.17454811118622496 -0.33757087769207456
0.5389149372097004 0.2382518014001758 -0.4607719279446565
-0.40373204272821867 -0.17848806893534247 -0.6075717627755854
0.046232963614682814 0.020439379398720984 -0.06957546151624547
0.023415669994789282 0.011357415116437666 -0.07140529056427147
-0.025572376441677775 -0.012403492824530602 -0.07798209364255965
0.02372377091577335 0.01150685478902237 -0.07234483386116979
-0.025264275520693703 -0.012254053151945896 -0.07704255034566133
0.044952995632015165 0.0218037678287155 -0.06876644452187053
-0.3982306554224403 -0.19315573147085605 -0.6091897967643354
-0.3926583328109356 -0.19045296101518877 -0.341266909199652
0.5386648608958682 0.26127121005693776 -0.46816399095981137
0.50031933532285 0.242672295232478 -0.22269198420397304
-0.3883948095578052 -0.18838500381152293 -0.17287441177770865
0.4725930119004588 0.22922406313701457 -0.05381611265978632
-0.38308675964658406 -0.1858104148156102 -0.043623667080281335
0.4534968910921203 0.21996177975233216 0.09000769532638948
-0.37643784905107647 -0.18258546170847872 0.07471341897210064
0.4306633445817274 0.20888671479127283 0.23448757753320285
-0.3741034306591741 -0.18145318752037387 0.20369183564328877
-0.37333073730417227 -0.1810784043434491 0.37458746917689806
0.40538775946982564 0.19662717609387056 0.40675240391838474
-0.3656662257277416 -0.17736084940448574 0.6516558451057949
0.37280814419898656 0.1808249284944172 0.6643834983305175
0.2986379609749896 0.14484980754658056 1.1594265399405084
-0.35088722280394724 -0.170192518485493 1.3622781153364016
0.0 0.0 1.928
-0.0 -0.0 1.897
0.0 0.0 1.927
-0.0 -0.0 1.896
0.0 0.0 1.927
-0.0 -0.0 1.897
0.30087318549329173 0.15930415147479066 1.1892293780318481
-0.3521943189929558 -0.18647729291471055 1.3920809534277414
-0.3652504365292411 -0.19339015130806658 0.6626864779005545
0.37507151100698005 0.1985901425724319 0.680505192415166
0.4073705420794235 0.21569159922107775 0.4161338432179851
-0.3726030078922907 -0.19728313745180712 0.3806183944409267
0.4317433730430317 0.22859634893923658 0.2393269084016179
-0.373013575974678 -0.19750052206147284 0.20677140983228015
0.45501123753515893 0.2409160490264063 0.09194145440566738
-0.37497101984254966 -0.19853693523973454 0.07576819665170677
-0.3815567871235585 -0.20202391952114018 -0.04423521381505163
0.46771477131274924 0.2476422239291395 -0.05422381048296652
-0.3855976719045559 -0.20416345787909912 -0.1747332764204797
1.1157719867876514 0.5907708568416482 -0.5056111828337285
-0.38986043335842424 -0.20642047388813486 -0.3449629407072295
0.6481429704583803 0.343174037839024 -0.573500888925769
0.04259608111562614 0.022553464002286343 -0.06633939353874568
-0.3963513401368627 -0.20985723211883522 -0.6172799667080848
0.021367948075692433 0.012299524611155823 -0.06764711737667824
-0.025819603924795025 -0.014861925571813291 -0.08174026683015287
0.021071171019085594 0.012128697880445325 -0.06670757407977992
-0.025819603924795025 -0.014861925571813291 -0.08174026683015287
0.04075369830262436 0.02345808373799619 -0.06472135954999579
-0.3968391372218047 -0.22842309039873795 -0.630224238618084
-0.3884674606339536 -0.2236043009733722 -0.3505069879685956
0.632881082614543 0.3642903110761264 -0.5710368679207174
-0.38377454927579435 -0.22090303183217122 -0.17733568692035917
1.0813270319217352 0.6224186054139162 -0.49966281597686113
-0.37935287187936034 -0.21835788665644432 -0.04484676054982193
2.3631959586848335 1.3602703802848037 -0.27937493333423163
5.268398795806081 3.03252331112288 1.0855420285946387
-0.37198734817351436 -0.21411824512543742 0.07664717805137854
4.889291814106466 2.8143069603924267 2.7636978650348594
-0.37047164971580354 -0.21324579960948672 0.20941104485141565
2.2322803772624455 1.2849145524821264 2.325256740686648
-0.36925905952410476 -0.2125478251079944 0.3846390112836126
1.1516159428157131 0.6628773423206796 2.130609149818556
-0.3618578171571476 -0.20828762369216103 0.6694745596204065
0.47013399399466294 0.2706120685615228 1.8948836734848609
-0.34657772362975403 -0.19949230625057982 1.3968878627973125
0.0 0.0 1.929
-0.0 -0.0 1.896
0.0 0.0 1.928
-0.0 -0.0 1.897
0.0 0.0 1.928
-0.0 -0.0 1.896
0.4609787438923799 0.2874924389314799 1.8977678191066032
-0.3484195977139974 -0.21729418383270918 1.4343817558799656
1.1198403869734879 0.6983958551896738 2.1161844761638706
-0.3619051130315281 -0.22570451454806612 0.6838992332750921
2.1514727515870193 1.341780194517552 2.289071189102475
-0.36844600693161783 -0.22978378623910062 0.39201014216186997
-0.36880101654209196 -0.2300051903279259 0.21293055821026297
4.776125561334364 2.9786622582137188 2.7575387166568768
5.292435449179029 3.300662330597871 1.11384522966407
-0.3708714235220154 -0.23129641331841136 0.07805354829085338
-0.3773088084484645 -0.23531113095423722 -0.04556023174038728
2.3482619800976017 1.4645090969008683 -0.28355383602182865
-0.38203068846663746 -0.23825596262110318 -0.18030987034879287
1.0688982355654164 0.6666254459316229 -0.5044958640480658
-0.38567093851383516 -0.24052622861114117 -0.35543502997869886
0.6216186703949163 0.38767659030911844 -0.5728848836745061
-0.3945047565114444 -0.24603549756303536 -0.6399324425505833
0.039400601472065866 0.024572445395043992 -0.06391234255562084
-0.024770661454916118 -0.016551226831305933 -0.08174026683015287
0.0227776197286585 0.015219518925338786 -0.07516346375186472
-0.025055381701524347 -0.016741470817872667 -0.08267981012705118
0.0227776197286585 0.015219518925338786 -0.07516346375186472
0.03812059491558056 0.02547136718736597 -0.0631033255612459
-0.3929353629759843 -0.26255101562361854 -0.6504496634774577
-0.3844753575006611 -0.25689822068832724 -0.361595082491328
0.6065147888340923 0.405260225481075 -0.5704208626694545
-0.3797614893636496 -0.2537485146972077 -0.18291228084867237
1.0343097474538425 0.6911036782403625 -0.4981757242626443
-0.37469416470380534 -0.25036263660809815 -0.046171778475157584
2.25478210371429 1.5065972348646255 -0.27784606649730587
-0.36833434960951233 -0.24611314402097484 0.07910832597045951
5.041269464988859 3.368468564500408 1.0827292881156891
-0.36587449372479003 -0.2444695208664433 0.21557019322939847
4.846717017893086 3.238472775396088 2.8556451515347456
-0.36474955912851986 -0.2437178636001592 0.3960307590045558
2.147763901467427 1.4350899582547445 2.331957768757791
1.1070305870871047 0.7396941898148635 2.134851700893463
-0.35727696212827065 -0.23872483391481286 0.6889902945649811
0.4535516055387701 0.30305349401500653 1.9054588740979168
-0.3421088043796475 -0.22858979493059278 1.4372659015017082
0.0 0.0 1.929
-0.0 -0.0 1.896
0.0 0.0 1.929
-0.0 -0.0 1.897
0.0 0.0 1.929
-0.0 -0.0 1.897
0.4425597995397344 0.31889073826759196 1.9054588740979168
-0.3429726801680283 -0.24713227748689268 1.4766825583321899
0.7053940632948333 0.5082785057468144 1.3941022832146106
-0.3559170288931326 -0.25645945299093675 0.7034149682196665
2.063795457626257 1.4870877513054628 2.2964423199807324
-0.3637386800134985 -0.26209541925547114 0.4047420954970418
-0.3642934073603015 -0.26249513340335173 0.21996958492795762
4.588639759110358 3.3063887003486183 2.7707368917525543
5.296872001844321 3.816712283704427 1.1658809285246388
-0.36579725223834425 -0.2635787433559451 0.08051469620993434
-0.3720702157475441 -0.26809878780339563 -0.04698717412151798
2.239685138176648 1.6138267595540625 -0.2828403648312633
-0.3773364837461085 -0.271893448076931 -0.1862582372056603
1.0205407893732077 0.735360523241999 -0.5037523181909574
-0.3815487124705657 -0.27492861017048553 -0.36775513500395707
0.5937332560890378 0.42782023257685275 -0.5722688784232431
-0.390088927941932 -0.2810823449187855 -0.6617759013987069
0.3795975386818801 0.2735226730505541 -0.6439775275224581
0.019481247563421806 0.015111204584631489 -0.06764711737667824
-0.022457549274500138 -0.017419860840616863 -0.07798209364255965
0.019481247563421806 0.015111204584631489 -0.06764711737667824
-0.022457549274500138 -0.017419860840616863 -0.07798209364255965
-0.38409309014860993 -0.2979331403640088 -0.6690570543480814
0.36133545844693904 0.2802805117330094 -0.629415221623709
-0.3790649404092518 -0.29403290763269924 -0.375147198019112
0.5770003280121124 0.44756733230790163 -0.5710368679207174
-0.37556204730679565 -0.291315785223727 -0.1903477394197566
0.9462403145034501 0.7339792244894682 -0.47958707783493365
-0.37101087862410886 -0.2877855369252362 -0.04810834313526352
2.136456712076966 1.657205697802525 -0.27703067085094546
-0.36403360675906854 -0.28237341009650146 0.0822726590092779
5.11591673430426 3.9683117910356613 1.1562121331282493
-0.3618863050218086 -0.2807077921348677 0.22436897662651678
4.703102803303034 3.6481004828821613 2.915916817805006
2.0457364756007594 1.5868358691303552 2.3373185912147054
-0.3607018155087347 -0.2797890078885231 0.41211322637529924
0.6844844413843049 0.530940556814045 1.3890112219247215
-0.3529046234137771 -0.27374088573674654 0.7161426214443891
0.43253749360837684 0.33551047155277086 1.9121885472153162
-0.3377228394036245 -0.2619646869388905 1.493026050188731
0.0 0.0 1.929
-0.0 -0.0 1.897
0.0 0.0 1.93
-0.0 -0.0 1.897
0.0 0.0 1.928
-0.0 -0.0 1.896
0.4195664514052232 0.34987985358188434 1.9083430197196594
-0.3379782145072806 -0.281842763666213 1.5372496163887834
0.6604189617991465 0.5507287078914167 1.3788290993449435
-0.35154609351154575 -0.2931571275852771 0.7339613359590007
1.9610240612666854 1.635313808166881 2.3051536564732182
-0.35914103447616635 -0.29949061021660894 0.42216476848201384
-0.36070729727737966 -0.300796729420668 0.2300881858346437
4.367799834909454 3.64234357059482 2.7861347626975115
-0.36214492731168696 -0.3019955807211561 0.08420641808855578
4.77744007449384 3.983945875943604 1.1108566929051857
-0.3682501657138547 -0.3070867883500756 -0.04912758769321402
2.1117084191557964 1.7609707116174464 -0.28171919581751775
-0.3728762249623433 -0.3109444965321797 -0.19443724163385295
0.928269301913902 0.7740912705256177 -0.4840483529775842
-0.3769082467382622 -0.3143068320665692 -0.38377127153679275
0.5614299405667853 0.46818096333511444 -0.5716528731719802
-0.3742284342962796 -0.31207211482049885 -0.6706750883368313
0.11240395674279083 0.09373456766019812 -0.2014452315993619
0.018365340088589147 0.016449370627971645 -0.06764711737667824
-0.02091608176755987 -0.018734005437412143 -0.07704255034566133
0.018365340088589147 0.016449370627971645 -0.06764711737667824
-0.02091608176755987 -0.018734005437412143 -0.07704255034566133
0.33494587185342584 0.30000254609221105 -0.6188980006968348
-0.36296748727645767 -0.3251007983143044 -0.6706750883368313
-0.37671556419161123 -0.33741460309593935 -0.395475371310788
0.5416019715714284 0.4850991879401125 -0.5685728469156657
-0.372720012307488 -0.33383588832734823 -0.20038560849072035
0.8906556138256854 0.7977377071718456 -0.47884353197782525
-0.36754331795541084 -0.3291992541232284 -0.05055453007434472
2.0037038946601426 1.7946669015105043 -0.2756037284698148
4.45035824980704 3.9860733275400504 1.0669076229215972
-0.3615136953624768 -0.32379867366571824 0.08666756600763674
4.246401943572923 3.803394822433489 2.79273385024535
-0.35921831186179287 -0.32174275671814473 0.2362473342126265
1.9346364442270059 1.7328049329859128 2.3446897220929626
-0.35718066389558334 -0.31991768697024836 0.4328864133958428
0.6464589600259774 0.5790169404947466 1.391556752569666
-0.3480629644530111 -0.3117511941810128 0.7492345198286677
0.40837629060917374 0.3657723149967873 1.9150726928370587
-0.33293328109904535 -0.298199919455212 1.5612841632366383
0.0 0.0 1.93
-0.0 -0.0 1.896
0.0 0.0 1.93
-0.0 -0.0 1.896
0.0 0.0 1.929
-0.0 -0.0 1.896
0.39420453268889444 0.37902034631517634 1.9102657834674879
-0.3332982460580487 -0.32046008143406945 1.6151215481758325
0.6233065977722089 0.5992977324149689 1.386465691279777
-0.3463662122259277 -0.3330246885145604 0.7704472752032053
1.8475855676815944 1.7764192535610785 2.3138649929657045
-0.35581940414371876 -0.3421137572018873 0.4456183667310146
3.9772963302939197 3.824096649075771 2.702986259594743
-0.3579825635827699 -0.3441935948793784 0.24328636093032116
4.159126380695701 3.9989228698797277 1.0303419966952514
-0.35978110817483727 -0.34592286214451823 0.08912871392671771
-0.3657207416139777 -0.35163370952552714 -0.05198147245547542
1.9684381092752328 1.8926167306815145 -0.2797826311574118
-0.3707287543259288 -0.3564488208574217 -0.20596220241903354
0.8726178621678897 0.8390058888051948 -0.48479189883469265
-0.37421096663392245 -0.35979690340207454 -0.4059474605822575
0.5269617253964795 0.5066639246693859 -0.5716528731719802
0.3211699918086031 0.3087989899329955 -0.6132348817362101
-0.3512531968460845 -0.33772343358107276 -0.6706750883368313
0.01866269710948623 0.019107689581778345 -0.0732843771580681
-0.02368726940819406 -0.024252067546103286 -0.09301478639293259
0.01842343176192871 0.018862719202524775 -0.07234483386116979
-0.022490942670406477 -0.023027215649835443 -0.08831706990844104
-0.3404717251898437 -0.3485899169950775 -0.6706750883368313
0.31007979797145 0.31747332609322493 -0.6108078307530852
-0.37428357987538685 -0.38320797995378897 -0.41888357085877864
0.5074845009486862 0.5195849375255783 -0.5679568416644027
-0.3723223999509828 -0.38120003774748906 -0.21339766099011775
0.8601036626045355 0.880611933890541 -0.4929709032628853
-0.3663117053970476 -0.3750460244752541 -0.05371418820399127
1.8670080468623718 1.9115248989383913 -0.2737690882655039
3.9035255601139043 3.996601040011588 0.9976438886274615
-0.359743412852788 -0.36832111787243366 0.09194145440566738
3.7309756368620315 3.8199368445036095 2.615878303963272
-0.35766164026427133 -0.3661897075962088 0.25076532681787167
1.820956528320876 1.8643753301542985 2.3527309557783345
-0.35423335483997664 -0.3626796782954674 0.4576802172590722
0.6111999233792355 0.625773345611493 1.4025873853644257
-0.3438692853857767 -0.3520684884565569 0.7891144999327985
0.3834508159691482 0.39259379919389376 1.916995456584887
-0.3292215631590681 -0.33707150662986274 1.6458857681410866
-0.0 -0.0 1.896
0.0 0.0 1.929
0.0 0.0 1.931
-0.0 -0.0 1.896
0.0 0.0 1.929
-0.0 -0.0 1.896
0.3682274802661575 0.4046767169456462 1.911227165341402
-0.32877453595192646 -0.3613184972728983 1.7064528261976801
0.6093625372067569 0.669680684364619 1.451800977833353
-0.3418983259605417 -0.37574135417301807 0.8145698063822435
1.7284632537950848 1.899556313400084 2.3185557126155047
-0.3516873210033931 -0.3864993192582828 0.4717523762084726
3.506030400385657 3.8530771003678814 2.5520871243341645
-0.3553776720266794 -0.3905549620783164 0.25868423187527817
3.6551857280401308 4.016996665161188 0.9698680763978336
-0.35776695543622833 -0.3931807502604751 0.0949299911645514
-0.36354260494252905 -0.3995281061904266 -0.05534497949671207
1.8244081003101125 2.004998322963007 -0.2777441420415108
-0.36861634483513656 -0.4051040735269559 -0.21934602784698515
0.8359468972701907 0.9186936447102834 -0.49743217840553583
-0.37111217787773454 -0.4078469582269055 -0.4312036758840368
0.49092839530683147 0.5395232618830208 -0.5704208626694545
0.29985481717739493 0.32953614132214315 -0.6132348817362101
-0.3287326557709964 -0.3612724715550143 -0.6722931223255812
0.016602475030877875 0.01959429215102619 -0.07046574726737317
-0.0391818410728718 -0.04624252947642179 -0.1662991635510007
0.016602475030877875 0.01959429215102619 -0.07046574726737317
-0.03940320740661685 -0.04650378670510214 -0.167238706847899
-0.31500164281418314 -0.3717659087500483 -0.6706750883368313
0.2872632593094359 0.33902898313032165 -0.6116168477474602
-0.37276464125538555 -0.439937977364588 -0.4509158439244499
0.4685020081351838 0.5529275125347284 -0.566724831161877
-0.3702748412578814 -0.43699950774135493 -0.2293838969179489
0.7927602354970195 0.9356180708692545 -0.4911120386201142
-0.3633460110297325 -0.42882208097199015 -0.05758731752420316
1.7183372415423803 2.027986903287006 -0.2723421458843732
-0.3576508360332846 -0.42210061790554526 0.09879750932310721
2.467281657119295 2.9118934085761556 0.6815621773054922
3.2428749878774714 3.827251045615146 2.4575002028151425
-0.35528812971375107 -0.41931214463237876 0.2692427719518201
1.6904921528690415 1.9951240438987583 2.360772189463706
-0.35172601420749583 -0.41510812494402183 0.49118535761478754
0.6181592289574812 0.7295534253488661 1.533257958471577
-0.3400388896423556 -0.4013149445471902 0.8434191536916147
0.3551213775286113 0.4191153431900416 1.9189182203327153
-0.3241639027340331 -0.3825792361183645 1.7516377742716471
0.0 0.0 1.931
-0.0 -0.0 1.896
0.0 0.0 1.931
-0.0 -0.0 1.896
0.0 0.0 1.931
-0.0 -0.0 1.896
0.3388972302250823 0.42988908714265694 1.9121885472153162
-0.32100672787534207 -0.4071950931004351 1.8112434504543264
0.6208238258613691 0.7875112688253632 1.6079268573899494
-0.3394055322387223 -0.4305338651731272 0.8790565827208379
1.5982586007710329 2.0273813700012595 2.330617563143562
-0.35108383294682866 -0.44534771899970155 0.5119585446353311
3.036116337467062 3.8512952139082515 2.402507806583153
-0.3541487103033362 -0.44923549739233753 0.280241251198218
-0.35652973112891406 -0.4522558079109436 0.10284082376159735
1.9459819341788411 2.4684663156575106 0.5613175218303937
0.9299633916363398 1.179652938565229 -0.15390592825052526
-0.3602838305346086 -0.45701786030507197 -0.059625806640104154
-0.3672458147350126 -0.465849095162393 -0.23756290134614155
0.7684000849776395 0.9747108610831292 -0.4970604054769816
-0.36966624121142866 -0.4689193915107914 -0.46693198045728557
0.45062217266406324 0.5716115009973237 -0.5691888521669286
-0.30239615763908223 -0.38358769729859743 -0.6722931223255812
0.27546797994318306 0.3494294667328981 -0.6124258647418351
0.014367682569335603 0.019612986972347722 -0.06670757407977992
-0.036829834191818046 -0.05027554406996176 -0.17099688003549224
0.014367682569335603 0.019612986972347722 -0.06670757407977992
-0.036829834191818046 -0.05027554406996176 -0.17099688003549224
0.26225395301784876 0.3579967290593901 -0.6108078307530852
-0.2879583139758897 -0.39308515018574075 -0.6706750883368313
-0.370090179756769 -0.5052014365667451 -0.48972417475401325
0.42781493735405096 0.5840001512010553 -0.5661088259106141
-0.3653676340147376 -0.4987547999802395 -0.2476007704171053
0.7241520674165967 0.9885230269878624 -0.49074026569156004
0.8553655313081425 1.167639453417968 -0.14830008318179752
-0.35919473514039546 -0.4903283203012908 -0.06227584249077545
0.820273809076277 1.1197365652765123 0.24787275470743977
-0.35487022945853136 -0.484425038878491 0.10723573075995621
0.7811849881950178 1.0663773313841378 0.6475904580279073
-0.35238235880536145 -0.4810289049178446 0.29211960878432774
0.7356146705222011 1.0041703580236432 1.123762407530694
-0.34784879768879295 -0.4748402468173816 0.5313915260416461
0.6138740964109862 0.8379851515697258 1.6656255520086918
-0.33680203863200836 -0.45976057475323195 0.9138455015350795
0.32479635584610334 0.44337189836525004 1.9198796022066296
-0.3106464895673799 -0.4240562473097783 1.8362393791760954
0.0 0.0 1.931
-0.0 -0.0 1.896
-0.0 -0.0 1.895
0.0 0.0 1.932
0.0 0.0 1.931
-0.0 -0.0 1.896
0.3078438597445684 0.4529784838636821 1.9131499290892302
-0.2991809169577863 -0.4402313506494279 1.8593125441500358
0.6171936447386772 0.908172869441028 1.7606586960866204
-0.3364077167226232 -0.49500892305436284 0.9596650531440807
0.6879902935282145 1.0123469746446319 1.1049995289314933
-0.3454554051190789 -0.5083221922412102 0.5548451242906467
0.7329207738688119 1.0784601687841486 0.6387916746307889
-0.35030786299239325 -0.5154623671736911 0.30531778388000513
0.7663617877354955 1.1276671264046894 0.24347784770908093
-0.35302441918790295 -0.5194596582282975 0.11215802659811815
-0.35730076534609706 -0.5257521105150585 -0.06512972725303685
0.8063031355697534 1.1864390349964227 -0.14697506525646187
-0.3626477476178156 -0.5336199560023739 -0.25838218534517743
0.695553161977768 1.0234753976275743 -0.49557331376276476
-0.369275776032182 -0.5433728036460992 -0.5137483795532667
0.40824012650080593 0.6007071042706273 -0.5679568416644027
0.2501009302855867 0.368012343360246 -0.6124258647418351
-0.2745493699700427 -0.40398712989744323 -0.6722931223255812
0.013027309935729354 0.020527755752373877 -0.06670757407977992
-0.03376091588977752 -0.05319869096389848 -0.17287596662928884
0.013027309935729354 0.020527755752373877 -0.06670757407977992
-0.03357743265124612 -0.05290956764344251 -0.17193642333239054
-0.26172435402146343 -0.4124115907509981 -0.6722931223255812
0.23747312025533482 0.37419776104242203 -0.6099988137587103
-0.36764326043937956 -0.579313080869249 -0.5365405738499943
0.3874816453310564 0.6105733734075441 -0.5654928206593511
-0.36212227847069717 -0.5706134053471723 -0.27065069198746644
0.6551030779476754 1.0322772731349261 -0.48962494690589736
0.8134133708954686 1.2817343784584216 -0.15553671954324605
-0.35660127465862984 -0.5619136954054283 -0.06818746092688835
0.7764536995872596 1.2234952554893663 0.25877212406336975
-0.3523580647583492 -0.5552274664856633 0.11743191499614879
0.7169689842066274 1.1297623425274907 0.6555093630853137
-0.34886074734886263 -0.5497165760620338 0.31895589814553854
0.6669885877500487 1.0510058397706523 1.123762407530694
-0.3432386113466265 -0.5408575072880576 0.5782987225396475
0.6110465607740146 0.962855310480858 1.8285395132851403
-0.33288569018500885 -0.5245439139232144 0.9961509923882853
0.2944958432359277 0.4640511947486765 1.9198796022066296
-0.28682744872002003 -0.45196773850083904 1.869887744763092
0.0 0.0 1.931
-0.0 -0.0 1.896
0.0 0.0 1.932
-0.0 -0.0 1.896
0.0 0.0 1.932
-0.0 -0.0 1.896
0.27763609109195847 0.47369269229353556 1.9179568384588013
-0.2726261165158632 -0.46514485423711077 1.8833470909978907
0.5924293457861808 1.0107815979378705 1.878601615969049
-0.33581699591764114 -0.5729588551996508 1.064880319801787
0.645198180749259 1.1008138823017017 1.151906725429495
-0.3441807630873014 -0.5872288133046307 0.6144842741238202
0.6825036805657081 1.164463181554934 0.6612285722934406
-0.3501066784538666 -0.5973393965261837 0.33919309995891067
0.7148157456827118 1.2195928624931658 0.252443457985733
-0.3534256124197255 -0.6030020420404927 0.12481535875339166
0.7479966604314576 1.276204943358725 -0.15156166576723912
-0.35865609878119015 -0.611926109357613 -0.07267213698187053
-0.36191798053809277 -0.6174914144492288 -0.28663692791529755
0.6233814243250153 1.0635909187919275 -0.49371444911999374
-0.36805467808110526 -0.6279616266234015 -0.5691888521669286
0.36685969536006235 0.6259227901733256 -0.5673408364131399
0.22529120366267222 0.3843837319322981 -0.6132348817362101
-0.24758254967151203 -0.4224164230865491 -0.6739111563143311
-0.029756739676519397 -0.055148914544974004 -0.17193642333239054
0.017236144293503054 0.031944180009657056 -0.09959158947122075
-0.029756739676519397 -0.055148914544974004 -0.17193642333239054
0.016910934023814318 0.03134145963211636 -0.09771250287742413
-0.2319433874088304 -0.42986651731792075 -0.6722931223255812
0.08094293904760634 0.15001358606762571 -0.2346149283687347
-0.36807931442322506 -0.6821706570534282 -0.6061491672427032
0.34339106772410666 0.6364153081047225 -0.5654928206593511
0.5787972379861379 1.0726994880340364 -0.4881378551916805
-0.3614727609662091 -0.6699265652611653 -0.3048538014144539
0.6892073880534624 1.2773253979002763 -0.14870778100497772
-0.357121854262109 -0.6618629203650509 -0.07705488858105768
0.6577179734257222 1.2189652732611236 0.24734536586763672
-0.3519983184005461 -0.6523673424062733 0.1323745987905689
0.6255788725681042 1.1594010687811658 0.6453907621786277
-0.34797025222602074 -0.6449020259887058 0.35899036260242684
0.5893312525751486 1.0922224423865683 1.1204118934951224
-0.3408393069618231 -0.6316860656625669 0.6479894144795355
0.5379991082255726 0.9970872873622136 1.8166603702753994
-0.3324487716872638 -0.6161356754695044 1.1225790144205294
0.26608276011736876 0.49313787596101266 1.957373495289283
-0.25693453162610336 -0.4761832338601921 1.8900767641152898
0.0 0.0 1.932
-0.0 -0.0 1.896
0.0 0.0 1.932
-0.0 -0.0 1.896
0.0 0.0 1.932
-0.0 -0.0 1.896
0.25410553286373416 0.5135791872781605 2.0015970614893352
-0.24055811972834756 -0.48619816432529045 1.8948836734848609
0.4972677316641908 1.0050405223750172 1.7979931455458065
-0.3374568183733391 -0.682042600837789 1.2201576891434023
0.5411522216110517 1.0937365866717033 1.1016490148959217
-0.34233473873205184 -0.6919014903519292 0.69690691939888
0.574662321946625 1.1614647069609312 0.6348322221020857
-0.3488594553189487 -0.7050887618141204 0.3853867127937818
0.601137728316063 1.2149748274720285 0.24207147746960608
-0.35404698450568384 -0.7155734096440198 0.14257078302676146
0.62952508236471 1.2723492343059783 -0.14544619841953613
-0.35733378886854567 -0.7222164539508359 -0.08255880919399038
-0.36227538702056516 -0.7322040442806003 -0.3271601771277067
0.5458831399878068 1.1032983667228133 -0.4929709032628853
0.3213871980076373 0.6495638803854026 -0.566724831161877
-0.3615605977585916 -0.730759365433578 -0.6375654350571115
-0.2171302868707755 -0.43884757253344336 -0.6739111563143311
0.1967987594086863 0.3977550027163862 -0.6108078307530852
-0.02536468468315291 -0.056176549487630525 -0.1691177934416956
0.02606925925768491 0.05773700919562028 -0.17381550992618716
-0.02536468468315291 -0.056176549487630525 -0.1691177934416956
0.02606925925768491 0.05773700919562028 -0.17381550992618716
0.18237908160538804 0.40392489129260345 -0.6099988137587103
-0.20124588315077324 -0.4457102248745967 -0.6731021393199561
0.2969371209819855 0.6576428242626028 -0.5642608101568253
-0.35269387295676924 -0.781130341482218 -0.6702137133740458
0.5004442762050734 1.108361211630139 -0.4870225364060179
-0.36138953075572516 -0.8003890887039015 -0.35169719041228464
0.5751666064782833 1.273852828689826 -0.14320386039204502
-0.35615298764135733 -0.7887914312883618 -0.08867427654169337
0.5481079684810932 1.2139245884808458 0.23785236675118157
-0.352036825284605 -0.7796751421950145 0.15276696726295402
0.5214368022486996 1.1548545031057242 0.6207541686666964
-0.34774771857974973 -0.770175823828835 0.4139827588344162
0.49086467929008754 1.087144756275435 1.0768552110326925
-0.3390540099639066 -0.7509213935692176 0.7438141158968816
0.44663551696220494 0.9891880200752396 1.7402944509270641
-0.3360110203182267 -0.7441819185646485 1.3092512617164602
0.2385173837007803 0.5282574483579787 2.0246702264632757
-0.22368083229299224 -0.4953981293955402 1.8987292009805175
-0.0 -0.0 1.896
0.0 0.0 1.933
0.0 0.0 1.934
-0.0 -0.0 1.896
0.0 0.0 1.933
-0.0 -0.0 1.895
0.22043241196289037 0.5381384577781503 2.0313998995806752
-0.2061402962795417 -0.5032473225601631 1.8996905828544317
0.40799311048583164 0.9960276771726208 1.7258697772723783
-0.33979367215486694 -0.8295333751870301 1.4373763041786671
0.4451093027217609 1.0866389002254397 1.0601026408548349
-0.3438202072857094 -0.8393632971400045 0.818865630293684
0.47315534653503877 1.1551073011745552 0.6115154460997222
-0.35095191530764414 -0.8567738327417023 0.4535772841214486
0.4951690911100007 1.2088491372775256 0.23328166347288837
-0.3567307091945448 -0.870881518641533 0.16806124361724284
0.5188598415672878 1.2666850235755798 -0.14024805117398856
-0.3604869248098311 -0.8800515134725683 -0.09743977974006765
0.4644860203374771 1.133943000569266 -0.49074026569156004
-0.36525491599265264 -0.8916915413567407 -0.3859002998392722
0.2738121031067742 0.6684535253902562 -0.5648768154080882
-0.3266635123214953 -0.7974789059726718 -0.6739097448816233
0.16843787728549678 0.4112049526051651 -0.6116168477474602
-0.18603918985898132 -0.45417478230861474 -0.675529190303081
0.026430162597157105 0.07164209058360142 -0.2095181552083229
-0.02121524262283016 -0.05750643145499844 -0.1681782501447973
0.026430162597157105 0.07164209058360142 -0.2095181552083229
-0.021333763531337594 -0.05782769643519396 -0.1691177934416956
-0.16926416142856296 -0.45881058586172974 -0.6731021393199561
0.15420941630150314 0.4180029135615279 -0.6132348817362101
0.24920297612527623 0.6754942245868159 -0.5630287996542995
-0.29718954483211313 -0.8055675107216951 -0.6714457238765716
0.41898650126493914 1.1357126073888668 -0.48479189883469265
-0.36436402794052253 -0.9876519147078027 -0.4215905009804765
0.4679234442456132 1.2683619957162433 -0.13851533542547273
-0.3584314241793111 -0.9715708885508527 -0.10610335848264688
0.4463521429195822 1.2098904249143327 0.23029312671400434
-0.3546966265490729 -0.9614472765922293 0.18300392741166296
0.42334046523090496 1.1475145431393874 0.5991971493437566
-0.3484322037620006 -0.9444668156088494 0.493171809408481
0.39821316484953856 1.0794040151233077 1.0386593510271769
-0.34323405692837683 -0.9303766220675735 0.8952573503047151
0.36228628364213267 0.9820199423471486 1.6783532052334142
-0.334446286112505 -0.9065563269595011 1.5493796525562258
0.2023271628353892 0.5484317727555396 2.0419751001937314
-0.1885148094403181 -0.5109917506041491 1.9025747284761743
-0.0 -0.0 1.896
0.0 0.0 1.934
0.0 0.0 1.934
-0.0 -0.0 1.896
0.0 0.0 1.934
-0.0 -0.0 1.895
0.18465226780405142 0.553472117534737 2.0381295726980744
-0.17219694973991004 -0.5161388567764978 1.900651964728346
0.3300892146545766 0.989401206835535 1.6724136337285438
-0.3337736198917151 -1.0004447515084838 1.691080858458137
0.3603531981017984 1.0801137185353376 1.0279377061133481
-0.34602363807297815 -1.037162651501012 0.9870614348793753
0.3839610139335269 1.150875198879692 0.5943578184753415
-0.350993228873357 -1.052058379434804 0.5433248747720554
0.40220890007454735 1.2055709592032042 0.2269529973952516
-0.3573459398803295 -1.0710998374950236 0.20163833308470455
0.4215557632011056 1.263560765825422 -0.13647684630957174
-0.36268277760095075 -1.087096342218735 -0.11741697307589741
0.3866316784510889 1.1588801823187718 -0.4892531739773432
-0.36959168046464236 -1.1078049159247834 -0.46769034412119886
0.2283608275797448 0.6844830681238632 -0.5642608101568253
-0.27298592379893044 -0.8182412222659718 -0.6745257501328862
0.02325256174994817 0.06969665059033019 -0.10112712429686842
-0.1553271124896536 -0.4655736259434056 -0.675529190303081
0.02217305016661243 0.07521637618838982 -0.21515541498971275
-0.01723494729107869 -0.05846513083639033 -0.167238706847899
0.02226987571319152 0.0755448319796055 -0.21609495828661107
-0.017331772837657782 -0.058793586627606004 -0.1681782501447973
0.12515022919331734 0.4245400000601686 -0.6091897967643354
-0.13844640228158503 -0.4696438513281811 -0.6739111563143311
-0.24345694961000405 -0.8258651547687166 -0.6732937396303603
0.20314065694814573 0.6891024896148854 -0.5617967891517737
-0.3703773661918768 -1.2564100607638384 -0.5245716021899933
0.34124066339435777 1.1575712820644861 -0.4833048071204758
0.3729871395955694 1.2652630465562145 -0.1351518283842361
-0.3611730673006878 -1.2251868414616736 -0.130871001240844
0.3554612069301432 1.2058108225947113 0.22449184947617062
-0.3560179198619061 -1.2076993281900044 0.22484344203603934
0.33696018149192536 1.1430508469136313 0.5837992783987995
-0.3486407906468835 -1.1826743125941337 0.6040364802121716
0.3165047574565934 1.0736610760984586 1.010515033128376
-0.3437896503407831 -1.1662180654172911 1.097628398053236
0.28744049673762406 0.9750680385394123 1.6299881229794686
-0.32215480972207483 -1.0928274268481801 1.8268424928551774
0.16560227099991218 0.5617631593120636 2.045820627689388
-0.1539291785892044 -0.5221651922552921 1.90161334660226
0.0 0.0 1.934
-0.0 -0.0 1.896
0.0 0.0 1.934
-0.0 -0.0 1.896
0.0 0.0 1.934
-0.0 -0.0 1.895
0.145237973857748 0.5656645609469533 2.040052336445903
-0.13524516321532065 -0.5267451330966916 1.8996905828544317
0.25293801773326624 0.9851285373067601 1.63083663319445
-0.29097084141948615 -1.1332566056114703 1.8760560853241046
0.27652274009696876 1.0769849662182949 1.0038140050572328
-0.33910031612692415 -1.3207085333397914 1.2309788566689832
0.29479609696262316 1.1481549923063856 0.5807197042098081
-0.3428121279072933 -1.3351650857502286 0.6753066257288298
0.30944860222541576 1.2052227324854694 0.22220649783702404
-0.3510674806892775 -1.367317562012787 0.25209186542586426
0.3240871165882427 1.2622359817068776 -0.1335210370915153
-0.3587223809564523 -1.3971314301335667 -0.14779046090282227
0.3026636425261134 1.1787970591756243 -0.48739430933457206
-0.3663823041105588 -1.4269648611073344 -0.5900036376155346
0.1790557811193495 0.6973762241484708 -0.5630287996542995
-0.215102021519744 -0.83776706139499 -0.676373765886675
