0.543723403333436 0.2989144704886427 -0.189427417551844
-0.45390402157971566 -0.2495358475124586 -0.1947858670738317
0.5653774233545042 0.3108188687339004 -0.24415202984892853
-0.4702755133716559 -0.2585361512884136 -0.2397069838624817
0.5913869103663159 0.3251177052197913 -0.30326565382601856
-0.49270883711899166 -0.27086897538265814 -0.2894642048526369
0.6217610490623794 0.34181602927430066 -0.3673164909953136
-0.5194961523698761 -0.2855954265615863 -0.343854372591098
0.6608537715865949 0.3633074353488692 -0.43966336871477146
-0.5558472055456525 -0.30557958715707634 -0.40720392630302643
0.7182572209133818 0.39486524866818234 -0.5286507113407711
-0.5957242122683807 -0.32750215711841874 -0.47588286373854777
0.75220860743892 0.4135301813589919 -0.6031620843521266
-0.6582463241924486 -0.3618739790135925 -0.5665024443720246
0.12532104693727708 0.06889582857143667 -0.08060303235360348
0.1292663743181941 0.07106479065351932 -0.09060990336999432
0.11236220079779871 0.061771642619208096 -0.07247441397009798
-0.12860229718683586 -0.07069971116114089 -0.09464305824330442
-0.12993296750173355 -0.07143125335729072 -0.10068373723328572
0.12467291236906647 0.06853951357731593 -0.09355568503977876
0.11151510081553367 0.06594984677845253 -0.08037751932848206
-0.11685821263617434 -0.06910975430052303 -0.08869243512108364
0.11151510081553367 0.06594984677845253 -0.08037751932848206
-0.11685821263617434 -0.06910975430052303 -0.08869243512108364
-0.12894191366758215 -0.07625603516930178 -0.10246575028166247
0.12894191366758245 0.0762560351693013 -0.10246575028166247
-0.12437647831331222 -0.07355604422736566 -0.09208513775024213
0.11209492029696322 0.06629275106387926 -0.07503233446316025
0.126970390147572 0.07509007940982185 -0.09060990336999432
-0.7157586225858331 -0.42329846939722215 -0.6682480373537081
-0.654238684902585 -0.3869156796731507 -0.5733460980624249
0.121193577777592 0.0716736820978716 -0.07832181445680339
-0.5936655756983694 -0.3510928427506371 -0.4829539315504132
0.7371374818847081 0.4359418915413745 -0.6017478707897534
0.7131937240982149 0.42178159266013415 -0.5344957437757428
-0.5527820398222895 -0.32691438703414205 -0.4123995106896679
-0.5162156339655465 -0.30528907489386004 -0.3479688693571453
0.6525310228562843 0.38590577115421765 -0.4420145097239414
-0.48989531531108005 -0.2897232818332997 -0.29312169480564854
0.6064536910999772 0.3586557131166511 -0.3647039981717338
0.568957641803241 0.33648061137856805 -0.29690978682966485
-0.4670047069102558 -0.27618581376252127 -0.24243092686091902
0.5391688331974541 0.3188635590789513 -0.2368810446339918
-0.4500717917974288 -0.26617171568040804 -0.19669928423565716
0.5153660092130845 0.3047866082159432 -0.18262904367559513
-0.4348510973588126 -0.25717022208225526 -0.15327242920997491
0.49583522424990795 0.2932361341871831 -0.13259696667015536
-0.425559249606383 -0.25167503864001345 -0.11322100147011505
0.48141340813872024 0.28470709591484034 -0.08619539023716827
-0.41796271503795046 -0.2471824606198933 -0.07446280535915081
0.47208855802094024 0.279192394928138 -0.042367911693037316
-0.41458826104437413 -0.24518681409121887 -0.03703269318354373
0.46615757066811825 0.275684818785508 -9.141613582030567e-16
-0.41205816444381194 -0.243690519132765 -8.043933902387121e-16
0.46192264403322647 0.2731802901553353 0.04142640254430123
-0.41205816444381194 -0.243690519132765 0.03679731589635848
0.4627695278293608 0.2736811358361961 0.08275383200628135
-0.41458826104437413 -0.24518681409121887 0.07383706749898829
0.4653104843647331 0.2751838533421929 0.12419293357134091
-0.4196503594267351 -0.24818053072916912 0.11158688392312209
0.47124112777548693 0.2786912260780509 0.16656015996809592
-0.4280926236375712 -0.2531732718655364 0.15080029325497366
0.4805654629060904 0.284205622502186 0.21047588780079873
-0.43907715484509324 -0.25966950551256107 0.19172439961490936
0.4924407368291032 0.2912286399226729 0.2560506418531038
-0.4534566763816517 -0.268173530843195 0.23516707886508464
0.5085703571765066 0.3007676708048266 0.3046166632293976
-0.47124112777548594 -0.2786912260780527 0.28162672638189595
0.5298145109581548 0.31333142832817024 0.3573734333938231
-0.4958352242499069 -0.2932361341871849 0.3338620233021243
-0.5213141484431381 -0.3083043279504941 0.38836993290144933
0.5561865621459257 0.32892781592364045 0.41499730288298686
-0.5570377665708945 -0.3294312168172738 0.45254833995939003
0.5859952960206898 0.34655665199448155 0.4765899705197326
-0.5970752220920871 -0.3531093020067369 0.522398898367221
0.627778407628853 0.3712671153158893 0.5497735131288221
-0.654238684902585 -0.3869156796731507 0.60999881375871
0.6764446677977455 0.40004826134855015 0.6310332556124587
0.7422696093909716 0.4389770232877506 0.7307126208514567
-0.7234540577279542 -0.42784953705357426 0.7119545372356667
0.8261513894205884 0.48858456970971914 0.850911230599891
-0.8175875845055375 -0.4835199496012555 0.8420011653580074
0.9392683452600777 0.55548175090852 1.0042570518397684
-0.9469852330554783 -0.5600455056286594 1.0125719676323701
1.1022691434206837 0.6518801542175005 1.2144991713089108
-1.1589260922078664 -0.6853869803255704 1.277268901384391
1.334129317289709 0.789001878798837 1.5042562668552055
-1.455280348015491 -0.8606503986404186 1.641360425631278
-1.6658649623920805 -0.9851897924128282 1.9092015623704008
1.6039707694038792 0.9485856687183968 1.8380880018475512
1.6392153397747318 0.9694292495315017 1.8961367687604094
-1.6589875376948529 -0.9811224947850137 1.919065867436271
0.08263123459237856 0.0488679759120357 2.044
-0.08263123459237838 -0.04886797591203601 2.0069999999999997
0.08105548084819342 0.05143937231798372 2.044
-0.08105548084819324 -0.05143937231798402 2.0069999999999997
0.08105548084819342 0.05143937231798372 2.044
-0.08105548084819324 -0.05143937231798402 2.0069999999999997
1.6180751119081864 1.0268616908928434 1.9080997767652068
-1.6265078457793591 -1.0322132665385522 1.918068950102538
1.5396562229491026 0.9770955506674371 1.7985804682237456
-1.638313855691266 -1.0397055882556456 1.9141400040733767
1.2303257281544278 0.7807884493518565 1.4138258642582218
-1.4604054345700246 -0.926801471016494 1.6792828525267873
1.0189554957694813 0.6466488209539782 1.1441209891030695
-1.1620924817069902 -0.7374863144222328 1.3058005968732456
0.8700642572473071 0.5521595677525577 0.9479004003565799
-0.9465910205745108 -0.6007249285385999 1.031973437815107
0.7700830768098266 0.488709581255689 0.8081429174388494
-0.8187982971216847 -0.519625200149713 0.8598212958417747
0.6937231717030273 0.4402501119162742 0.695754374112939
-0.7197245576376651 -0.456751093193292 0.7221862192079158
-0.6526523789915212 -0.4141857942961201 0.6205160346855844
0.6300383805817297 0.3998345145106304 0.5986725758374608
-0.5957252594900799 -0.3780587457069034 0.5315237699544214
0.582344544876125 0.36956708599795357 0.5193572745048208
0.5472502183867138 0.3472955491734584 0.45325544674057655
-0.555601778027946 -0.3525956100863781 0.46032651455244206
0.5188771223271087 0.3292894348829592 0.394214965336421
-0.5188771223271076 -0.3292894348829611 0.394214965336421
0.49887206755932134 0.3165938410788937 0.3426788020865113
-0.49304124177869485 -0.3128934865178927 0.33856430532046405
0.4805531533408738 0.30496830460581104 0.2931216948056468
-0.46890616225474974 -0.29757689930423437 0.2858067148996235
0.4680745673689592 0.2970491531419703 0.24787881285779192
-0.4514525961959459 -0.2865005294723558 0.23879900286300101
0.46059229828580067 0.29230076079237993 0.20550100318005257
-0.4365101883401524 -0.2770177890952939 0.194403183641465
0.4547754308181635 0.2886092644461606 0.1637790070187214
-0.42572969879184713 -0.2701762823909663 0.15296341221559828
0.4506220141031098 0.2859734260480451 0.12255881602434958
-0.41661573162563703 -0.26439238295010553 0.11298755610625752
0.44979148319628887 0.2854463551073697 0.08197165968108021
-0.4124755801178076 -0.2617649629084805 0.0749321087542699
0.4522832291928032 0.2870276652013361 0.041347943448573385
-0.4091646579376275 -0.2596637878002712 0.03726807047072554
0.4580990622215861 0.29071850507269636 -9.158764827024995e-16
-0.4091646579376275 -0.2596637878002712 -8.146841372353694e-16
0.4664115148555323 0.29599374792412025 -0.042681748075948704
-0.4116477484482431 -0.26123960495585663 -0.037503447757910806
0.4772245705010565 0.30285592170218867 -0.08713399702740966
-0.41495947397584854 -0.26334128988384464 -0.07540141214939221
0.4913756403296552 0.3118364636963122 -0.1339976388532908
-0.42241465371176523 -0.2680724908109175 -0.11462167365325047
0.5113728384123953 0.3245270714964319 -0.18479216263621975
-0.4315333512850579 -0.2738593922593981 -0.15512653117622463
0.536397484182981 0.34040819461665217 -0.2403251955252776
-0.44646987714192843 -0.2833383998064354 -0.19899538482984772
0.5656272444662787 0.3589579645550223 -0.3009957013273208
-0.4630859657619936 -0.29388329029443255 -0.2451548698593563
-0.4863797899342403 -0.30866600062774074 -0.2967791847586602
0.6024177682723896 0.3823059409291378 -0.36940648525417735
-0.5113728384123942 -0.3245270714964338 -0.35149558087090016
0.6476259379694113 0.41099591782551836 -0.44730457699457365
0.7037867048259053 0.4466366242375273 -0.5377429840173937
-0.5472502183867126 -0.34729554917346045 -0.41629619897964903
-0.5873616232876144 -0.3727510207751799 -0.48719657223753254
0.7255975577956886 0.46047821242804987 -0.6038691911333132
-0.6476259379694098 -0.41099591782552075 -0.578668939821625
0.10551059050417677 0.06695905682922902 -0.060832477248002635
-0.7096579980922205 -0.45036266024587557 -0.6755291903030826
0.12519136896179806 0.07944885862912665 -0.09141892036436927
0.1099573025881947 0.06978102612836955 -0.07503233446316025
-0.12843779195940658 -0.0815091013114008 -0.10513876985422757
-0.11645400220038296 -0.0791420581708184 -0.09515959184866266
-0.11706039261718568 -0.07955416067252762 -0.09608347138117394
-0.12581415291834872 -0.0855032100300238 -0.10513876985422757
0.11170487895683247 0.07591455734731914 -0.08100081561363892
-0.6984483657106973 -0.4746650191830614 -0.6787652582805824
-0.6442448027414193 -0.4378283158278708 -0.5877938114088255
0.6877671056342519 0.46740604233095207 -0.6280953275856272
-0.5835561928571339 -0.39658437914028805 -0.49426764004939805
0.708309891592775 0.48136690525194104 -0.6017478707897534
-0.5434341079591966 -0.3693174384003447 -0.4221412314146207
0.6976266531078926 0.4741065838748498 -0.5442374645006955
-0.5074609463334344 -0.3448701030045591 -0.35619786288924
0.6467072005610383 0.43950175965803034 -0.4561213557789608
-0.48215392568603604 -0.3276714695324334 -0.30043667471167185
0.599128399333464 0.40716723973340657 -0.37515396946605284
0.5647161771479434 0.3837807176857803 -0.30689757782393495
-0.45851306144192083 -0.3116051547827113 -0.24787881285779362
0.5336176188529214 0.3626461592926888 -0.24415202984892853
-0.443858012867395 -0.3016455940560171 -0.20205685228876843
0.5090947998758042 0.3459804687253528 -0.18788233257996925
-0.42840618174323714 -0.2911445404677554 -0.15728965013684928
0.48949756042189163 0.33266219854533585 -0.13633209249184985
-0.41946930605322663 -0.2850710460205044 -0.11625579120024182
0.4739979937765075 0.3221287039303484 -0.08838547274773154
-0.4121625571543666 -0.2801053845965363 -0.07649645340467383
0.46340137007715765 0.3149272459007209 -0.04330942084177148
-0.40810539146845526 -0.2773481376436102 -0.03797420233227789
0.4544406991466795 0.30883758022474705 -9.278823541985997e-16
-0.40648296671290873 -0.2762455389183187 -8.266900087314696e-16
0.44955538366797115 0.30551752325381143 0.04197561621439613
-0.40567185045996235 -0.27569430488203783 0.0377388250450926
0.44629945265318555 0.3033047948210957 0.08306670093636181
-0.40810539146845526 -0.2773481376436102 0.07571428107947104
0.44629945265318555 0.3033047948210957 0.12395948820748501
-0.412974176539606 -0.2806569605611704 0.11438822828939293
0.44955538366797115 0.30551752325381143 0.1653240919905961
-0.42190595322058855 -0.28672698972546434 0.15481751418184794
0.4544406991466795 0.30883758022474705 0.20703173690951293
-0.43247061761385663 -0.29390672823310704 0.19669928423565552
0.4642162412117279 0.3154810317519183 0.25105674635596875
-0.4471133632964733 -0.30385792792309363 0.2415229458614383
0.4748134081286008 0.32268285895179327 0.29573418762922654
-0.4642162412117269 -0.3154810317519198 0.2889417062879192
0.49031370617190345 0.3332168506242928 0.34385437259109625
-0.48868145144100866 -0.33210757145465536 0.3426788020865113
0.5099117757523293 0.3465356849577056 0.39551386143308137
-0.5131800029791243 -0.3487567698874762 0.3981116536264021
0.5336176188529214 0.3626461592926888 0.45113412639701694
-0.549162194128168 -0.3732102417409474 0.4645691552395613
0.5655350537256542 0.38433722563332506 0.5147948387112207
-0.5892924424339235 -0.40048273032711507 0.5368466117136215
-0.6458863852620569 -0.43894393415687377 0.626988170640584
0.6024077004816675 0.40939585049239263 0.5841102699387117
0.6557372080144978 0.4456385463863637 0.6710278093466703
-0.7107755490108375 -0.48304256430292186 0.7281547003583945
0.7198172091962077 0.48918727021968067 0.7707206434229379
-0.8086568572380214 -0.5495626326834152 0.8669493480352817
0.8037185003852105 0.5462065288318587 0.8933915079384142
-0.9354954050807438 -0.6357620207851481 1.04121223314022
-1.1474299584429348 -0.7797925945196228 1.3162622185524921
0.9289028054354609 0.6312816946927341 1.0642322417342767
1.1210283177128204 0.7618500580074554 1.3146441323776585
-1.430573274927153 -0.972216593699264 1.6792828525267873
1.4148832356312395 0.9615536540046392 1.6869716857364951
-1.6056735731806921 -1.0912146335112756 1.9151276924139717
-1.593282660110313 -1.0827937776842849 1.918068950102538
1.5841961426889744 1.0766185868214304 1.9071028594314736
0.07939973513035789 0.05396000427380459 2.045
-0.07939973513035772 -0.05396000427380486 2.0069999999999997
0.07766563145999492 0.056427384220077474 2.044
-0.07766563145999471 -0.05642738422007775 2.0069999999999997
0.07766563145999492 0.056427384220077474 2.044
-0.07766563145999471 -0.05642738422007775 2.0069999999999997
1.558485096815088 1.1323057020987153 1.918068950102538
-1.558485096815084 -1.1323057020987208 1.918068950102538
1.3250209159496549 0.9626840459340424 1.61487043687305
-1.5714134180173085 -1.1416986772678506 1.916115380754567
1.063461070798847 0.7726496948134836 1.274776965641354
-1.4324490633256752 -1.0407351637075566 1.719150019263092
0.9078093572709165 0.6595621053785345 1.0632811852179813
-1.1506192830017137 -0.8359738426437884 1.3495491966228226
0.7934110136158522 0.576446843579758 0.9017064237310157
-0.9352180467471526 -0.6794756839199181 1.064309221453002
0.7137460446428993 0.51856685562868 0.7814127217131983
-0.8095151954447827 -0.5881472165572115 0.8874424980916141
0.6526601386740726 0.4741853470805908 0.6829647716476276
-0.70972511540418 -0.5156454795346541 0.7435022233167681
-0.6438250565213967 -0.4677662841582541 0.6391234255562082
0.5996780829771773 0.43569163039564757 0.5946274908655861
0.561996103547691 0.4083140698007026 0.523159304332821
-0.5868452245052449 -0.426368012959918 0.5467318892664219
0.5315654149507727 0.3862048803785536 0.4596194077712555
-0.5467763965459745 -0.39725630540017765 0.4730544366137999
0.507567745851669 0.3687695532050546 0.4026577899647134
-0.5107659453320551 -0.3710931811406026 0.40525558215803414
0.4875903208912938 0.35425510437130625 0.34973222511402097
-0.48519441079673314 -0.3525143737943332 0.34796886935714355
0.47242159293680774 0.34323437841662835 0.30095917327638605
-0.4620507051775755 -0.33569948740637845 0.2941666919350787
0.46125321906276173 0.3351200798284699 0.2551426608536247
-0.4445156372675831 -0.32295951483830676 0.2456088603590942
0.4524835738064906 0.32874855959426846 0.21085857123316382
-0.4293891517699419 -0.311969479825014 0.19976075169457624
0.44690555706295687 0.3246958932081652 0.16810524493997064
-0.41904971813605424 -0.3044574415745055 0.1572896501368475
0.44371908691191875 0.32238078712921636 0.12606049648218814
-0.4103080253255607 -0.2981062299809232 0.11625579120024017
0.4429225817470607 0.3218020922531711 0.08431817665668365
-0.4055427168292723 -0.29464403069930434 0.07696575679979287
-0.40316085706085686 -0.2929135082818055 0.03836649781091534
0.4453122325715526 0.32353827520424755 0.042524829884491036
0.45168658460185684 0.3281695130427409 -9.433184746935857e-16
-0.40316085706085686 -0.2929135082818055 -8.386958802275698e-16
0.460455773178509 0.3345407014797775 -0.0440155527033221
-0.4047487039145796 -0.29406714654899463 -0.038523416002372815
0.4708256491838775 0.34207485740782007 -0.08979338293309364
-0.40871935696043593 -0.2969519948507633 -0.07759149465995546
0.4851944107967344 0.3525143737943315 -0.1381996554026971
-0.4150753916238013 -0.30156992434317453 -0.11765646338337726
0.5051694127675206 0.3670270622230986 -0.1906634855293438
-0.4254114150029607 -0.30907948489859155 -0.15976178609184888
0.529964797239485 0.3850419635402245 -0.24797886417257944
-0.43894074239476766 -0.31890911662404725 -0.204352952882959
-0.45567195454213566 -0.3310650537941901 -0.25196472735544956
0.5603936393754981 0.40714981142999956 -0.31143748282133044
-0.4780085657293513 -0.3472935517532227 -0.3046166632293994
0.5948651952870394 0.43219486280624897 -0.38090145367792827
-0.5027713553055375 -0.36528477149237 -0.3609001449075798
0.6406127393663912 0.4654323991316979 -0.46199920830188557
-0.5379689278075039 -0.3908573047976009 -0.4273368158012622
0.6952520905720879 0.5051302114852576 -0.5546286332739785
-0.5788272075367347 -0.42054258264202665 -0.5013387078612634
0.6936442073948684 0.5039620159769432 -0.60245497757094
-0.6374006624911446 -0.46309868867861215 -0.5946374650992258
0.659890123668161 0.4794382386556367 -0.6159288321360267
-0.6856055079344804 -0.49812155894912136 -0.6811923092637072
0.11273238882366136 0.08190487476402633 -0.08171071643186988
0.11214738196656435 0.0814798424031706 -0.08526401643540939
0.11450377380531813 0.08319186128666999 -0.09266467851559039
-0.12181550249551291 -0.08850414313333409 -0.10335675680585084
-0.10896406651785231 -0.08452119383854591 -0.0914640737186175
-0.10953270030397247 -0.08496227141572989 -0.09238795325112881
25.763115849308512 19.983921105106194 -30.123092157530547
0.11067812698581059 0.08585075542424067 -0.09088266546721367
-0.11300045480504811 -0.08765213753156437 -0.09444669156396714
0.1089640665178526 0.08452119383854555 -0.0844113762710553
-0.668050713038923 -0.5181932504463815 -0.6795742752749573
0.10953270030397276 0.08496227141572951 -0.08090169943749492
-0.6358745153943649 -0.4932348331900148 -0.6075643665144264
0.6445049887196266 0.499929314519077 -0.6159288321360267
-0.5762960792977445 -0.4470210610094873 -0.5112382027978751
0.6774721063824795 0.5255012322285139 -0.60245497757094
-0.5340284732996441 -0.4142349450556428 -0.43448074433289424
0.693963508051819 0.5382932746119099 -0.5669681461922521
-0.4996385759596028 -0.3875594063018729 -0.367365782682797
0.6390126772815206 0.4956690410682348 -0.47199155759085765
-0.4746622357696799 -0.3681857709555446 -0.30984164887655896
0.5927489904596193 0.4597832470948699 -0.38873893214866756
-0.45283603833523983 -0.35125563680152566 -0.25650463235284504
0.5559373667032024 0.4312292247785501 -0.31643137831846546
0.5269901521134533 0.4087754635193253 -0.2525710653609605
-0.4364860916731067 -0.33857331816895486 -0.2081797872066099
0.5035439117970952 0.3905886952947809 -0.19468070645621816
-0.42093241765055717 -0.3265086519081185 -0.1619249050524735
0.48324423218288104 0.37484264973716336 -0.141000999768968
-0.4123859811604881 -0.3198793562302851 -0.11975747165808044
0.46842332490766475 0.36334637562861194 -0.09151416204853617
-0.40539803673561187 -0.31445895091555515 -0.07884297038027732
0.4575106695483873 0.3548816524552747 -0.04480014366060057
-0.40151771853434143 -0.31144906759047675 -0.03915108876819559
0.44894157449216565 0.348234780991927 -9.604697196880144e-16
-0.3999659775148462 -0.31024541387519905 -8.524168762231128e-16
0.44271250794324235 0.3434030216969627 0.04330942084176947
-0.3999659775148462 -0.31024541387519905 0.03899417057673809
0.44037728522341235 0.34159163727945296 0.08588252130708594
-0.4022936724529252 -0.3120509591466408 0.0782172325201147
0.44037728522341235 0.34159163727945296 0.12816150475689128
-0.40772687721436024 -0.31626538475942323 0.1183567994749433
0.44271250794324235 0.3434030216969627 0.1705773808949702
-0.41549307891378645 -0.32228946829634686 0.1597617860918471
0.44816280001316033 0.3476307015848342 0.21392003869208454
-0.42559659027341656 -0.3301265550476691 0.20282221915349694
0.4559523070226159 0.35367286257324626 0.2583205943518015
-0.4403772852234112 -0.34159163727945446 0.24924078435701058
0.46686394327399394 0.36213679524546644 0.3046166632293976
-0.4575106695483861 -0.35488165245527625 0.29834668045280627
0.48246388838038257 0.37423735303799077 0.35443450713236074
-0.48090329689758887 -0.3730268341996718 0.3532589366277758
0.5019816921261844 0.3893769135042967 0.4078533743513548
-0.5051062440175548 -0.3918005643876467 0.41045116654467556
0.5246444830096535 0.40695597605580563 0.4645691552395613
-0.5418510682228465 -0.4203027716608116 0.4801255044256654
0.5535891655797839 0.4294077732792907 0.5277217401264213
-0.5802127140796234 -0.450059114362055 0.5535755429568222
0.5927489904596193 0.4597832470948699 0.6019086438149606
-0.6374435685984149 -0.49445191561214313 0.6480226124943326
0.6421510594581057 0.49810341982045514 0.6880806126337522
-0.7010327231245834 -0.5437767199030602 0.752028624960309
0.704960431455169 0.5468233627804705 0.7903227869550821
-0.8008668350652264 -0.6212159950392512 0.8990255829060628
0.7835633046185896 0.6077940010029675 0.9118690985886398
-0.9236506531442014 -0.716456887011556 1.0763196553756487
0.8913677021540815 0.6914156633722961 1.0689875243157523
-1.1340417490501922 -0.8796529494131085 1.3619129313346596
1.0394548501815768 0.8062838299469954 1.2757493355617515
-1.404574936012468 -1.0894999995987018 1.7259566087058757
1.255479484781618 0.9738497128882271 1.5664737081838882
-1.5355655881117247 -1.1911067645711244 1.917103069095162
1.5221494968874891 1.1807001774901038 1.918068950102538
-1.5229386706504873 -1.1813123234087277 1.919065867436271
0.07585488118806624 0.058839077150685794 2.045
-0.07585488118806603 -0.05883907715068605 2.006
0.07396927130647572 0.06119270301587427 2.046
-0.0739692713064755 -0.06119270301587454 2.0069999999999997
0.07396927130647572 0.06119270301587427 2.045
-0.0739692713064755 -0.06119270301587454 2.0069999999999997
1.4935464609225777 1.2355690871277267 1.9300319581073357
-1.4835421637856916 -1.2272928127672171 1.917072032768805
-1.498163884609502 -1.239388952206597 1.9180907574357573
1.253497883550678 1.0369836333973506 1.6040058651265034
1.0389767535449626 0.8595163207253077 1.307837542934875
-1.4089002672770747 -1.1655436657914569 1.7755474746461573
0.8907079763612745 0.7368577208975985 1.0956171067720166
-1.1366049754726835 -0.940281409861293 1.399955191986466
0.7794247047885895 0.6447961922694798 0.9303466892388655
-0.9237296974647098 -0.7641756643742034 1.1040360413509873
0.7019929611237241 0.5807390830078045 0.8072519109146611
-0.8024387712093518 -0.6638350837821285 0.9239737655833371
0.6414933441971636 0.5306894471823794 0.705133415920834
-0.7004605322841904 -0.5794713476196633 0.7707867085760991
0.5917722290803847 0.4895565635238003 0.6164709497137096
-0.636136031884163 -0.526257493000025 0.6633939353874566
-0.5787785501913314 -0.4788072575039152 0.5665024443720227
0.5520424924215006 0.45668926696503115 0.5398882355760216
0.523041733402365 0.43269775261659194 0.47517575695735953
-0.5398279786316322 -0.44658454237298234 0.4907321061434636
0.5001693404938632 0.41377606362612857 0.41694564702797743
-0.5032177097802077 -0.41629789401768863 0.41954343922129816
0.48036541835495516 0.39739283442038675 0.3620757154121629
-0.4788428303048813 -0.3961332400412906 0.36090014490757794
0.46438431072304365 0.3841721124109396 0.310886646005989
-0.4552585824717895 -0.37662265344211143 0.3046166632293976
0.4544983248577251 0.3759937136462812 0.26422247084841555
-0.4393006772810811 -0.36342112616134964 0.2551426608536247
0.44537798289998776 0.3684487106069694 0.2181295564481005
-0.4233596914737419 -0.3502335958117925 0.20703173690951293
0.44081977770948655 0.3646778353288816 0.17428558482746956
-0.4135007972185098 -0.34207760917612967 0.1631609730299715
0.4385411844416415 0.36279281904211164 0.13096284912316214
-0.4044071620851666 -0.3345546999434051 0.12045780774964644
0.4377817301174782 0.36216454378548385 0.08760330042252847
-0.39986296785209224 -0.33079541553733277 0.079781577170517
0.44006020843638216 0.36404946497821966 0.044172470894775745
-0.3975915528077563 -0.32891633759349376 0.03977876153401652
0.4461378135644108 0.3690772971993362 -9.793360891818863e-16
-0.3968345174354736 -0.32829006346789547 -8.678529967180988e-16
0.4544983248577251 0.3759937136462812 -0.04566319371360688
-0.3983486398636691 -0.32954265447550934 -0.03985722062974621
0.46514500278789644 0.38480141161571624 -0.09323494116397874
-0.4021348401801505 -0.33267487177916655 -0.08025088056563942
0.4796041096072923 0.39676302505122174 -0.14356889877138299
-0.4097109528634415 -0.3389423772615795 -0.12209192529663951
0.5001693404938632 0.41377606362612857 -0.19838891038871756
-0.41880850215970933 -0.3464685245714836 -0.16532409199059797
0.523041733402365 0.43269775261659194 -0.25716326654934163
-0.43322582433565276 -0.35839557074368855 -0.21200662153026084
-0.4484175243005482 -0.37096323793627767 -0.260590546850501
0.5535696610800518 0.45795265075301894 -0.32324123581455866
-0.4704707422414382 -0.389207246457193 -0.31506663452371847
0.5887144740147185 0.48702696854031935 -0.39605391205469087
0.63384022927183 0.5243582399053477 -0.4802205511229523
-0.5009313941695868 -0.4144064892533829 -0.37794591722406157
-0.5299075636508732 -0.43837766136699524 -0.44227412091285645
0.6882024838388433 0.5693306080284519 -0.5767098669172048
-0.5719014839904885 -0.47311805356536224 -0.5204305909533004
0.661397095971711 0.5471552626450624 -0.6031620843521266
-0.6277186536763887 -0.5192940321500932 -0.6151684261704267
0.628483805159256 0.5199270205062847 -0.6159288321360267
0.10086662874324574 0.08344413224410828 -0.07200251249937048
-0.652975310601086 -0.5401881558729469 -0.6811923092637072
-0.6215979186800468 -0.5142305197988876 -0.6829647716476293
0.10460834668047299 0.08653955052331838 -0.08185345577799301
0.1084892496094935 0.08975011264153945 -0.09177367199140203
0.09718209280874955 0.08567753986495873 -0.08037751932848206
-0.09718209280874923 -0.0856775398649591 -0.08037751932848206
0.09768738823730157 0.08612301770940632 -0.08130139886099333
-0.09768738823730125 -0.0861230177094067 -0.08130139886099333
0.10506911544914523 0.09263088566312098 -0.09088266546721367
-0.602904542837092 -0.5315318543854142 -0.6804068511545669
0.10237023853429066 0.09025150559648538 -0.08270609594234711
0.22274257399069392 0.1963739945410294 -0.22733377541936076
-0.6341948441462982 -0.5591179657802569 -0.6795742752749573
-0.6140771340541379 -0.5413818185272354 -0.6182100500328268
0.6110974926789207 0.5387549112922652 -0.6151684261704267
-0.5679173091850717 -0.5006864587024377 -0.5310371926710986
0.6409026412673423 0.5650316844359653 -0.6003336572273804
-0.5255340466427944 -0.4633205864401552 -0.4507169455411489
0.6804214470610768 0.5998721983717117 -0.5858021395938274
-0.49137714496459356 -0.43320722686313173 -0.380884843485524
0.6327043473659947 0.5578039161068795 -0.4925640414210942
-0.46616370450804806 -0.41097858897919887 -0.3208141187355939
0.5857791155760368 0.5164337593099003 -0.40493638765486206
-0.4446842907822748 -0.39204193848549584 -0.26558444234763595
0.5508083512156801 0.4856028832606578 -0.33050508381039145
-0.4291474521329449 -0.37834437266569954 -0.21583345585391175
0.520333293184589 0.45873550549710074 -0.26290351803481804
0.49657182844501635 0.43778695640091114 -0.2024061313155919
-0.41510430904771595 -0.365963676626545 -0.16841426193434747
0.4758004833217539 0.4194745523518505 -0.14637024313765387
-0.4055042442298414 -0.35750008099521496 -0.12419293357134267
0.4617175844240952 0.40705880684930346 -0.09511215474446152
-0.3988623478871732 -0.3516444616909695 -0.08181522521604175
0.44986656768891387 0.39661073015716025 -0.046447784670885346
-0.39517400322100804 -0.3483927484582347 -0.04064181158702468
0.4432039364127228 0.39073683055000974 -9.999175831752006e-16
-0.39296156170331636 -0.3464422188817215 -8.832891172130847e-16
0.4365440204277003 0.38486532479403707 0.04503552094778202
-0.39369899448463386 -0.3470923533323491 0.04048489339556711
0.43432467342131703 0.382908707210304 0.089324079537971
-0.39664920108095136 -0.34969331031897516 0.08134592182091929
0.4335849620694717 0.3822565639295351 0.13306385739786528
-0.40107590853238956 -0.3535959779111158 0.12279226138820548
0.4365440204277003 0.38486532479403707 0.17737575477121903
-0.40919572963939327 -0.36075456316571336 0.16594212597934602
0.44172371610302297 0.38943184080418475 0.22233907420411644
-0.4195374632401034 -0.3698720277853666 0.21085857123316382
0.449126144993309 0.39595795974250736 0.26830838534607143
-0.43506442038566484 -0.38356088188772014 0.2596825658510201
0.4594949226574231 0.40509926691127046 0.3161116316531485
-0.451347509065033 -0.3979163556085499 0.31036414744127305
0.47505902649922 0.41882087023167003 0.36795356793508766
-0.473576194625986 -0.41751357808288136 0.36677799743050266
0.49360329253273505 0.4351698399485461 0.42279067946294907
-0.4980562398039618 -0.4390956410536759 0.42668736775293015
0.5158763111500387 0.4548061472696125 0.48153971798803846
-0.5344518999336523 -0.47118273170534297 0.4992173875177021
-0.5716377900641855 -0.5039665038179961 0.574866909993623
0.5463466300828909 0.48166934695605107 0.549013107163222
0.5828015458857869 0.5138086785109189 0.6237521026630841
-0.6282331348119657 -0.5538620119888441 0.6731021393199559
0.6334495900165797 0.5584609358834572 0.715365097893083
-0.6916109486261677 -0.6097370709907776 0.7818710307127023
0.6916109486261699 0.6097370709907749 0.8170529826807331
-0.7916486866688034 -0.6979322007871244 0.9364478569219743
0.7684945566758519 0.6775190892953388 0.9423571231615122
-0.910486534316135 -0.802701856749437 1.1178942343386569
0.8731035076566391 0.7697442854076105 1.1032255589023778
-1.1199828978418866 -0.9873977458662189 1.4170742092797786
1.0159553175005598 0.895685096918742 1.313671762457261
-1.3820816304827666 -1.2184688615972494 1.7891606535317248
1.2240509544805187 1.0791460794699348 1.6089443068294793
-1.459243680089261 -1.2864963591551861 1.9190784457763523
1.4562468989340613 1.2838543411715087 1.9330227101085349
-1.4450091050043992 -1.273946893105982 1.918068950102538
0.07201066268452405 0.06348593907107064 2.045
-0.07201066268452383 -0.06348593907107092 2.0069999999999997
0.06998098823245545 0.06571652216915418 2.046
-0.06998098823245524 -0.0657165221691544 2.0069999999999997
0.06998098823245545 0.06571652216915418 2.046
-0.06998098823245524 -0.0657165221691544 2.0069999999999997
1.422482303528333 1.3357997964323574 1.9429918834458662
-1.4042804413024301 -1.3187071100799646 1.918068950102538
1.2208429156070435 1.1464478075394855 1.6514149054750702
-1.4188418851725308 -1.3323812160489423 1.9200661341169476
1.014952891851832 0.9531042059090933 1.3506218194323727
-1.379526855889115 -1.2954619461337693 1.8377791495516087
0.8731973151950456 0.8199868588801675 1.1355614804564131
-1.1211530380162023 -1.0528327812843976 1.4598717525130604
0.7642539908700777 0.7176822677474752 0.9645302319417831
-0.9117136338814746 -0.8561560896207163 1.1520777770415742
0.6902451463065824 0.648183336719022 0.8393281457854423
-0.7903902641755411 -0.7422258620504394 0.9622870461234369
0.6315313167832499 0.5930473808407002 0.734123181508873
-0.6887947373797496 -0.6468213120777344 0.8014817544928464
0.580845294582646 0.5454500378230799 0.6399324425505831
-0.6264602173997231 -0.5882853015463598 0.6909005131962047
-0.569991939116713 -0.5352580586427163 0.5900750293056237
0.5432342490785396 0.510130915185578 0.5619400085784225
0.5136100026794362 0.48231189612908115 0.4935605332682098
-0.5316700588292594 -0.49927141771234196 0.5112382027978734
0.4912323731549348 0.4612979032735473 0.433181848236232
-0.49628364041023804 -0.4660413589598692 0.4377279845745433
0.4724802159258657 0.443688455516534 0.37677034671947474
-0.47103840881222603 -0.4423345085154969 0.3755947762148898
0.4573463420292381 0.4294768019724409 0.3239491101238877
-0.44870372855552654 -0.42136084770700805 0.3176791273472963
0.44726368992902193 0.4200085614259259 0.27511824284216463
-0.4321505310501762 -0.40581636057834175 0.2655844423476342
-0.4170516098327496 -0.3916375297847641 0.21583345585390998
0.43862594153596657 0.41189717577532237 0.2273139588248626
0.43358928950775383 0.4071674447007781 0.1813929756980933
-0.40627626241551096 -0.3815188050380779 0.16965032991184537
0.43143120010991964 0.4051408638630698 0.13633209249184788
-0.398379854261371 -0.3741035842098935 0.12559360575447634
0.43143120010991964 0.4051408638630698 0.09135772758349396
-0.39407480344932244 -0.3700608724066595 0.08322313540140204
0.43358928950775383 0.4071674447007781 0.046055489192243976
-0.39120561705095697 -0.3673665270377529 0.04142640254430123
0.43862594153596657 0.41189717577532237 -1.0187839526690725e-15
-0.39120561705095697 -0.3673665270377529 -9.055857357058421e-16
0.44654371417516253 0.41933245919037887 -0.047467752915347355
-0.39192284904275637 -0.3680400527092245 -0.041504861640031
0.4587871645902708 0.43082982441704265 -0.09730223725502479
-0.39550965273611255 -0.37140828557338307 -0.08353600433148431
0.4724802159258657 0.443688455516534 -0.14963847823163656
-0.40268638704046517 -0.37814768767281487 -0.12699427793761356
0.4926754840354047 0.46265307459313376 -0.20673236923684118
-0.4113037122815654 -0.38623989470716685 -0.1718134488724719
-0.42567773305361944 -0.3997379986720447 -0.22042565704229286
0.5179433673458044 0.48638119641130173 -0.2694091363850246
-0.44150471026577953 -0.4146005195524122 -0.2714863188442501
0.5468489235822629 0.513525320482759 -0.33776893180622425
-0.4623896904019479 -0.43421282133303113 -0.3276066000769013
0.5830163297018204 0.5474887755023097 -0.41486386038446516
-0.48618218176674655 -0.4565554578937002 -0.3879382665130337
0.6264602173997251 0.5882853015463578 -0.5019686054577739
0.6612432590503696 0.6209487517987663 -0.5858021395938274
-0.5287796928751951 -0.4965571834167887 -0.46695314674940347
-0.56348143242318 -0.5291442859129457 -0.5423509011700833
0.6250114265821016 0.586924796410755 -0.60245497757094
0.5945971481983259 0.5583638879390557 -0.6159288321360267
-0.6069052375202987 -0.5699219531395767 -0.6288557335512273
0.5743329117735746 0.5393345033035506 -0.6326512896012103
-0.6177681180327924 -0.5801228769340352 -0.6811923092637072
-0.5873587532023072 -0.5515665825960011 -0.6821121314832751
0.09948485670249879 0.09342249882594282 -0.08270609594234711
0.10157805746739956 0.09538814518140963 -0.0899916589430253
0.09256619253269513 0.0925661925326953 -0.08222527839350463
-0.09599999999999957 -0.0960000000000004 -0.08869243512108364
0.09256619253269513 0.0925661925326953 -0.08222527839350463
-0.09599999999999957 -0.0960000000000004 -0.08869243512108364
0.09751153777886995 0.09751153777887012 -0.08820964589464855
-0.5683396871590064 -0.5683396871590113 -0.6804068511545669
0.09650129532809384 0.09650129532809401 -0.08270609594234711
0.5521960702504134 0.5521960702504144 -0.6269881706405857
-0.5978360979398926 -0.5978360979398978 -0.6795742752749573
0.5760629305900523 0.5760629305900533 -0.6151684261704267
-0.6041593332888244 -0.6041593332888296 -0.6455846647944279
-0.5599160651383359 -0.5599160651383408 -0.5557859300126278
0.6041593332888265 0.6041593332888275 -0.6003336572273804
-0.5185291698641433 -0.5185291698641479 -0.47214873113604494
0.6393031362350722 0.6393031362350733 -0.5838537954488369
0.6259456845445931 0.6259456845445942 -0.5172510220173783
-0.48280016570005235 -0.4828001657000565 -0.3973428305497133
-0.4590098038168664 -0.4590098038168704 -0.3354440785476406
0.5795739814725981 0.5795739814725991 -0.42531383167878417
-0.43804109396265356 -0.4380410939626574 -0.2778421858406038
0.5437761487965426 0.5437761487965435 -0.34639475130127567
-0.4219816346714611 -0.42198163467146477 -0.22540054166303902
0.5136224294167843 0.5136224294167852 -0.27553207130286606
0.4905022935726189 0.4905022935726197 -0.21229467513559028
-0.408727292947264 -0.40872729294726756 -0.17613968679372122
0.4702020842148614 0.47020208421486226 -0.153607049417187
-0.3989686704491954 -0.3989686704491988 -0.12979562230388444
0.454814247797933 0.4548142477979338 -0.09949231976558805
-0.39269899414182197 -0.39269899414182535 -0.08556965237700734
0.44293171031209727 0.44293171031209805 -0.04856618025553722
-0.3885209132080263 -0.3885209132080296 -0.04244637078876516
0.43454861638256276 0.4345486163825635 -1.0410805711618298e-15
-0.3871285316274154 -0.3871285316274187 -9.24452105199714e-16
0.4296603309592354 0.4296603309592361 0.04707545743670594
-0.3871285316274154 -0.3871285316274187 0.04228945259730751
0.42756578441217635 0.4275657844121771 0.09339137562901695
-0.3906097797034768 -0.3906097797034802 0.0851003489818848
0.42756578441217635 0.4275657844121771 0.13936688222197466
-0.3947885509991376 -0.394788550999141 0.12839495012074717
0.4303585714262 0.4303585714262007 0.18571921361934254
-0.4031500961180571 -0.4031500961180606 0.17366755083871968
0.43385020456374074 0.4338502045637415 0.23190616001324366
-0.41291161281804434 -0.41291161281804795 0.22042565704229103
0.4415342568816146 0.44153425688161535 0.28011213833929965
-0.42826393730969037 -0.4282639373096941 0.2714863188442483
0.45201769876853237 0.45201769876853315 0.33021909290047907
-0.44432926979887144 -0.44432926979887527 0.32447160868860364
0.46740346596917703 0.4674034659691778 0.38441155499927687
-0.46670386756485976 -0.46670386756486376 0.3838237697469844
0.48560065897813565 0.48560065897813653 0.4416246728645244
-0.49190293758016723 -0.4919029375801715 0.44746970529949603
-0.5262413894782485 -0.526241389478253 0.5218448045156716
0.5080157477874082 0.5080157477874091 0.5034600282048214
0.5374625568353572 0.537462556835358 0.573346098062423
-0.5641276451300692 -0.5641276451300741 0.6022415247552242
0.5732543065690824 0.5732543065690833 0.6512586804718323
-0.6182139597259162 -0.6182139597259215 0.703035768111829
0.6210253618009487 0.6210253618009498 0.7443548634811222
-0.6800974194922342 -0.6800974194922401 0.8159766372868659
0.6786902828242048 0.6786902828242061 0.850911230599891
-0.7807739749761096 -0.7807739749761163 0.9801071766072043
0.7533050510915209 0.7533050510915222 0.9802361839944751
-0.9005875859681792 -0.900587585968187 1.1733270062893337
0.8568780543344535 0.8568780543344551 1.1488762716845453
-1.1044675187618644 -1.104467518761874 1.482697108904144
0.9950959752707264 0.995095975270728 1.3652073682383379
-1.3487477525467777 -1.3487477525467892 1.8523646983575737
1.1955249892829498 1.195524989282952 1.6672179189245924
-1.3777031610619117 -1.3777031610619235 1.922041510798138
1.382646918052471 1.3826469180524734 1.9469795527807987
-1.3628721510104989 -1.3628721510105106 1.919065867436271
0.0678822509939085 0.06788225099390863 2.046
-0.06788225099390827 -0.06788225099390886 2.0069999999999997
0.06571652216915405 0.06998098823245558 2.046
-0.0657165221691538 -0.06998098823245581 2.006
0.06571652216915405 0.06998098823245558 2.046
-0.0657165221691538 -0.06998098823245581 2.0069999999999997
1.3440044756475191 1.4312193994770461 1.9549548914506638
-1.3187071100799526 -1.4042804413024415 1.918068950102538
1.1922399493941027 1.269606593819025 1.7175900242949442
-1.3330649304196707 -1.4195699670270565 1.9210538224575426
0.9927172224926042 1.0571364699822672 1.4070192748154378
-1.3234930075715061 -1.4093769044898277 1.8776463162879133
0.8547910409973278 0.9102600047407908 1.184065362787466
-1.1102284137987146 -1.1822731787509986 1.5397604998818535
0.751772361935656 0.8005562540069777 1.0107242085673473
-0.9066714651906856 -0.9655070451368934 1.2204448624474096
0.676111135186574 0.7199852310129162 0.8758594132771653
-0.7804173269096173 -0.8310600434741446 1.0121834114779855
0.61890668193917 0.6590686755195145 0.7665235077543285
-0.6801990873338031 -0.724338457898144 0.8432611225461968
0.5712819370241684 0.6083534732619797 0.6706750883368311
-0.616184041770818 -0.6561693582201008 0.7240702099655776
0.5345786970969396 0.5692684925499906 0.5893146233400236
-0.5631226959916951 -0.5996647640632599 0.621251673895225
-0.52574822118122 -0.5598649908011601 0.5388153672641488
0.505379389783429 0.538174388448697 0.5176021638285523
-0.49045112991881584 -0.5222774063286262 0.46110811431442983
0.4836682582114799 0.5150543815935104 0.45461363383112807
0.46604135895986676 0.49628364041024037 0.3961672600451263
-0.46536366174859495 -0.49556196617974974 0.39557947479283384
0.4511367982984917 0.4804118953783161 0.34066906419479803
-0.4430114703779166 -0.4717592999757359 0.3343990814182067
0.4396268959781748 0.4681550943144752 0.2882839673346115
-0.4260946950638084 -0.4537447639791341 0.27920415733982057
0.43285954759071626 0.46094860023603557 0.23917714522818034
-0.41189717577532003 -0.4386259415359688 0.2273139588248626
0.42812388171608906 0.4559056282876404 0.19097250252371664
-0.40041324759280883 -0.4263968001195366 0.17830280575434387
0.4254183516678284 0.4530245314154941 0.14333545340752502
-0.3929872789911159 -0.4184889467490856 0.13213007594244164
0.4254183516678284 0.4530245314154941 0.09605076153470085
-0.38893843706145986 -0.41417736801543 0.08760330042252847
0.42880032901027837 0.4566259714916324 0.04856618025553496
-0.3855653464680133 -0.4105853913657925 0.043544798128953
0.43285954759071626 0.46094860023603557 -1.0719528121518018e-15
-0.3848908335360537 -0.4098671080483551 -9.501789726913571e-16
0.44098065504800044 0.4695967013016983 -0.04997844397863846
-0.38623989470716336 -0.41130371228156876 -0.04362325722468287
0.4518140546342279 0.4811331001240499 -0.102151705671272
-0.39028791534058455 -0.41561441642356545 -0.08791616935261083
0.46739681327518146 0.497727052650552 -0.15780906596659333
-0.3963622325563814 -0.422082907262212 -0.13329730276172308
-0.40514086386306747 -0.4314312001099218 -0.18046592471497047
0.4877377713381977 0.5193879729162468 -0.2181659980287143
-0.4200085614259235 -0.44726368992902416 -0.23190616001324557
0.5128464092963794 0.546125956599584 -0.28433379024726313
-0.43488949534218774 -0.4631102750328665 -0.28510603383643657
0.5413729004462015 0.576503584258127 -0.3563825422955457
-0.4552006634850856 -0.4847394722557035 -0.3438040555830958
0.5767223036678419 0.6141468753092029 -0.437331298667251
0.6141421523724149 0.6539949668608908 -0.5243044450448879
-0.4782432452362126 -0.5092773295424958 -0.4067473945863929
0.6216294586943008 0.6619681382690793 -0.5864515876421577
-0.5162411140800798 -0.549740950024062 -0.48578714015097885
-0.5556448238880063 -0.5917016390770492 -0.5699280656363588
0.5876050439912052 0.625735816679926 -0.6031620843521266
0.5576841043816617 0.5938732522348721 -0.6151684261704267
-0.5991707512638921 -0.6380520439822 -0.6615531900720286
0.5345786970969396 0.5692684925499906 -0.6269881706405857
-0.5801228769340299 -0.6177681180327974 -0.6811923092637072
-0.5515665825959961 -0.587358753202312 -0.6821121314832751
0.09245441615538375 0.09845395336586095 -0.08100081561363892
-0.5325406921451422 -0.5670982377062841 -0.687857036673421
0.09149657744584982 0.09743395873973104 -0.08286360674951834
0.08885236200489309 0.10078322164999207 -0.08684467605606107
0.08931628207262517 0.1013094356746856 -0.08776855558857236
-0.5138086785109159 -0.5828015458857897 -0.6869660301492327
0.08747583784201592 0.09922186147133773 -0.0810815937011416
-0.5315318543854087 -0.6029045428370968 -0.6804068511545669
0.07896240905986115 0.08956527203924053 -0.06053745166914067
0.5170900616259472 0.5865235444273948 -0.6277971876349606
-0.5597750057616321 -0.6349401097147389 -0.6803832922693323
0.538754911292264 0.6110974926789217 -0.6151684261704267
-0.5499204813680548 -0.6237623459074193 -0.5840702012600898
0.5656888136021694 0.6416480079961052 -0.601040764008567
0.5992146045361102 0.6796755532683466 -0.5851526915454973
-0.5131524406739143 -0.5820571901715543 -0.500074997214243
-0.475114722021663 -0.5389118674869555 -0.41850309963224236
0.6084216516728325 0.6901188982890576 -0.5378235058476148
-0.4515321966251055 -0.5121627430913998 -0.3532090297479829
0.5729178697162213 0.6498477626027706 -0.44987126422043383
-0.43124480891129463 -0.48915121873206147 -0.2928238723320089
0.5380982125605622 0.6103526141822676 -0.3668243237895554
-0.41620638281096534 -0.4720934726380065 -0.23802909493108707
0.508559143890154 0.5768471176713235 -0.291987458894565
-0.40183389904058536 -0.4557910898447234 -0.18541019662496966
0.4842916422494461 0.54932104023725 -0.2243463379162133
-0.39334716343419174 -0.4461647778772717 -0.13703242858341758
0.4646307702085519 0.5270201584146549 -0.1624779732437115
0.44956805534558597 0.5099348621272998 -0.10528039497207667
-0.3868222206661209 -0.438763683090261 -0.09026268632821433
0.4371326455392462 0.49582965845526 -0.05131224860601186
-0.38356088188771625 -0.4350644203856683 -0.04487860275632841
0.42928258876914205 0.4869255168705618 -1.1011099286423308e-15
-0.38095237220289 -0.43210564693485654 -9.741907156835577e-16
0.4247048597646982 0.4817331025497916 0.04982152578718046
-0.3816044522063755 -0.43284528651271253 0.04464322546914281
0.42208951853266474 0.47876658022972235 0.09871014744038475
-0.38421308780189545 -0.4358042027811722 0.08963694846805145
0.42208951853266474 0.47876658022972235 0.1473040245930754
-0.38877939062432076 -0.4409836566424903 0.13539831103642427
0.4240509896751198 0.4809914325178272 0.19591677443371577
-0.39726352882552296 -0.4506070224320665 0.18324707766434298
0.4286285598156845 0.48618366664289764 0.24530008014602178
-0.4077120392641756 -0.462458531156089 0.23305421031033893
0.43516983994854513 0.4936032925327359 0.2955478153304442
-0.4220895185326632 -0.4787665802297238 0.2864680053356533
0.4462948756738488 0.5062221685656051 0.34902904123025325
-0.43844128827035617 -0.4973140222634291 0.34275905845366184
0.4607004321788211 0.522562065012614 0.40557182408180587
-0.4607004321788194 -0.5225620650126156 0.40557182408180587
-0.4856028832606549 -0.5508083512156826 0.4727981791843731
0.4770809399832269 0.5411421039844531 0.46435535455608073
-0.5210281415611293 -0.5909904192974332 0.5529575028878797
0.49937453857633846 0.5664292279020117 0.5296229791087236
0.5282491127895015 0.5991810034013968 0.6030019307208242
-0.5564899070577594 -0.6312138966648678 0.6356993872416254
0.5617461858594179 0.6371759746509563 0.6828103432524553
-0.6090793574313339 -0.6908649190334052 0.7410595668474514
0.6097370709907736 0.6916109486261711 0.7818710307127023
-0.674227149546307 -0.7647605839834198 0.8654297668194031
0.6650104899754599 0.7543063357964046 0.8918975307125558
-0.7710624106707118 -0.8745986272860656 1.0353495811068831
0.7381141073556747 0.8372261131394164 1.0273540401525507
-0.8963447467225791 -1.016703543331504 1.2490851279552595
0.8363273648012968 0.9486271864565755 1.1992822670481884
-1.0923496864278759 -1.2390275067813954 1.5682921953707079
0.9722195368411644 1.1027665991425164 1.4264666732233913
-1.284514844421197 -1.4569960928093078 1.8863976455714924
1.1656390317398169 1.3221579511104797 1.7383314794474423
-1.287156865723865 -1.4599928777291744 1.9200661341169476
1.301688217125935 1.4764754604786035 1.9599394781193296
-1.273946893105969 -1.4450091050044107 1.918068950102538
-0.06348593907107027 -0.0720106626845244 2.006
0.0634859390710705 0.07201066268452419 2.046
0.06119270301587414 0.07396927130647582 2.046
-0.061192703015873866 -0.07396927130647606 2.006
0.06119270301587414 0.07396927130647582 2.046
-0.061192703015873866 -0.07396927130647606 2.006
1.2578520342767365 1.5204819169808876 1.964924064787995
-1.2272928127672038 -1.4835421637857027 1.917072032768805
1.156632132280532 1.3981280737386648 1.7896912731583894
