3.121 0.0 1.9110613300694447e-16
-0.497 6.086494591762346e-17 3.043247295881173e-17
3.121 0.0 1.9110613300694447e-16
-0.497 6.086494591762346e-17 3.043247295881173e-17
0.0 0.0 0.255
-0.0 0.0 1.587
1.0959297110175488 0.0 1.7572646552266944
-0.4847279648923586 5.936205506626375e-17 0.7772353569230575
3.2966592306172195 0.0 1.6150166925410647
-0.49840530454714166 6.103704608917187e-17 0.24416623927003298
3.583760714196633 0.0 -0.38141203885147784
-0.49719210796290686 6.088847235780991e-17 -0.05291509972967229
0.16778905571421238 0.0 -0.13120911851899977
-0.31194585006022585 3.820234867835558e-17 -0.24393807950011226
0.026642850878603734 0.001886415016508946 -0.0732843771580681
-0.02835072593492449 -0.002007339056028761 -0.07798209364255965
0.026642850878603734 0.001886415016508946 -0.0732843771580681
-0.028009150923660336 -0.0019831542481247998 -0.07704255034566133
0.14851145484263728 0.010515174964392669 -0.11642499248868994
-0.3111668577655258 -0.022031795163489517 -0.24393807950011226
3.006452040413642 0.21286822124597934 -0.32077133456127344
-0.4959505180490996 -0.03511518001418351 -0.05291509972967229
3.321570847041151 0.23517982939613777 1.6312944418257338
-0.4971606850344765 -0.03520086443227 0.24416623927003298
1.1011108144148272 0.07796282704943706 1.7699923084514166
-0.4824617854147422 -0.0341601265211821 0.7755383364930944
0.0 0.0 0.253
-0.0 -0.0 1.587
0.0 0.0 0.259
-0.0 -0.0 1.588
0.0 0.0 0.253
-0.0 -0.0 1.587
1.085070182521202 0.15008339197126447 1.7564161450117126
-0.48435016842975387 -0.0669937459813759 0.7840234386429095
0.5186126541346398 0.07173282199211668 0.2564845360259986
-0.4972632481325277 -0.06877984132691796 0.24592599594945663
2.9412294595145716 0.40682132912737223 -0.3160089755856029
-0.4954582780093199 -0.06853018370765837 -0.05323259032805032
0.26374583407200736 0.036480469220748955 -0.2082097749268635
-0.30978430806682516 -0.04284836177703347 -0.24455408475137516
0.024792968617735618 0.005235997381196996 -0.06952620397047486
-0.02981857036457392 -0.006297348201709908 -0.0836193534239495
0.024792968617735618 0.005235997381196996 -0.06952620397047486
-0.02981857036457392 -0.006297348201709908 -0.0836193534239495
0.2597399597233055 0.05485417135286365 -0.2075937696756006
-0.3044429794976429 -0.06429494861834174 -0.24332207424884936
-0.49619140780450444 -0.1047900697933495 -0.053973401724265735
3.7658817679478807 0.7953120652428554 1.8855792820024526
-0.49731429786712555 -0.10502721160229973 0.249005570138448
1.0784914674546637 0.22776532275349895 1.7674467778064724
-0.482033392318911 -0.10180005544095427 0.78996301014778
0.0 0.0 0.275
-0.0 -0.0 1.586
0.0 0.0 0.274
-0.0 -0.0 1.587
0.0 0.0 0.274
-0.0 -0.0 1.587
1.0530982161566909 0.3014738341378741 1.7564161450117126
-0.4827972015133814 -0.13821191719654222 0.805236194017447
3.8229024360310766 1.094394651176416 1.9480506441219927
-0.49728812176014 -0.1423602798278264 0.25340496183700717
2.750362978501956 0.7873553099595002 -0.3044734838445343
-0.49519917374487776 -0.14176226991971533 -0.05482004331994049
0.25597447230060844 0.07327864051229328 -0.2082097749268635
-0.28853927203115914 -0.08260107111001103 -0.23469800073116862
0.02445132285988361 0.008911637887262652 -0.07140529056427147
-0.027025146318818725 -0.009849705033290298 -0.07892163693945796
0.02445132285988361 0.008911637887262652 -0.07140529056427147
-0.027025146318818725 -0.009849705033290298 -0.07892163693945796
0.24941968465988448 0.09090460767220471 -0.2075937696756006
-0.29086627914342617 -0.10601041784918827 -0.24209006374632352
2.825223482434487 1.0296935168016979 -0.320030523165058
-0.49703005709495607 -0.18114978536326165 -0.05630166611237132
3.610345442139666 1.3158425584026265 1.8824997078134613
-0.4978041156490776 -0.18143190218685432 0.25956411021499
1.0356396528569347 0.3774538343319447 1.7674467778064724
-0.4812766125614559 -0.17540821489837846 0.8213578881020955
0.0 0.0 0.273
-0.0 -0.0 1.587
0.0 0.0 0.268
-0.0 -0.0 1.587
0.0 0.0 0.269
-0.0 -0.0 1.587
1.0013771785264634 0.44270421951974964 1.755567634796731
-0.4844748940091783 -0.21418411007214555 0.8493587251964851
3.6500458499653425 1.6136683897649913 1.9550896708396874
-0.5010188947972231 -0.2214981363088758 0.2683628936121083
3.1031147909017487 1.3718726979656701 -0.3610926405552837
-0.4992995369885875 -0.2207380161732569 -0.058100779503180176
0.24424086058033215 0.10797775491264652 -0.20882578017812642
-0.2860283824495336 -0.12645182507469216 -0.24455408475137516
0.04176266106410859 0.02211219079971961 -0.12965697497196665
-0.026631262127837355 -0.014100527466487872 -0.08267981012705118
0.04146003308538317 0.021951957533054976 -0.12871743167506833
-0.026328634149111935 -0.013940294199823238 -0.08174026683015287
0.23461243936033743 0.12422089232196679 -0.2075937696756006
-0.1649945048320474 -0.08736009341337135 -0.1459932445493096
3.6584551952331954 1.937052315345523 -0.4405711203492515
-0.5026750832748949 -0.2661527562761565 -0.060534874090745094
3.973785052989815 2.1040108807697746 2.2027754234685677
-0.5015842127999927 -0.26557517009117204 0.27804155534893843
0.9732217137226002 0.5152943724354498 1.765749757376509
-0.48310333026210756 -0.25579004648045167 0.8765110520758933
0.0 0.0 0.267
-0.0 -0.0 1.587
0.0 0.0 0.267
-0.0 -0.0 1.587
0.0 0.0 0.268
-0.0 -0.0 1.586
0.9285605133364766 0.5791028983689837 1.7547191245817497
-0.48717995985013396 -0.3038330003531659 0.9206335832549315
3.8929842841189 2.427885366498706 2.247649218793871
-0.5059584193883245 -0.31554431069781574 0.29211960878432774
2.8392024796510196 1.7706873826827438 -0.35611862118069454
-0.5062470988976557 -0.3157243475808755 -0.06349811967560674
0.22458480994913102 0.14006380036974603 -0.20697776442433768
-0.21923755256938984 -0.13672894797999013 -0.2020497224142344
0.02022332094409187 0.014693102723384267 -0.06858666067357655
-0.023270670675393384 -0.016907131900880525 -0.07892163693945796
0.02022332094409187 0.014693102723384267 -0.06858666067357655
-0.023270670675393384 -0.016907131900880525 -0.07892163693945796
0.21349439519661553 0.15511275760112464 -0.20636175917307478
-0.18609063700719916 -0.1352027618493384 -0.17987353336876963
3.338565977932091 2.4256101655194713 -0.43919532775628
-0.5124497657693353 -0.3723165482978079 -0.0674138370556025
3.8672636722154468 2.809731524874706 2.341796201143037
-0.5107432578559945 -0.37107669772438806 0.3092772364087084
0.8926193681215847 0.6485259322616039 1.769143798236435
-0.4884789923389583 -0.35490076197145803 0.9681501552938957
0.0 0.0 0.269
-0.0 -0.0 1.588
0.0 0.0 0.27
-0.0 -0.0 1.588
0.0 0.0 0.27
-0.0 -0.0 1.587
0.8404593310773139 0.7008658264119692 1.7547191245817497
-0.4958222359353594 -0.41347016838617123 1.0351824622774344
3.5491391047598375 2.9596557736113915 2.2639269680785397
-0.5179563676009792 -0.43192799960788075 0.33039431656179236
3.196047690612493 2.66520999066299 -0.442899384737357
-0.3222776882768154 -0.2687499679951688 -0.04466034417184341
0.20509132527170282 0.17102731311487476 -0.20882578017812642
-0.1615321057449695 -0.13470292802852965 -0.1644734020871969
0.019253675229042963 0.018512051607765246 -0.0732843771580681
-0.042703664290056835 -0.04105878113004341 -0.16254099036340744
0.019253675229042963 0.018512051607765246 -0.0732843771580681
-0.042703664290056835 -0.04105878113004341 -0.16254099036340744
0.19533926027628115 0.18781507552399648 -0.21190580643444093
-0.13514751147021783 -0.12994182550788125 -0.1466092498005725
1.6637054228855395 1.599621905023008 -0.2456318929451388
-0.31396078208697387 -0.3018674685049881 -0.04635362736319292
3.2742781312868883 3.1481576905965567 2.2252123211312194
-0.5165824335245034 -0.49668442805378643 0.3510714575450204
0.795345322126717 0.76470977483795 1.769143798236435
-0.5000948284451445 -0.480831901588754 1.1123968918407512
0.0 0.0 0.224
-0.0 -0.0 1.588
0.0 0.0 0.231
-0.0 -0.0 1.587
0.0 0.0 33.566
-0.0 -0.0 1.587
0.7343855757528315 0.8134738825661154 1.7572646552266944
-0.5184315363354124 -0.5742630691992568 1.2405219343029583
2.9577034789686496 3.276227927066088 2.1623010198418235
-0.535576011451088 -0.5932538870984373 0.3915458611717646
0.756295507791724 0.8377433645261428 -0.1201172763863561
-0.5470648562969209 -0.6059800020052541 -0.08688659375612189
0.09132119099543386 0.10115585906417626 -0.10656890846848338
-0.14569161106785977 -0.16138160174400382 -0.1700174493485631
0.015187590551554669 0.01942175594183603 -0.06764711737667824
-0.038179915136547164 -0.04882413646489335 -0.1700573367385939
0.015187590551554669 0.01942175594183603 -0.06764711737667824
-0.03839085389420765 -0.049093883075196625 -0.17099688003549224
0.6492688307504548 0.8302792156973029 -0.8242150261897733
-0.1271363480243791 -0.16258083296912804 -0.16139337583088237
0.6578742952932132 0.8412838073439 -0.11366163421933609
-0.5604794973866761 -0.7167362045806968 -0.09683463250530029
2.5966724632882823 3.320601689364661 2.065074463303666
-0.5443386672082808 -0.6960954542681775 0.4329001431382206
0.6809660437841001 0.8708133302749983 1.772537839096361
-0.5222152236199754 -0.6678041910486103 1.359313364400369
0.0 0.0 1.607
-0.0 -0.0 1.588
0.0 0.0 1.606
-0.0 -0.0 1.588
0.0 0.0 1.606
-0.0 -0.0 1.588
0.6174910874590331 0.9086105431130477 1.7615072063016017
-0.5327199121575757 -0.7838735465874127 1.519681795031873
2.289620268780255 3.3690739157058522 1.9955640744664314
-0.5749288990610026 -0.8459821847418358 0.5010907144658875
0.5701053757498324 0.8388845857246316 -0.10794680344853147
-0.5807249856902698 -0.8545108672234238 -0.10995757723825901
-0.12442025547367284 -0.18307884631241472 -0.17309747560487765
0.03250627089783671 0.055963643713782214 -0.17757368311378038
-0.03130233493865759 -0.0538909161688273 -0.17099688003549224
0.03267826174914802 0.05625974764877578 -0.1785132264106787
-0.03147432578996889 -0.054187020103820864 -0.17193642333239054
0.5293872978544953 0.9114069779595211 -0.8242150261897733
-0.10920096727043407 -0.1880032331216949 -0.1700174493485631
0.48046601146360257 0.8271828154831655 -0.10180865187988948
-0.619811143686415 -1.0670830291212146 -0.13133527752904664
2.000399206583256 3.443939442774046 1.951130218310984
-0.6066599623121716 -1.044441612295624 0.591718183456206
0.5570924299182057 0.9591048558468291 1.7784774106012318
-0.5031373901885324 -0.8662144523463965 1.6062298369599866
0.0 0.0 1.606
-0.0 -0.0 1.587
0.0 0.0 1.607
-0.0 -0.0 1.588
0.0 0.0 1.606
-0.0 -0.0 1.588
0.4849360861302187 0.9898777096137806 1.7674467778064724
-0.44675580858564085 -0.9119420666101031 1.6282911025495057
1.7122659118181212 3.495169585265999 1.9066963621555366
-0.6518778852099447 -1.330648319263705 0.7258996302622601
0.4033460182873939 0.8233316599518856 -0.09757544390151571
-0.6802636208643141 -1.3885908147778547 -0.16456596015928082
0.0415870297925738 0.08488968954489971 -0.07392063015154916
-0.12476108937772146 -0.2546690686346992 -0.2217618904546475
0.031151752951453605 0.07605032373008459 -0.22549039125559414
-0.023104216772328108 -0.05640399009981273 -0.167238706847899
0.031151752951453605 0.07605032373008459 -0.22549039125559414
-0.023104216772328108 -0.05640399009981273 -0.167238706847899
0.036428654938960144 0.08893274819804933 -0.07515264065407498
-0.1027168631065762 -0.25076119164040134 -0.21190580643444093
-0.47417007492727964 -1.157584542915919 -0.1331343909198555
1.468483571908027 3.5849876958755624 1.8978975787584185
-0.7345821854838954 -1.793324860384669 0.9493887285490651
0.4204294786520665 1.0263884028288168 1.7784774106012318
-0.3849256534032997 -0.9397134279716121 1.6282911025495057
0.0 0.0 1.607
-0.0 -0.0 1.589
0.0 0.0 1.607
-0.0 -0.0 1.588
0.0 0.0 1.607
-0.0 -0.0 1.587
0.34424085478946376 1.0454768393711569 1.7649012471615277
-0.3162712853378201 -0.9605318461722502 1.6215030208296537
1.1784783996394723 3.579098341699693 1.8459847567154202
-0.8521218933522791 -2.5879371708095493 1.3347754413428468
0.4568488039842014 1.3874728609769733 -0.15546456300577718
-0.3909182754310019 -1.187238520250548 -0.13302856072039612
8.037932092529982 24.411605195199048 -20.097787327703692
-0.08622804611001951 -0.2618789253454198 -0.2156018379420184
0.018448272423588114 0.07304086170118988 -0.20669952531762797
-0.01467476215512693 -0.05810068544412832 -0.16442007695720406
0.018364416639844533 0.0727088577843663 -0.20575998202072965
-0.01467476215512693 -0.05810068544412832 -0.16442007695720406
0.25849364928745344 1.0234345230125654 -0.8254470366922991
-0.0682886207819094 -0.2703700157809314 -0.21806585894707003
0.3518707138133922 1.3931353329042078 -0.1529246382187529
-0.3065780129349905 -1.2138113384957765 -0.1332402211193148
0.9099996221431645 3.6028932695133276 1.8204682848637772
-0.7518822397553127 -2.9768709735297403 1.5041520217373743
0.27187491518625173 1.0764139657191514 1.7801744310311947
-0.24712367171600702 -0.9784182233681704 1.6181089799697275
0.0 0.0 1.607
-0.0 -0.0 1.587
0.0 0.0 1.608
-0.0 -0.0 1.588
0.0 0.0 1.607
-0.0 -0.0 1.588
0.19368367096411418 1.084592640830929 1.7665982675914906
-0.17656657420263663 -0.9887400731494251 1.610472388034894
0.6527920658468511 3.655514515426006 1.8191484673542095
-0.5380206433872002 -3.0128158327864156 1.4993126908689591
0.42233865510023816 2.3650181503686016 -0.2556857618937765
-0.4195417103644758 -2.3493557785118555 -0.25399247870242697
0.011770980299069566 0.06591530687221497 -0.05236044635734733
-0.04985356361958884 -0.27917071145879274 -0.2217618904546475
0.007853453869467888 0.07113569524524485 -0.19636454905174655
-0.006087366157195236 -0.05513867286951993 -0.15220601409752604
0.007853453869467888 0.07113569524524485 -0.19636454905174655
-0.006087366157195236 -0.05513867286951993 -0.15220601409752604
0.0090764447226699 0.08221340781185538 -0.06468055138260552
-0.031551450702614586 -0.28578946525073534 -0.22484191671096204
-0.1393437714241856 -1.262160091993446 -0.13514516470958302
0.4062987152635329 3.68020772362154 1.8138691973159387
-0.33534672035940083 -3.0375325936172928 1.4971129950196795
0.12258385556734891 1.1103506732913266 1.7912050638259545
-0.11021513873369465 -0.9983162377579051 1.610472388034894
0.0 0.0 1.61
-0.0 -0.0 1.589
0.0 0.0 1.609
-0.0 -0.0 1.588
0.0 0.0 1.609
-0.0 -0.0 1.588
0.04352460982140188 1.1077752934830538 1.7776289003862504
-0.039307189394793836 -1.000434775785173 1.605381326745005
0.14670186862821827 3.7338118880557145 1.8305868857704632
-0.12068264751607681 -3.0715784890205993 1.505911778416798
0.026780988002127755 0.681621661068521 -0.07259951682911038
-0.09744219541299047 -2.480069484004414 -0.2641521778505241
0.0030617341500426315 0.07792633777874314 -0.060984519875028065
-0.011164505335004037 -0.28415563573864916 -0.2223778957059104
-0.0007744313004054823 0.024642803549654573 -0.06764711737667824
0.0009035031838064117 -0.028749937474597004 -0.07892163693945796
-0.0007851872906888918 0.024985064710066444 -0.06858666067357655
0.0009035031838064117 -0.028749937474597004 -0.07892163693945796
-0.002202178229313302 0.07007444747891764 -0.05482446736239896
0.008957174370914932 -0.28502190997042903 -0.2229939009571733
-0.021239366865526674 0.6758476121925499 -0.07196453563235432
0.07858565740245005 -2.500636165112434 -0.266268781839711
-0.08411544438229768 2.6765968399256908 1.3118986045103394
0.09731666100567805 -3.0966663640991388 1.5177901360029076
-0.03517197025423119 1.1191902406004273 1.7954476149008618
0.03144866149385943 -1.000712634790174 1.605381326745005
-0.0 0.0 1.61
0.0 -0.0 1.588
-0.0 0.0 1.61
0.0 -0.0 1.587
-0.0 0.0 1.61
0.0 -0.0 1.588
-0.11337406411755623 1.106541380907845 1.7835684718911207
0.10177776355367756 -0.9933604118806391 1.6011387756700974
-0.20658540368742287 2.01629270019515 0.9929427063648008
0.3205414637631193 -3.128514415632882 1.5406669728354152
-0.06851399936017191 0.6687029882329493 -0.07154121483451693
-0.008269888468449524 0.08071487846059273 -0.0634485408800797
0.029386205625752896 -0.2868120923939509 -0.22545792196222494
-0.004488787465942439 0.026329657263998413 -0.0732843771580681
0.004891627366732161 -0.02869257522358801 -0.07986118023635627
-0.004431238908686766 0.02599209755548561 -0.07234483386116979
0.0049491759239878325 -0.029030134932100805 -0.08080072353325457
-4.308943550927834 25.27475576124793 -20.049738918105188
0.048453771034766877 -0.2842128735595656 -0.22545792196222494
-0.11297006765530293 0.6626429041300885 -0.07154121483451693
0.2516759199539745 -1.4762429195560847 -0.15938028038577293
-0.27196118840827527 1.5952292092751554 0.7927703840803593
0.5374327369155778 -3.1523924607263196 1.5666233838569141
-0.18889461851881761 1.1079897639060936 1.802235696620714
0.16799526100849696 -0.9854014425699671 1.6028357961000606
-0.0 0.0 1.612
0.0 -0.0 1.587
-0.0 0.0 1.613
0.0 -0.0 1.588
-0.0 0.0 1.612
0.0 -0.0 1.587
-0.2620313863289321 1.072861289973433 1.7708408186663984
0.2366694601006411 -0.9690194209870249 1.5994417552401345
-0.33558187351675617 1.3740063996033427 0.6929041925230665
0.776419267996865 -3.178970996923543 1.6031383349549553
-0.15996028872365498 0.654941395032548 -0.07175287523343563
0.3623879107367767 -1.4837610365339138 -0.16255518636955327
-0.10615993052628062 0.43466121216845927 -0.3498909827173327
0.06877967329871718 -0.28161148957393134 -0.22668993246475078
-0.007631201871073696 0.023804090733539653 -0.06858666067357655
0.008572034978466328 -0.026738841645893862 -0.07704255034566133
-0.007526664859141179 0.023478007298833627 -0.06764711737667824
0.008572034978466328 -0.026738841645893862 -0.07704255034566133
-0.13875797471135443 0.4328292549239763 -0.35543502997869886
0.06252525723561887 -0.19503571279069995 -0.16016136532835654
-0.2088530264645287 0.6514775098246104 -0.07281117722802906
0.47841914201758234 -1.4923380166912592 -0.16678839434792705
-0.3733919004053659 1.1647254032303003 0.5991971493437566
0.6160143907568689 -1.92154036788435 0.9885433146662415
-0.3214798752714557 1.0027956604025787 1.6885353278131923
0.30516355999385864 -0.9519000012565185 1.6028357961000606
-0.0 0.0 1.612
0.0 -0.0 1.588
-0.0 0.0 1.615
0.0 -0.0 1.587
-0.0 0.0 1.614
0.0 -0.0 1.587
-0.35077748320115415 0.8758976935122207 1.512893713312021
0.3708443947471537 -0.9260051330737724 1.5994417552401345
-0.39896549840674156 0.9962240354094334 0.5257273079778187
1.240632461991172 -3.0978816029970333 1.634813955184581
-0.2513858898027202 0.6277150946243959 -0.07196453563235432
1.015525057776576 -2.535784360195905 -0.2907155579148195
-0.1710309216684303 0.4270672918955321 -0.35974706673753926
0.0761439034825203 -0.19013269844664105 -0.16016136532835654
-0.0163051475328177 0.03395539312539123 -0.10334976265881399
0.012302974956580615 -0.025620887540067944 -0.07798209364255965
-0.0163051475328177 0.03395539312539123 -0.10334976265881399
0.012302974956580615 -0.025620887540067944 -0.07798209364255965
-11.576335128457526 24.10766351220642 -20.91276227512452
0.08627095901204013 -0.17965886678807108 -0.15584932856951617
-0.3081962304008071 0.6418172017125326 -0.07577442281289071
1.2784117378357491 -2.662286437271261 -0.3143156923942534
-0.41633145256073395 0.8670082937742009 0.47117485091568523
1.4429713836652127 -3.004981126507782 1.6330541985051574
-0.3616969196959465 0.753232135790221 1.3397976294557943
0.43224958040927824 -0.9001577202255526 1.6011387756700974
-0.0 0.0 1.614
0.0 -0.0 1.588
-0.0 0.0 1.614
0.0 -0.0 1.587
-0.0 0.0 1.612
0.0 -0.0 1.587
-0.37440206950827165 0.6563967034318431 1.2116725869935872
0.49081279700243974 -0.8604864347509881 1.588411122445375
-0.42936280276036976 0.7527531262802939 0.4245412989109582
1.5523801231408587 -2.721612080406162 1.5349477636272881
-0.3532488924250229 0.6193112361351732 -0.07588025301235006
1.3913178134006463 -2.4392397919745186 -0.29886448327318904
-0.09484135087122919 0.16627458855304814 -0.14968927605688706
0.1030375169959032 -0.18064399744034865 -0.16262538633340817
-0.013887811019371645 0.020784578002400876 -0.06858666067357655
0.04033172515214776 -0.06036069228094504 -0.1991831789424415
-0.013697567032804909 0.020499857755792644 -0.06764711737667824
0.03995123717901429 -0.05979125178772857 -0.19730409234864488
0.18118545718052367 -0.2711631993275532 -0.2550261740228446
-0.47400233213440435 0.7093946217892305 -0.09080231113611764
1.4369231537081408 -2.1505074723470736 -0.2752643487937552
-0.44054405494912136 0.6593207713448768 0.3884662869827732
1.7836296675459884 -2.669390438910459 1.5727825322348972
-0.3792549701356017 0.5675951738244693 1.0945781773261398
0.5233130595669538 -0.7831933406260122 1.5103481826670766
-0.0 0.0 1.613
0.0 -0.0 1.587
-0.0 0.0 1.615
0.0 -0.0 1.587
-0.0 0.0 1.614
0.0 -0.0 1.587
-0.39045857784333227 0.507478698760391 1.0266973601276195
0.5724574521438603 -0.7440224889263918 1.5052571213771875
-0.45123614490186387 0.586471253655834 0.36250987596127415
1.991134251047544 -2.587875580452201 1.5996188215961078
-0.4857062968826297 0.631272082388788 -0.084769989766935
1.4747037628196682 -1.916671291347731 -0.257379045085126
-0.12633589772154946 0.16419866439246825 -0.16200938108214527
0.19262621667810378 -0.25035613848433386 -0.24701810575642683
-0.01751442369667979 0.019709641705848484 -0.07234483386116979
0.04185264883362446 -0.047098364595793765 -0.17287596662928884
-0.01751442369667979 0.019709641705848484 -0.07234483386116979
0.042080108881633285 -0.04735433396859699 -0.17381550992618716
-17.81541872412969 20.048362765074888 -20.973130789748286
0.20930382969576994 -0.23553749540429272 -0.2464021005051639
-0.4953916047369151 0.5574828611289601 -0.07937264959450843
1.5053299562605733 -1.694004587350533 -0.24118702456784627
-0.455738992974058 0.5128602812438348 0.33611352576991926
2.041281196279093 -2.297130736147123 1.505471839246942
-0.3750595070682963 0.4220686121741832 0.9053603993852644
0.10123443114870606 -0.1139229243731628 0.24437094191467304
-0.0 0.0 1.616
0.0 -0.0 1.587
-0.0 0.0 1.615
0.0 -0.0 1.586
-0.0 0.0 1.615
0.0 -0.0 1.587
-0.38046110849337594 0.37160067936850055 0.8527527660564111
0.11470618494874922 -0.11203483169020462 0.2570985951393956
-0.46255542012152695 0.45178312454434283 0.31675620229625895
1.7307281969547137 -1.690421857670082 1.1851961235918356
-0.5000934336012463 0.4884469280180965 -0.07439863021991923
1.538694305660734 -1.502860178240601 -0.2289107214305623
-0.5579057355209573 0.5449128589362249 -0.6098451987502806
0.22654354109032823 -0.22126764574986096 -0.24763411100768973
-0.018549263236304788 0.01571700969589773 -0.06670757407977992
0.050161387906627074 -0.04250233607904735 -0.18039231300447534
-0.018549263236304788 0.01571700969589773 -0.06670757407977992
0.050161387906627074 -0.04250233607904735 -0.18039231300447534
-0.5679527166796935 0.4812330409649444 -0.5821249624434497
0.2410042744852458 -0.2042057665893572 -0.24701810575642683
-0.5037541624169876 0.42683684813747275 -0.07027125244100481
1.5628517689442698 -1.3242227517517968 -0.21801021088624983
-0.4624766301092414 0.3918619077725196 0.29695893965274284
1.7471339359682463 -1.4803672071406282 1.1218448831325838
-0.3976813082283524 0.33696006669790773 0.8357825617567811
0.11223898851521022 -0.09510141983961247 0.23588583976485805
-0.0 0.0 1.616
0.0 -0.0 1.587
-0.0 0.0 1.615
0.0 -0.0 1.587
-0.0 0.0 1.616
0.0 -0.0 1.587
-0.4026731255458722 0.2974189854359169 0.8026906633725025
0.12088706940277771 -0.08928857490887984 0.24097690105474703
-0.4666390701256544 0.3446649651957497 0.28420070372692124
1.7762623427848054 -1.3119677235547182 1.0818104186756956
-0.5071102480359104 0.3745574410274739 -0.06709634645722447
1.5629233827479005 -1.1543931226619613 -0.2067922097435593
-0.5715437385441382 0.42214875556845083 -0.5556367366391446
0.25408984385387967 -0.18767367071280341 -0.24701810575642683
-9.70211126454099 6.15714703539817 -31.528254414016555
0.05695729412982613 -0.03614619799068566 -0.18509002948896688
0.05695729412982613 -0.03614619799068566 -0.18509002948896688
-0.5799781934764471 0.3680653537349469 -0.5371565791012572
0.2660450428791042 -0.16883731822703973 -0.2464021005051639
-0.5104685082082308 0.3239531660975166 -0.0643447612712815
1.5801015336313988 -1.0027629253215886 -0.19917243538248647
-0.4678277619727931 0.2968925256748249 0.2714424678010997
1.7924551528422736 -1.1375266299761515 1.0400161975393836
-0.3998865442600316 0.25377571781565816 0.7594166424084459
0.12376376844695952 -0.078542875793226 0.23503732954987655
-0.0 0.0 1.615
0.0 -0.0 1.586
-0.0 0.0 1.616
0.0 -0.0 1.586
-0.0 0.0 1.614
0.0 -0.0 1.586
-0.4051685847758645 0.21861710609820084 0.7382038870339082
0.12807052967053187 -0.06910310824943137 0.23334030911991355
-0.47024106061676463 0.253728308914807 0.2617638060642696
1.8145772692035145 -0.9790927685183151 1.0101003339891814
-0.5128209369620792 0.27670316356643654 -0.06201649688317592
1.612848100377324 -0.8702456151074114 -0.19504505760357205
-0.23085653333210523 0.124563426527372 -0.20512974867054895
0.2793849337322474 -0.15074793060219507 -0.24825011625895263
-0.03932358464134137 0.017755279278207036 -0.11838245540918693
0.07646252569149711 -0.03452415415206925 -0.2301881077400857
-0.039011492699743425 0.017614364363300633 -0.11744291211228862
0.07677461763309505 -0.034665069066975654 -0.231127651036984
-0.23692372489809924 0.10697516367254949 -0.20328173291676022
0.2886161739667754 -0.13031519938292394 -0.24763411100768973
-0.513863613500844 0.23201831806106937 -0.06000572309344837
1.6086559329171042 -0.7263360045121663 -0.18784860404033663
-0.46734367205766714 0.21101375909568235 0.2512052659877276
1.8227221675524075 -0.8229906155973462 0.9797445312691232
-0.3978937672170026 0.1796559246678788 0.7000209273597405
0.1466178245260228 -0.0662004861806487 0.2579471053543771
-0.0 0.0 1.617
0.0 -0.0 1.586
-0.0 0.0 1.618
0.0 -0.0 1.586
-0.0 0.0 1.618
0.0 -0.0 1.586
-0.40106018726133513 0.14975083398989195 0.6864447639200365
0.14178394753614562 -0.05294034427825606 0.24267392148471004
-0.4694423868188128 0.17528388797792796 0.24548605677960073
1.8399112902737333 -0.6869997544941379 0.9621469644748866
-0.5142232730667972 0.1920045081627294 -0.05841827010155821
0.41920375521749753 -0.15652541426309485 -0.04762358975670506
-0.24427017797928424 0.09120741482978825 -0.20389773816802312
0.2664094690348084 -0.09947394789593234 -0.2223778957059104
-0.050253736055998435 0.01481430862660132 -0.14375012442544127
0.07882938989176223 -0.023238131178982508 -0.22549039125559414
-0.050253736055998435 0.01481430862660132 -0.14375012442544127
0.07850093410054655 -0.02314130563240341 -0.22455084795869584
-0.24934629558433355 0.07350484297465801 -0.20328173291676022
0.3007267443714083 -0.0886512954664059 -0.2451700900026381
-0.5160080076751525 0.1521141009492154 -0.05725413790750542
-0.4677291709676728 0.13788197328569368 0.238886969231762
3.1741841528837456 -0.9357183638264865 1.6211758409190478
-0.39693035197179616 0.11701117566310362 0.6635349881155359
0.14415373396418169 -0.042495107274068404 0.24097690105474703
-0.0 0.0 1.618
0.0 -0.0 1.587
-0.0 0.0 1.617
0.0 -0.0 1.585
-0.0 0.0 1.617
0.0 -0.0 1.586
-0.39800067481255164 0.0873240857093131 0.6533528655357579
0.9660561834086481 -0.2119593716762415 1.5858655918004303
-0.46840487992473306 0.10277125258762992 0.23492751670305875
3.220064258808418 -0.7065042476576571 1.6150166925410647
-0.5147787047713814 0.11294598874224733 -0.05609000571345263
3.2382494371845008 -0.7104942008804754 -0.35283788499745483
-0.1946682070179083 0.04271154364880497 -0.15584932856951617
0.2970036676241606 -0.06516464762228734 -0.23777802698748315
-0.07352433984714114 0.010758807087873773 -0.20388089542693305
0.0877548572369104 -0.012841156846817055 -0.24334171389666204
-0.07352433984714114 0.010758807087873773 -0.20388089542693305
0.0877548572369104 -0.012841156846817055 -0.24334171389666204
-0.16368268924062596 0.02395166662938438 -0.12936110276521104
0.31021766817985313 -0.04539411104045221 -0.2451700900026381
-0.5145828896120861 0.07529884731460595 -0.05534919431723721
3.145547797494913 -0.4602876001238904 -0.3383391476715246
-0.46560795342446754 0.06813235127154078 0.2305281250044996
3.2788040994967282 -0.4797869774656201 1.6233755367683271
-0.39270216533174657 0.057464056781447656 0.6363826612361277
0.9801846046680396 -0.14343028572649305 1.588411122445375
-0.0 0.0 1.618
0.0 -0.0 1.586
-0.0 0.0 1.617
0.0 -0.0 1.585
-0.0 0.0 1.616
0.0 -0.0 1.586
-0.3961883367577816 0.03118069832684418 0.6372311714511093
0.9854591385666257 -0.07755731621111144 1.585017081585449
-0.4664300726084168 0.03670884282861317 0.22920830749493185
3.2793346563620545 -0.25808923470481665 1.6114971791822175
-0.5135031701259819 0.04041357594876726 -0.05482004331994049
3.06119264353095 -0.24092108596485096 -0.32680365593045607
-0.08010199737711554 0.006304163913640113 -0.06283253562881679
0.3180520484091352 -0.025031239068865053 -0.24948212676147846
-11.434416622797464 0.08980754475187627 -31.374169313325233
0.08834424845571663 -0.0006938683719936644 -0.2424021705997637
0.08834424845571663 -0.0006938683719936644 -0.2424021705997637
-0.07877177497866461 0.0006186847952064914 -0.061600525126290974
0.31114851116572523 -0.002443804941065679 -0.24332207424884936
-0.5130864301356991 0.004029854259824833 -0.054608382921021804
2.959196155201241 -0.023241950149687763 -0.3149506735910095
