0.0 0.0 1.608
0.0 0.0 1.591
0.0 0.0 1.608
0.0 0.0 1.591
0.0 0.0 1.608
0.0 0.0 1.591
1.4404870333075346 0.0 1.7167055970296299
0.9458550330355228 0.9458550330355228 1.5941384861305932
3.8880210088921974 0.0 0.6855630054290413
1.759016071048368 1.759016071048368 0.4386352967866662
0.4047781799949203 0.4047781799949203 -0.33049999999999985
0.3602665679743265 0.0 -0.2079999999999999
0.01844042132708705 0.026335650961764146 -0.08833110635387538
0.028966871639678014 0.005107641016794086 -0.0808135653875881
0.01844042132708705 0.026335650961764146 -0.08833110635387538
0.028966871639678014 0.005107641016794086 -0.0808135653875881
0.35479330929221636 0.06255963300306108 -0.2079999999999999
0.2657514942173025 0.3795324667551791 -0.2674999999999999
3.4565322502404885 0.6094798954063416 0.61888210520494
1.83636805727824 2.6226053806468075 0.5645302255951907
1.4337953318322425 0.25281680181587096 1.7350906636644854
0.7657646156293099 1.0936252094446401 1.5910743083581174
0.0 0.0 1.609
0.0 0.0 1.592
0.0 0.0 1.61
0.0 0.0 1.591
0.0 0.0 1.61
0.0 0.0 1.591
1.3560311266310954 0.4935549668321821 1.7197697748021057
0.5620516755252875 1.205323707847972 1.5849459528131655
1.398840606582719 2.99982336150643 0.5836315251385532
1.671302340587372 0.608304304433238 0.31360860886647635
0.341795026166737 0.12440321574493002 -0.2099999999999999
0.17494711606837873 0.3751753011318272 -0.23899999999999988
0.025848227455202055 0.09646689814841086 -0.2743902452694852
0.02369585061808192 0.013680805733026753 -0.07517540966287267
0.025848227455202055 0.09646689814841086 -0.2743902452694852
0.023399652485355894 0.013509795661363918 -0.07423571704208676
0.32700000000000007 0.18879353802500762 -0.21799999999999992
0.09615771939002374 0.3588654943035196 -0.2144999999999999
1.1053176174103665 0.6381554239519107 0.22504803825634181
0.9084172759982532 3.390259428498801 0.61888210520494
1.0448703393479892 0.603256171690817 1.4378654197343217
0.070539046345348 0.2632553048782945 0.3248028438824467
0.0 0.0 1.612
0.0 0.0 1.591
0.0 0.0 1.613
0.0 0.0 1.59
0.0 0.0 1.613
0.0 0.0 1.59
0.7031527356507165 0.5900152011458115 1.0939114647739006
0.02347348261996206 0.2683031340741258 0.32097262166685175
0.7491256611883406 0.6285910660085725 0.1724326404232619
0.28024034109431306 3.2031617560516787 0.5669613000825279
0.3038435882613738 0.25495504284570003 -0.2289999999999999
0.03049355127129002 0.3485428859277797 -0.20199999999999993
0.03275710024855019 0.03903839190417838 -0.14001420049710034
-0.008018626279450275 0.09165331777041316 -0.2527773149914094
0.032537253938157235 0.03877638927394899 -0.13907450787631442
-0.008048435299076484 0.09199403642383477 -0.2537170076121953
0.2827885628070211 0.3370142856698207 -0.2539999999999999
-0.029965197660153837 0.34250377651813996 -0.19849999999999993
-0.25371836088048705 2.9000141350348425 0.5133040131834463
0.5140140439063051 0.612578083469217 0.14100232026554751
0.4739127701080154 0.5647872463525012 0.8786529762574677
-0.11596684731102987 1.325507130151409 1.5857119972562843
0.0 0.0 1.614
-0.0 0.0 1.591
0.0 0.0 1.615
-0.0 0.0 1.591
0.0 0.0 1.614
-0.0 0.0 1.59
0.31625150396577734 0.5477636728387965 0.7537877320290743
-0.3239139698924355 1.2088633929199044 1.4914885307526502
0.34222069417174233 0.5927436297069479 0.12068548347851663
-0.6507265167293886 2.4285444222663966 0.44332379758367335
0.3277906153324101 0.56775 -0.37849999999999984
-0.15824557083766153 0.5905805104388925 -0.3529999999999998
-0.04235137982661152 0.09082282713129734 -0.2753299378902711
0.02596906681379346 0.0713494246752059 -0.20861176181447164
-0.04235137982661152 0.09082282713129734 -0.2753299378902711
0.02608604459223397 0.07167081848004916 -0.20955145443525755
0.2005261358555182 0.550941030273526 -0.33849999999999986
-0.24851274437328272 0.5329373001433279 -0.33949999999999986
0.20579951827724724 0.5654295294013755 0.10609903655449449
-1.0117767077068103 2.169762151687632 0.42213871990830787
-0.5297248754346594 1.1359986613356914 1.493786664082007
0.18972736586911948 0.5212716535780112 0.661096354411678
0.0 0.0 1.614
-0.0 0.0 1.591
0.0 0.0 1.615
0.0 0.0 1.616
-0.0 0.0 1.591
-0.0 0.0 1.591
-0.7167291347055265 1.0235952851036978 1.4891903974232932
0.0882905475657192 0.5007205772535558 0.6059411545071116
0.09559463005952445 0.5421440875096614 0.0970693313158141
-1.202027445674591 1.7166731005894822 0.3695233220752279
0.09293714710550906 0.5270727527466099 -0.3089999999999999
-0.06602362020289727 0.06602362020289729 -0.256536085474553
7.1048088337846e-16 11.603033362323316 -31.879072160161936
1.2356189276147132e-17 0.20179188456214464 -0.5544186462636859
-0.06723284401613715 0.06723284401613716 -0.26123454857848255
2.4976546871971557e-17 0.4078979651824706 -0.23549999999999988
-0.2467860915854052 0.24678609158540527 -0.20149999999999993
5.716637480258995e-17 0.9335977498555732 0.16461847242825003
-2.3432656686768634 2.343265668676864 0.5843261178492208
5.297773818181156e-17 0.8651921226380819 1.0310958204381444
-0.19589789487665077 0.19589789487665082 0.3301651549842795
0.0 0.0 1.614
-0.0 0.0 1.59
-0.0 0.0 1.614
-0.0 0.0 1.591
-0.0 0.0 1.614
-0.0 0.0 1.591
-1.085727097676865 0.7602342982318904 1.5795836417113325
-0.124120213518432 0.7039207103741518 0.8518414207483036
-0.13372987604033643 0.7584198147272901 0.1357928749355396
-0.07804915752064591 0.44263876808331803 -0.2594999999999999
-0.2816343725267404 0.19720251066218514 -0.19849999999999993
-0.09082282713129733 0.04235137982661153 -0.2753299378902711
-0.07030364484274712 0.19315767671080517 -0.5647552650923309
-0.09051285161207788 0.04220683586815893 -0.2743902452694852
-0.06995271150742559 0.19219349529627536 -0.5619361872299732
-0.21918661821725766 0.6022102841985366 -0.36999999999999983
-0.5674722651010692 0.26461666300719217 -0.3614999999999998
-0.22735625996258899 0.6246561904188683 0.11721251992517803
-2.223314487804974 1.0367485721504177 0.4325576105683237
-0.20885399487330644 0.573821634877301 0.7277422209630291
-1.1359986613356912 0.5297248754346596 1.493786664082007
-0.0 0.0 1.615
-0.0 0.0 1.591
-0.0 0.0 1.615
-0.0 0.0 1.591
-0.0 0.0 1.615
-0.0 0.0 1.591
-1.2063798523078448 0.32324850719106446 1.4884243529801744
-0.27318473411677907 0.47316983934245643 0.6511377766511313
-0.29544232590366226 0.5117211191714659 0.10418890660015824
-2.2896617408520235 0.6135130144017389 0.41797116364430154
-0.2862213959507569 0.49575000000000014 -0.33049999999999985
-0.5671580539342338 0.15196954253248524 -0.33899999999999986
-0.05957835011649062 0.07100271279216336 -0.25465670023298115
-0.05957835011649062 0.07100271279216336 -0.25465670023298115
-0.0998305654525318 0.00873404275047929 -0.2753299378902711
-0.10017128410595341 0.0087638517701055 -0.276269630511057
-0.34068228432656866 0.4060093362793903 -0.3059999999999999
-0.34816222185771895 0.4149235787045189 0.09550649771681173
-2.063169731386426 0.1805039624261381 0.3651821176335547
-1.247385453881616 0.10913208626178073 1.4922545751957692
-0.3181454515982318 0.37915098490970006 0.5898542212016131
-0.0 0.0 1.615
-0.0 0.0 1.591
-0.0 0.0 1.613
-0.0 -0.0 1.591
-0.0 0.0 1.614
-0.0 -0.0 1.591
-0.6366782123223923 0.5342364531383296 0.9904954649528385
-0.2779082582056578 -0.02431382209323034 0.3324632883136365
-0.6819834820888819 0.5722520882897782 0.1569779526109051
-3.1727488879237757 -0.2775795599078121 0.5615782065748529
-22.428698759695468 18.81991285704679 -16.903999999999993
-0.3459546961807912 -0.03026711400937443 -0.20049999999999993
-0.048280295634341906 0.02787464168104201 -0.15316989718810306
-0.08952921026787447 -0.02398927959027315 -0.25465670023298115
-0.048280295634341906 0.02787464168104201 -0.15316989718810306
-0.08985957635742382 -0.024077800917174524 -0.25559639285376706
-0.3270778747614829 -0.08764025240442724 -0.19549999999999992
-2.6330634394176995 -0.705527222211887 0.48065815578206333
-0.646474347219952 0.3732421383916268 0.13162531867153326
-0.5956373271722687 0.34389137118229846 0.8196675541373065
-1.2833696112816857 -0.3438778509335716 1.5834138639269277
-0.0 0.0 1.615
-0.0 -0.0 1.591
-0.0 0.0 1.615
-0.0 -0.0 1.591
-0.0 0.0 1.615
-0.0 -0.0 1.591
-0.5629492249533099 0.20489676128623338 0.7139534209868875
-1.1325032808392739 -0.5280949527410143 1.4891903974232932
-0.6098495251644951 0.22196707454125364 0.11443414908250715
-0.585934330571549 0.21326265556273727 -0.3599999999999998
-0.5619780661305195 -0.2620546759517973 -0.3579999999999998
-0.09060567989620218 0.01597622597113499 -0.2527773149914094
-0.08152845138163158 -0.057086836235982256 -0.27345055264869933
-0.09026885580736871 0.015916834796521104 -0.25183762237062346
-0.08152845138163158 -0.057086836235982256 -0.27345055264869933
-0.556070282832993 0.09805019403364378 -0.32599999999999985
-0.47884937394345023 -0.3352939413022041 -0.33749999999999986
-0.5712394768214499 0.10072493220940938 0.10227877664582201
-1.9611054076752967 -1.3731807896780688 0.42213871990830787
-1.026754529810808 -0.7189412616644941 1.493786664082007
-0.5235093772296974 0.09230882785948132 0.6335187544593948
-0.0 0.0 1.614
-0.0 -0.0 1.591
-0.0 0.0 1.614
-0.0 -0.0 1.59
-0.0 0.0 1.614
-0.0 -0.0 1.59
-0.9058573190003832 -0.905857319000383 1.5267265751361232
-0.491089733800516 6.014114705929277e-17 0.5852579545428992
-0.5337658021326168 6.536745810760286e-17 0.09411731229547629
-1.4484376198656397 -1.4484376198656392 0.36118820954721526
-0.5204812676744477 6.374057184736691e-17 -0.3004999999999999
-11.42877815820831 -2.015201945823724 -31.884710315886654
-0.053751866421509094 -0.07676562088854655 -0.2574757780953389
-0.20411539783307997 -0.035991051816014176 -0.5694537281962604
-0.053751866421509094 -0.07676562088854655 -0.2574757780953389
-0.41705271212474476 -0.07353764552523291 -0.24449999999999988
-0.19869270595686175 -0.28376259196648895 -0.19999999999999993
