2.2915250221055077 3.6672066170370012 0.7624891481354914
-0.20757692919704399 0.8991144608749863 0.1627083424739138
2.291617544620731 3.667354684012827 1.573976699584728
-0.2086368428094756 0.9037054511160592 0.3375738814624351
1.608527024456402 2.574181338133239 1.7525000000000004
-0.21137246052182077 0.9155547132383466 0.5425000000000001
1.0936069604563636 1.7501369800179496 1.731669820495537
-0.20919952125680186 0.9061426792356325 0.7803441581594588
0.763682454364984 1.2221474009431006 1.7174716414727487
-0.20489217848423244 0.8874855279339758 1.085484975899592
0.5198507982127739 0.8319351823294538 1.6991418422250688
-0.19334543120855197 0.8374710706829096 1.4886976691054503
0.32351886692677145 0.5177384135391492 1.6773513281028465
-0.12517778733661306 0.542204565844812 1.528879894018673
0.15404066734782204 0.24651659883324592 1.6485681785424362
-0.06394505164579631 0.276976448483621 1.6121302916809845
0.0 0.0 1.61
-0.0 0.0 1.595
0.0 0.0 1.609
-0.0 0.0 1.594
0.0 0.0 1.609
-0.0 0.0 1.594
0.14525670061838725 0.2515919856108682 1.647583370789424
-0.07352749324306819 0.27440834053630775 1.6111454839279722
0.3049109577748337 0.5281212706505004 1.6754719428612745
-0.14384715621473745 0.5368448955176972 1.5270005087771013
0.48900000000000005 0.8469728449011809 1.6939456898023622
-0.22776075969021833 0.85001472713438 1.524204710660612
0.7167081848004914 1.241374990274915 1.708279108155321
-0.2508794384169454 0.9362948107463871 1.155195020223419
1.0238183982285143 1.7733054834555722 1.7181712806921197
-0.2569538910912935 0.9589649767552271 0.833052742153755
1.4973579231432947 2.5935 1.7290000000000005
-0.2597827430606936 0.9695223960321193 0.5795000000000001
2.1204163988034024 3.672668935929723 1.5435369068287434
-0.25512765379497704 0.9521493663786966 0.3587791303486266
2.113889841840705 3.6613646076718385 0.7454716267241323
-0.253612567232958 0.9464949863513767 0.17277993677859577
2.1025000000000005 3.6416368229135645 2.5748198952073104e-16
-0.2513132927945477 0.9379139773266854 5.9456602098604e-17
2.109950610828656 3.6545416594162186 -0.7440824413027963
-0.24698550517460935 0.9217624540447076 -0.16826508415925545
-0.2444263985357025 0.9122117380463204 -0.343730244042297
0.8701553668477515 1.5071533058590403 -0.6334213054391384
0.7482459488697552 1.296 -0.8639999999999997
-0.14210721233863655 0.5303513365697703 -0.31699999999999984
0.6404131544474657 1.109228121338465 -1.0747408833958938
-0.06741074303320972 0.2515803179759083 -0.2185477872934234
0.4432020568788691 0.7676484805332324 -1.0563752870610705
-0.04441963531652815 0.16577633585496385 -0.2045338663127671
0.07475 0.12947079786577353 -0.2589415957315472
-0.04244632339681342 0.1584118355114072 -0.2840563324412959
0.043674694884048876 0.08214015453435675 -0.25559639285376706
-0.029299124619616677 0.09583311848136639 -0.2753299378902711
0.04351412615285752 0.08183816867209809 -0.25465670023298115
-0.029199127607263037 0.0955060429916689 -0.2743902452694852
-0.04560998593674691 0.14918354193023353 -0.2701999259807449
0.07253335645042013 0.13641540309670416 -0.26760184976939155
0.4146326720273931 0.7798106396791838 -1.0525450648454757
-0.05017808676139467 0.1641251264740322 -0.2045338663127671
0.597355531993568 1.1234623582413406 -1.067670219689342
-0.07480588638917708 0.2446790293740671 -0.21469106163530416
-0.13748831873524542 0.4497040273461598 -0.2714999999999999
0.695242052533106 1.307560128020717 -0.8549999999999996
0.8051151078741822 1.514201291029141 -0.6241867615693454
-0.2969934356643709 0.9714217567154091 -0.3697237749350479
1.9538456064773801 3.6746491413026625 -0.7338371988204475
-0.29944711843524097 0.9794473914314389 -0.18059410477360752
2.102293658155219 3.9538393208222744 2.7419841832909236e-16
-0.3037742012069234 0.9936006414455939 6.3620401215705e-17
2.037991347220135 3.8329042628637335 0.7654411671558293
-0.306933296396122 1.0039335762172248 0.18510895739294783
1.9865388113739408 3.7361361169886145 1.5401167053954867
-0.30908197513637115 1.01096158770105 0.38477266124137743
1.431954683638362 2.693115070695301 1.7610000000000003
-0.10862336784055299 0.35529102712983884 0.21450000000000005
0.96957887673369 1.8235126537138193 1.7329553957149102
-0.30885424350501556 1.010216711098319 0.8864041137577378
0.6774747807143356 1.2741447496941534 1.7197697748021057
-0.3006926547499305 0.9835213571477582 1.225671108990365
0.46125581043713776 0.8674960099838956 1.7017399184364221
-0.257579471860731 0.8425044900034342 1.525936761468181
0.28709689137014466 0.5399507217184919 1.6801704059652043
-0.1627951361117267 0.5324788972275236 1.5298195866394588
0.13638778048887307 0.2565081083152696 1.647583370789424
-0.08316095488396943 0.272007227037873 1.6131150994339967
0.0 0.0 1.61
-0.0 0.0 1.594
0.0 0.0 1.611
-0.0 0.0 1.596
0.0 0.0 1.611
-0.0 0.0 1.595
0.12720044815619683 0.26079956750525846 1.6456137552833996
-0.092433607850069 0.26844668938099175 1.61016067617496
0.2674782642190742 0.5484117126673299 1.6764116354820606
-0.18105650949762872 0.5258262843570293 1.527940201397887
0.42938453827990136 0.8803687683500341 1.6965437660137155
-0.28617440776784064 0.8311108279517994 1.5224726598530434
0.6292137163930192 1.2900792998949928 1.710577241484678
-0.3601556935407404 1.0459680828378983 1.3183624866077612
0.8993039495754876 1.843846342562056 1.7213852187405523
-0.3701091185583545 1.074874928044184 0.9538968127748244
1.3207694713815892 2.7079787210143285 1.7395000000000005
-0.13138883626917092 0.38158088749809393 0.23300000000000007
1.8347546230512402 3.7618044519973313 1.5233577183725289
-0.3759928765444144 1.091962601988911 0.42034275614724703
1.8675831013407886 3.829112807147595 0.7512020165871409
-0.3664709947412735 1.0643090492802858 0.19847986707330148
1.9029691482113853 3.9016649549846845 2.65809587754933e-16
-0.36300849221972964 1.0542532117932382 6.827405905246494e-17
1.7937604683474289 3.6777539791258107 -0.7215081782060955
-0.35781419958990485 1.0391678906358697 -0.19379136627629423
0.7723764971309106 1.5836064992130663 -0.6412877687356289
-0.1536629093705969 0.4462694928894017 -0.2724999999999999
0.6579170721196592 1.34892990040754 -0.8664999999999997
0.5611414860868706 1.150510544593426 -1.0740980957862074
-0.10599486212082253 0.30783143154904186 -0.27318473411677924
0.38801042878333525 0.7955392727073022 -1.0548431981748325
-0.05859592922220067 0.17017493503463782 -0.21449244407331383
-0.04899800724580206 0.14230054562769714 -0.26067364653911607
0.08307133231653016 0.17032147177369214 -0.3282236280343023
0.03769938586431897 0.08467420700486519 -0.25465670023298115
-0.03591273383777523 0.09355587020404732 -0.2753299378902711
0.03769938586431897 0.08467420700486519 -0.25465670023298115
-0.036035302895242045 0.09387517351532393 -0.276269630511057
-0.052500904608386474 0.13676953248184 -0.2537454433088405
0.07829680379209153 0.17585750059620064 -0.33341978045700893
-0.06357783583871122 0.1656259249003243 -0.2114282663008379
0.35870291671637977 0.8056599418516902 -1.0510129759592377
0.5172200531001993 1.1616952594637386 -1.0670274320796553
-0.11804608382668141 0.30752056210681555 -0.2763986721652119
0.7562684381436799 1.698606723013811 -1.0734999999999995
-0.1700749500181868 0.44306039247072326 -0.2739999999999999
-0.42801651721436107 1.1150211485034582 -0.4347076021669249
0.7063193160436854 1.5864191579529914 -0.6320532248658358
1.6418847806948145 3.6877335959542124 -0.7117838802567473
-0.4284491716639655 1.116148251878914 -0.21080888768765338
1.7229364200690895 3.869778558574057 2.593801920594094e-16
-0.43326685100026807 1.128698735635117 7.40298990084575e-17
1.728004621594884 3.881161925578549 0.7491182384551378
-0.43903687771826455 1.1437301691411608 0.21601833301766143
1.6759795459153461 3.7643116924371567 1.4997583284830578
-0.4488953717126225 1.1694124240402122 0.4559128510531165
1.2476491885910175 2.8022659585071814 1.7710000000000004
-0.4360498262327598 1.1359486339805949 0.7025000000000001
0.8428194238771319 1.8930034197888033 1.738740484202089
-0.43979029369847356 1.1456928848723689 1.029745750717836
0.5882518677928966 1.321235327380687 1.7235999970177005
-0.4263861381791827 1.1107738659076092 1.4179482642132284
0.39982212014351154 0.8980151848626765 1.7026059438402066
-0.31518461162509154 0.8210839851042888 1.5233386852568276
0.24887159155448935 0.558974746611453 1.6811100985859901
-0.19966499461343287 0.5201450940696007 1.530759279260245
0.11816244558757866 0.2653971980841576 1.647583370789424
-0.10187041402723403 0.2653815015981774 1.6121302916809845
0.0 0.0 1.61
-0.0 0.0 1.594
0.0 0.0 1.61
-0.0 0.0 1.594
0.0 0.0 1.61
-0.0 0.0 1.594
0.10876318582668935 0.26919833137531246 1.6465985630364117
-0.11093433866654566 0.26134492419867494 1.61016067617496
0.2284433103744268 0.5654170342586424 1.6754719428612745
-0.21729525233908298 0.5119155343052978 1.527940201397887
0.36748906814100957 0.9095673613300184 1.6991418422250688
-0.3625984872380461 0.8542285040038645 1.6073431494239183
0.5388935629768649 1.3338083731147052 1.7144074637002729
-0.4993003706861478 1.1762779595376378 1.5228963529205284
0.7719366549609522 1.9106102663640046 1.7290986700567907
-0.524404101851893 1.235418643995462 1.126163892170817
1.1312484473894455 2.799938160081213 1.7435000000000005
-0.5292311423141578 1.2467904386884157 0.7820000000000003
1.529153383849272 3.784787437222376 1.4857355026067054
-0.5334938807959039 1.256832821225525 0.4969552682521968
-0.5248604409427645 1.2364937115223096 0.2368561143376931
1.559036808022687 3.858751507529059 0.733837198820448
1.5561157890496982 3.851521731870435 2.5435914018290525e-16
-0.5181094763767771 1.2205894356779359 8.119408278346952e-17
1.5121845423769509 3.7427880807765295 -0.7117838802567473
-0.5117774094236633 1.2056720207658884 -0.2309520762970173
-0.5088936811996716 1.1988783828070046 -0.4740399186493768
0.684317260175641 1.6937446542265882 -0.6648871586251
0.700744664858389 1.7344039075926072 -1.0799999999999996
-0.1864490789099111 0.43924650365557355 -0.2754999999999999
0.47808418853715484 1.18329988987451 -1.0708841577377746
-0.13529146919923266 0.3187267277887835 -0.2905399995783158
-0.0683147388463945 0.16093943913191028 -0.208364088528362
0.11630276627248697 0.2878594478169807 -0.36999946602646633
-0.055483820245476864 0.13071168919024648 -0.24595121467478057
0.07379749890293465 0.18265521934965712 -0.34121400909106886
0.03181795573581901 0.08741911491736938 -0.25559639285376706
-0.042495923785064116 0.09113280265051678 -0.276269630511057
0.03181795573581901 0.08741911491736938 -0.25559639285376706
-0.042495923785064116 0.09113280265051678 -0.276269630511057
-0.058955247512827554 0.12642993629161267 -0.24162108765585844
0.20504107592373844 0.563345726161152 -1.038364459137542
-0.09317724732004526 0.19981925171186787 -0.2627532439898094
0.43413835829009095 1.192785336321125 -1.0650990692505957
-0.14762743316098142 0.31658805207078705 -0.29311115001706195
0.6353449946973213 1.7455960264944066 -1.0724999999999996
-0.606816568285733 1.301322330168616 -0.5226067790016218
1.0249248436451872 2.8159578645532104 -1.0907022370655575
1.3550433093770307 3.7229508948964543 -0.6985866187540606
-0.612643074349825 1.3138173127454522 -0.2556101175257214
1.4070708696418015 3.8658954419132265 2.5190984658461055e-16
-0.624207172591013 1.3386166014531322 9.044016611703204e-17
-0.6301233794603499 1.3513039480275915 0.26290334098773266
1.4069142190573842 3.8654650479697956 0.7253284381147683
1.3774938475582539 3.784633241603969 1.4658983342938163
-0.6358071504093314 1.3634928341622736 0.5475742494643958
1.0503185786464808 2.8857265780648786 1.7730000000000004
-0.6298828174763175 1.3507880611880223 0.8605000000000003
0.7134331621146154 1.960141503200014 1.7503106611764465
-0.622560425369665 1.3350851406406217 1.2360805734272151
0.49509389100493284 1.3602592860459806 1.7251320859039383
-0.5606934066139164 1.202410890767624 1.5811157305975707
0.33671883110412093 0.9251273851637267 1.70520402005156
-0.3957820021201649 0.8487572425598227 1.6220655812882536
0.2091562678516337 0.5746521230597661 1.6801704059652043
-0.2351730204023785 0.5043301697700365 1.528879894018673
0.09936143512902913 0.2729932993816127 1.647583370789424
-0.11998756678506248 0.2573141673456694 1.61016067617496
0.0 0.0 1.611
-0.0 0.0 1.594
0.0 0.0 1.611
-0.0 0.0 1.594
0.0 0.0 1.611
-0.0 0.0 1.594
0.08966625759994853 0.275964364855477 1.6456137552833996
-0.12881577391316168 0.2528151911567475 1.6091758684219477
0.18833964541042503 0.5796498260770898 1.674532250240489
-0.25216480676200465 0.4949012988697867 1.5260608161563154
0.3033001799790109 0.9334619707436931 1.7000078676288533
-0.4240271267567366 0.8322000935919356 1.6177354542693316
0.44493634117361236 1.3693732523210185 1.7159395525865109
-0.6107781468337234 1.1987196075088333 1.603331019448021
0.6412765154620261 1.9736461744145894 1.7413116346408353
-0.7442425650461755 1.4606582768037246 1.3755654847291943
0.9342494365483929 2.875324110480245 1.7455000000000005
-0.7509495541758683 1.4738214841299688 0.9550000000000002
1.236442252488702 3.8053779651523656 1.4563217702806979
-0.7593685100716427 1.4903446154164002 0.6087958551196905
-0.7506697580508819 1.4732723533156706 0.29155529030277616
1.2881964308183163 3.964660947777452 0.7350527360641164
-0.7440904290731171 1.460359693144735 1.003598051901256e-16
1.2827295436504067 3.947835599141182 2.5417544316303316e-16
1.224897385788737 3.7698465189710006 -0.6989339151093945
-0.7314447434015738 1.4355411375964484 -0.284088418663098
0.7454079995628226 2.294129928733237 -0.8779657079169917
-0.727372645883231 1.4275491962275073 -0.5831443443702652
0.5775165522977461 1.7774131854529844 -1.0789999999999995
-0.22528486625276054 0.4421464452389907 -0.28649999999999987
-0.14954406680834367 0.29349675655401947 -0.2763986721652119
0.3910626812636645 1.2035671761287934 -1.0618851312021629
-0.07762397852736287 0.15234563573690865 -0.20376782186964812
0.09951477987856244 0.30627499973787076 -0.3837882660026079
-0.07354646095780655 0.14434305691851557 -0.28059223082615814
0.18123846720090664 0.5577946468071074 -1.0158477986391465
0.025642399600343257 0.08942567474097743 -0.25559639285376706
-0.04858369415007838 0.08764730437424231 -0.2753299378902711
0.025642399600343257 0.08942567474097743 -0.25559639285376706
-0.04858369415007838 0.08764730437424231 -0.2753299378902711
-0.08023599215076876 0.14474956153157 -0.28665440865264924
0.01874334019555594 0.06536579532380568 -0.11777945491468367
0.0877022571575339 0.30585411836863347 -0.3791919993438941
-0.10533081052949948 0.19002181229666323 -0.25892302177421456
0.3496651696088119 1.219427363001852 -1.064456281640909
-0.18049345776231962 0.3256188173172903 -0.3123947783076581
-0.23847902997121134 0.4302275586988705 -0.28399999999999986
0.35472150322106466 1.2370608938741003 -0.7429999999999997
0.36132507303747263 1.2600902786327535 -0.47711809993930787
1.1012718590000785 3.840591387672403 -0.7044906567947363
-0.8904335686852719 1.6063846808049882 -0.323853851348825
1.1298375214938796 3.9402116916511694 2.5099136148525007e-16
-0.9065939898606502 1.6355388523506704 1.1450447572027753e-16
1.121087694767149 3.9096974195432637 0.7171669737644226
-0.9147832265957002 1.6503126264999237 0.33270990840983866
1.1166110321609635 3.89408544171025 1.4744488378769582
-0.9284557821229997 1.6749785696077721 0.697037052097713
0.8493264525306513 2.9619533380915537 1.7790000000000004
-0.916968664537193 1.6542552609125585 1.0920000000000003
0.5783411229218212 2.01691518554473 1.7605952629314312
-0.8712708887045306 1.571814291000747 1.5079797323246213
0.3995325048287654 1.3933354281237742 1.7274302192332953
-0.6569152325330913 1.185106450654929 1.6148216860948057
0.27136497680183563 0.9463621396512749 1.70520402005156
-0.45450901898094087 0.8199559754431835 1.6237976320958225
0.16846679443313742 0.5875135322137007 1.6792307133444182
-0.2696146303345645 0.4863976686434059 1.527940201397887
0.08012420967084198 0.2794263261074318 1.6485681785424362
-0.1375604257542966 0.24816557729622019 1.6091758684219477
0.0 0.0 1.61
-0.0 0.0 1.594
0.0 0.0 1.61
-0.0 0.0 1.593
0.0 0.0 1.61
-0.0 0.0 1.593
0.0702815527243073 0.281883911645946 1.647583370789424
-0.14595861055993467 0.2429159208272889 1.6072062529159235
-0.2860731154270352 0.476105616457306 1.5260608161563154
0.14744653162658936 0.5913757377639146 1.674532250240489
-0.4805305238910806 0.7997370915550708 1.6160034034617627
0.23696249673987446 0.9504046638873385 1.6965437660137155
0.34879636247850704 1.3989458003154536 1.7182376859158677
-0.6965504358171561 1.1592545987528042 1.61175750832233
0.5037077068691972 2.0202612667860387 1.747096723128014
-0.9630771569373644 1.6028295522113252 1.5690445552448424
0.7347533491747434 2.9469347237216668 1.7535000000000005
-1.128025187617711 1.8773491753267497 1.2645000000000002
0.9529766666656835 3.8221806447672684 1.4337484408212038
-1.1397669616714647 1.8968907689708079 0.8054574375319501
0.9613248631841995 3.855663432193143 0.7006703968860643
-1.1412303508527837 1.8993262575599705 0.39070839975059346
0.9623653006954781 3.859836399125914 2.4358224835040857e-16
-1.1021814803075163 1.8343380235025204 1.310372075087668e-16
0.9591806441585098 3.8470634394075813 -0.6991075632870614
-1.0950739233294042 1.8225090622542115 -0.3749064155829025
-1.0918531913082057 1.8171488640331817 -0.7715974433427085
0.31303646707982974 1.2555206936652026 -0.4709617373594458
0.30693289322526357 1.2310405960228807 -0.7324999999999997
0.3080066993438579 1.235347397129653 -1.0683130072990283
-0.19332560708697608 0.32174784128781214 -0.3149659287464043
-0.1314308569483893 0.2187376785669503 -0.30411964391823426
0.07635265892864335 0.30623378865576817 -0.37612782157141816
-0.08498128236015895 0.14143260461584853 -0.2857883832488648
0.01927080628528708 0.09066201548368819 -0.25465670023298115
-0.054579313599261915 0.08404477276055222 -0.2753299378902711
0.01927080628528708 0.09066201548368819 -0.25465670023298115
-0.054579313599261915 0.08404477276055222 -0.2753299378902711
-0.09041007981249448 0.13921931427894038 -0.2875204340564337
-0.13863454048987991 0.21347847167490028 -0.30335359947511525
0.014299807288029886 0.0672753039270048 -0.08196675541373064
0.26327264121341715 1.2386003948545596 -1.0625279188118495
-0.19108570947575634 0.29424618910736944 -0.29439672523643506
0.2621627095242872 1.2333785768104149 -0.7279999999999996
-0.30752964862060767 0.4735541312450834 -0.32599999999999985
0.2672703756788276 1.2574082567902296 -0.4678835560695148
-0.5394301194341402 0.8306495413429484 -0.3604892310652548
-1.4015210767928905 2.1581532022010594 -0.4537426882436889
0.7553339832234132 3.553567000185161 -0.640588127413306
0.8224986488750564 3.8695519085029346 2.4223513687134645e-16
-1.4057133493737848 2.1646087358671395 1.5804066942996593e-16
0.8204454515522408 3.859892374557316 0.6958082479113901
-1.4422847973578579 2.220923827293781 0.46693994974637587
0.812556646526494 3.8227784649053826 1.4224617760914566
-1.4381391229695766 2.2145400485518834 0.9610766027451294
0.6424426837792971 3.022455193722225 1.7840000000000005
-1.3838834187927342 2.1309935906028747 1.4670000000000003
0.4368765002107701 2.055342337015158 1.7631664133701774
-1.0321966053341074 1.5894433883223407 1.5902565463644984
0.3017660266950605 1.4196975352072596 1.7297283525626523
-0.7379838670521889 1.136395500734065 1.6148216860948057
0.20437719207385752 0.9615190915213307 1.7026059438402066
-0.5097821367740654 0.7849956515969169 1.6211995558844694
-0.3027009713269644 0.4661186202590351 1.5270005087771013
0.12700243551853396 0.5974994821175904 1.6782910207236326
0.060473339428808254 0.2845046934974817 1.6495529862954486
-0.15425276432003154 0.23752842734796478 1.6062214451629113
0.0 0.0 1.611
-0.0 0.0 1.595
0.0 0.0 1.611
-0.0 0.0 1.594
0.0 0.0 1.61
-0.0 0.0 1.594
0.05044712271258765 0.28609984989192183 1.647583370789424
-0.16244842027075854 0.23200038760808908 1.6062214451629113
0.1057756819873287 0.5998837022124014 1.6735925576197028
-0.318391529934705 0.45471022883982115 1.5251211235355293
0.17000156593592486 0.9641267901989515 1.695677740609931
-0.5348600268973505 0.7638592812994847 1.615137378057978
0.25058442387489205 1.4211348874010525 1.7197697748021057
-0.7746131234651806 1.106262188273081 1.6094593749929729
0.3627515981927266 2.057266543867678 1.7528818116151927
-1.0826447429230173 1.5461769316153358 1.583828670267633
0.5285988221292303 2.9978328898128375 1.7575000000000005
-1.5249665182189132 2.177877893342803 1.5350000000000004
0.676364151785287 3.8358517174610496 1.4176734940848972
-1.8336288230549629 2.618693348750834 1.1635525275939254
0.682672206078035 3.871626471088673 0.6932035252463862
-1.8403220949284853 2.628252331635588 0.5657457628388592
0.683826523652372 3.878172931362075 2.4113295475211387e-16
-1.4362353966230197 2.051156718899635 1.5332577925324863e-16
0.6818171557197208 3.866777239536708 -0.6923352843580511
-1.8403220949284853 2.628252331635588 -0.5657457628388589
0.22175606327532094 1.2576411300433215 -0.4648053747795838
-0.5664738074752399 0.80900843901738 -0.3594631706352778
0.21730449444572913 1.2323950286712806 -0.7224999999999997
-0.3323135507128512 0.4745929350639529 -0.33449999999999985
-0.20387465938160718 0.29116318842106975 -0.2982534508945543
-0.14636906711836117 0.20903669145379025 -0.30411964391823426
0.01227807867538447 0.06963244437154381 -0.08426488874308757
-0.09550047665244918 0.1363888153741171 -0.2883864594602181
-0.060309028118883265 0.08003278346212371 -0.2753299378902711
0.008853600732363725 0.0629966425851395 -0.17478282746617896
-0.060309028118883265 0.08003278346212371 -0.2753299378902711
0.008948800740238601 0.06367402583874314 -0.17666221270775076
-0.10020220135481604 0.13297281242287423 -0.2883864594602181
0.041056064783219305 0.29212908027876316 -0.5109549882328188
-0.13113850242961522 0.17402667056427637 -0.2596890662173335
0.009124791979675959 0.06492626857524057 -0.07813653319813574
-0.2143729302360828 0.284482486965387 -0.2988962385042408
-0.34554704625829047 0.45855641836329253 -0.33149999999999985
0.17681447345045692 1.2581003508686874 -0.4624112337763041
-0.5909695874691141 0.7842431307860375 -0.3574110497753238
-1.4828655958997552 1.9678291101978331 -0.4344677405226596
0.4217297701690589 3.0007632376889726 -0.5343154426811445
0.5461152481672968 3.885811901741922 2.402757019927107e-16
-1.505139372903273 1.997387410628279 1.531420822333765e-16
0.5442602916286425 3.8726132001504423 0.6895569135153807
-1.5136845451350822 2.008727237188356 0.44349744576134026
0.5385517763823827 3.8319950036074366 1.4084389502151042
-1.9306891594445506 2.562111051199552 1.1676567693138333
0.43233193070513 3.076201529759189 1.7935000000000005
-1.6156800051292615 2.144079784202423 1.5500000000000005
0.29297192114951615 2.084603537256001 1.7663803514186103
-1.1405561922668146 1.5135691887147686 1.5902565463644984
0.20226622221615037 1.4391989534178322 1.7320264858920094
-0.8139097613920658 1.080094734121644 1.61175750832233
0.1367375716932643 0.9729383775385928 1.7017399184364221
-0.5623961391355892 0.746324884139195 1.6186014796731159
0.0850136070322667 0.6049032454680596 1.6782910207236326
-0.3344783982702569 0.4438678263684333 1.5270005087771013
0.04050415238666353 0.2882020195229017 1.6505377940484607
-0.17013264559845764 0.2257736463300136 1.6032670219038745
0.0 0.0 1.612
-0.0 0.0 1.594
0.0 0.0 1.611
-0.0 0.0 1.594
0.0 0.0 1.611
-0.0 0.0 1.594
0.0303850705671 0.2890946353426611 1.6485681785424362
-0.17790839201319517 0.21969856742081806 1.6032670219038745
0.06370799685935505 0.6061411007683718 1.674532250240489
-0.34911968605899185 0.43112690760465905 1.5241814309147437
0.10233336553903272 0.9736369355655394 1.695677740609931
-0.5858972840673985 0.72352289011644 1.612539301846625
0.15090784395385784 1.4357922263779537 1.7205358192452247
-0.8478725573692788 1.047035410199425 1.605629152777378
0.2185204407762554 2.079083114242656 1.754167386834566
-0.1933170427905812 0.2387266664518537 0.2577578314843023
0.31828345500291094 3.02826479064685 1.7580000000000005
-1.6802579553049521 2.074945771251486 1.5415000000000005
0.40409610969661564 3.8447176621871106 1.4070708696418015
-2.0153812155913933 2.4887885324679684 1.1656046484538793
0.40795296782739954 3.8814132160916204 0.6881677280940453
-1.5723301057950643 1.9416659767807822 0.44054542674100244
0.40901987676632795 3.891564176576053 2.3960214625317965e-16
-1.5619732105856963 1.9288762763362022 1.5197866777418655e-16
-1.5388630873823985 1.900337650905275 -0.43116842514698794
0.31551245177667914 3.001900456048654 -0.5322316645491414
0.040272096493828985 0.3831634033779085 -0.14022825876352416
-0.61443106895524 0.7587591799396184 -0.35535892891536974
-0.36406497377350244 0.44958280090690644 -0.33399999999999985
-0.22658107259743931 0.27980432227524 -0.30211017655267347
0.034912023517203135 0.3321657155770605 -0.28025539782333114
0.00732366651423442 0.06968003235761219 -0.0834988442999686
-0.13308686611378473 0.16434859253607392 -0.2520286217861437
0.005487744321551805 0.05221239950683434 -0.09093266739736607
-0.10415252471874806 0.1286176566211287 -0.28665440865264924
-0.06529615230950084 0.07511463072994094 -0.27345055264869933
0.0020040820084201534 0.028659707953497586 -0.0789341801460163
-0.06529615230950084 0.07511463072994094 -0.27345055264869933
0.0020040820084201534 0.028659707953497586 -0.0789341801460163
-0.09480052968912826 0.10905553434219055 -0.25028134169370275
0.0031739195553576976 0.04538916428682199 -0.07880831174438392
0.004663214089887403 0.06668706838307646 -0.0796686220843737
-0.14169342265951496 0.16299963693851957 -0.2573909328879766
-0.2341977940585541 0.26941374332581297 -0.29953902611392735
0.02367239567388508 0.33853103002906204 -0.28475491109113693
2.038444267854784 29.151111157498782 -16.871499999999994
-0.36873829678166703 0.4241848871501144 -0.32449999999999984
0.029759538207747804 0.4255812238628688 -0.1552771450698536
-0.636221630849303 0.7318892641196661 -0.3529647879120901
-1.595201192895092 1.835069055467782 -0.4287373506596509
0.21048673833264564 3.0101005963590213 -0.5320580163714744
0.2724687864445532 3.8964851803148735 2.391735198734781e-16
-1.6204658016065527 1.8641326631502473 1.5124387969469814e-16
0.2715581190042259 3.8834620291798987 0.686431246317376
-1.6300901618770018 1.875204223145085 0.43811435225366546
0.26836024101876543 3.8377302433801423 1.4002304667752883
-2.0942295348789557 2.409135494393901 1.1618424268772969
0.2163917662168697 3.0945464293678873 1.7910000000000004
-1.7573305885141695 2.021577590069805 1.5465000000000004
0.1470574105971371 2.1030189495259113 1.7689515018573563
-1.2403436818380076 1.4268521856826317 1.5863998207063792
0.10138006785803284 1.4498025155205372 1.7320264858920094
-0.8851621850069101 1.0182626128986683 1.607927286106735
0.06853573545360303 0.9801066793802772 1.7017399184364221
-0.6114470150191527 0.7033893287676236 1.6142713526541939
0.04263445891722396 0.6097011680107162 1.6792307133444182
-0.3644018946757021 0.41919642716640565 1.5260608161563154
0.02030152969932799 0.2903254007308151 1.6505377940484607
-0.18512561409247325 0.2129626578193698 1.600312598644838
0.0 0.0 1.612
-0.0 0.0 1.593
0.0 0.0 1.611
-0.0 0.0 1.594
0.0 0.0 1.611
-0.0 0.0 1.594
0.010150891956502948 0.29068351311392826 1.6495529862954486
-0.1925635579170144 0.20649913420123203 1.6012974063978502
0.021282477930838505 0.6094504285155511 1.6754719428612745
-0.37810988368430015 0.4054732082141158 1.5232417382939576
0.034166607271748556 0.9784036196516946 1.695677740609931
-0.6332354773180296 0.6790619119533998 1.6082091748277028
0.050406870253299846 1.443463903772554 1.7213018636883435
-0.9166527800558252 0.9829897592890046 1.6017989305617832
0.07293189472928494 2.0884962098707347 1.7535245992248796
-1.727712565386633 1.8527448950370993 2.125698625233386
0.10650884995016792 3.050014404045052 1.7620000000000005
-1.8161808083468591 1.9476154706185071 1.5375000000000005
0.13449147283349835 3.8513318804524097 1.4026246077785678
-2.176390534246635 2.333893109719994 1.1615004067339714
0.13582745355880355 3.8895893628833424 0.686257598139709
-1.697227387686241 1.8200535443516566 0.4388089449643332
0.1362825346232667 3.902621179509569 2.391122875335207e-16
-1.680443959193996 1.8020555207896363 1.508764856549539e-16
-1.6528993276991844 1.77251751984544 -0.4273481652383154
0.10510130389241427 3.0097075586278494 -0.5310161273054729
0.012822766612508621 0.3671959925035095 -0.13372987604033648
-0.6594540223026465 0.7071778592172774 -0.3519387274821131
0.012724241154659675 0.36437459253773186 -0.2104999999999999
-0.38568002206520297 0.41359118774435294 -0.32649999999999985
0.011789943392820622 0.33761980518804763 -0.2834693358717639
-0.24189020797520752 0.2593954902939755 -0.29761066328486774
0.0023105952986603854 0.06616679220675262 -0.07890257764125472
-0.1499259927207519 0.16077594341312273 -0.2619871995466905
-0.03546391472324991 0.038030392484196866 -0.09006664199358162
0.0016402763450175505 0.046971368869897494 -0.08140638795573724
1.7591862698243373e-18 0.028729692039356186 -0.0789341801460163
-0.02321709721420563 0.023217097214205635 -0.0902104915954472
1.7382435761359524e-18 0.028387671896030517 -0.07799448752523039
-0.022975252451557654 0.02297525245155766 -0.0892707989746613
-0.036062445840513914 0.03606244584051392 -0.08833459118601274
2.8779199779962794e-18 0.04699999999999999 -0.08140638795573724
-0.15771825875219916 0.1577182587521992 -0.2658174217622853
3.817860775360864e-18 0.06235039813959433 -0.07430631098254085
-0.2502539518339022 0.25025395183390226 -0.2969678756751812
2.2562119700250067e-17 0.3684673771402284 -0.30918084025922543
2.2272080013223048e-17 0.36373066958946426 -0.2099999999999999
-0.4078400421733992 0.40784004217339925 -0.33299999999999985
2.376384571870511e-17 0.38809305238458014 -0.14125431919350118
-0.31429101053584313 0.3142910105358432 -0.1617755277930413
-1.7137523954275664 1.7137523954275666 -0.4273481652383154
1.8476558269529075e-16 3.0174509552294055 -0.5320580163714744
2.3898982285360596e-16 3.903 2.3898982285360596e-16
-1.7416040020624663 1.7416040020624668 1.5081525331499655e-16
2.3789171792849933e-16 3.8850665856331603 0.6850420608960405
-1.7576233425677277 1.757623342567728 0.43828800043133237
2.3539441364460676e-16 3.844282511635151 1.3992044063453113
-2.2531941157019957 2.253194115701996 1.159790306017343
1.8989599649369456e-16 3.1012369709520744 1.7905000000000004
-1.8867194743787425 1.8867194743787428 1.5405000000000004
1.2922794131848014e-16 2.1104524407927845 1.770879864686416
-0.22696191735585503 0.22696191735585505 0.26932800845866
8.910965768471126e-17 1.4552711483303247 1.7343246192213662
-0.9522183057229314 0.9522183057229315 1.604863108334259
6.022200634807109e-17 0.9834999999999999 1.703471969243991
-0.6579628598940823 0.6579628598940824 1.6116732764428405
3.744553631483231e-17 0.6115320162662957 1.6801704059652043
-0.3927558945403118 0.39275589454031185 1.5260608161563154
1.784197976794072e-17 0.2913816421251091 1.652507409554485
-0.1991618180376739 0.19916181803767394 1.5973581753858015
0.0 0.0 1.611
-0.0 0.0 1.594
-0.0 0.0 1.611
-0.0 0.0 1.595
-0.0 0.0 1.612
-0.0 0.0 1.595
-0.010156952190506793 0.2908570555098171 1.6505377940484607
-0.20611813948868363 0.19220827459982437 1.5983429831388136
-0.021294414261702612 0.6097922403094467 1.6764116354820606
-0.40547320821411575 0.3781098836843002 1.5232417382939576
-0.034218956516802186 0.9799027058922233 1.6982758168212844
-0.677964881400971 0.632212479777936 1.6056110986163494
-0.05049660210955832 1.4460334879359231 1.7243660414608195
-0.9815794439959067 0.915337639768801 1.5995007972324262
-0.07309230212238427 2.093089676607987 1.7573813248829986
-1.3731713751847385 1.2805030232121677 1.5754724313417081
-0.1063879545472729 3.046552412667021 1.7600000000000005
-1.938114907347197 1.8073213897695577 1.5300000000000005
-0.13458985723205932 3.854149241008703 1.4036506682085448
-2.3338931097199938 2.1763905342466354 1.1615004067339714
-0.13596493073851845 3.8935261942222934 0.6869521908503767
-1.8164523303739124 1.6938692013235852 0.43794070407599844
-0.13638723311337372 3.905619351990626 2.392959845533928e-16
-1.8049809355961126 1.6831719526342461 1.511214150147834e-16
-1.7746782482320858 1.654914239516778 -0.42786910977131626
-0.10324536196625618 2.9565603355520147 -0.5216391257114587
-0.01344586780339774 0.3850392760266979 -0.14022825876352416
-0.31750842658734907 0.29608139776853526 -0.15801330621645895
-0.012633569602488659 0.3617780990042088 -0.2089999999999999
-0.4211916383614007 0.39276755692704446 -0.33249999999999985
-0.011789943392820579 0.33761980518804763 -0.2834693358717639
-0.26611848356293377 0.24815950062251313 -0.3053241146011062
-0.1654769943901146 0.15430979367749906 -0.2696476439778802
-0.7584809479903496 21.7200525369176 -25.900728666295763
-0.0017100753384225466 0.04897015052393569 -0.084870489570875
-0.11518820800501933 0.1074147417098435 -0.2727980021920982
-0.025296336122110692 0.02198976950629238 -0.09208987683701902
-0.0021233726041594513 0.030365642950729584 -0.08363264324994583
-0.025296336122110692 0.02198976950629238 -0.09208987683701902
-0.0020995144850115923 0.030024455951283183 -0.08269295062915993
-0.003383188976590078 0.04838185643760147 -0.08400446416709055
-0.12339501636642321 0.10726565123994793 -0.28319030703751147
-0.17221687831301916 0.14970584834561848 -0.2719457773072371
-0.021432849374674826 0.3065040258376015 -0.3661692438108714
-0.025008309650966662 0.35763548996298206 -0.3008246013333004
-0.3041022081317116 0.2643520164695268 -0.3381062826951197
-0.025432979781491425 0.36370855576881095 -0.2104999999999999
-0.37124347596496904 0.3227170301571447 -0.28399999999999986
-0.02687535388805422 0.38433546648408856 -0.14022825876352416
-0.3226837356341551 0.2805046918957684 -0.15561916521317928
-1.841758250080666 1.601016021058744 -0.43030018425865335
-0.17799319158612453 2.5454212288401514 -0.44992242833501644
-0.2733756206032272 3.909453512968251 2.3996954029292384e-16
-1.8724344685326972 1.6276824509254484 1.5191743543422916e-16
-0.2719016025850563 3.8883740732340097 0.6872994872057107
-1.8900691000626042 1.6430120022406725 0.44158731580700405
-0.2688190885241716 3.8442920684176753 1.4026246077785678
-2.4098446894172727 2.0948460287072987 1.1621844470206226
-0.21651258797355166 3.0962742609867417 1.7920000000000005
-2.005237648345995 1.7431264938769717 1.5340000000000005
-0.1475917761879699 2.110660733499479 1.7753793779542217
-1.4210707748816487 1.2353179781028456 1.579971944609514
-0.10160426084312371 1.4530086245774156 1.7358567081076042
-1.0148667871291155 0.8822102387015037 1.602564975004902
-0.06867524840109138 0.9821018074807969 1.70520402005156
-0.7011252000269551 0.6094788379321813 1.6090752002314872
-0.04270603327466759 0.6107247290090554 1.6820497912067762
-0.4186801754088115 0.3639531238694513 1.5241814309147437
-0.020337868952966437 0.2908450762691161 1.6534922173074973
-0.21217633415972903 0.18444207336351645 1.5944037521267649
-0.0 0.0 1.612
-0.0 0.0 1.594
-0.0 0.0 1.612
-0.0 0.0 1.594
-0.0 0.0 1.612
-0.0 0.0 1.594
-0.030439524098582287 0.28961272608700284 1.6515226018014728
-0.21875391756090054 0.1771434296396741 1.5963733676327891
-0.06385100021930877 0.6075016868531494 1.6782910207236326
-0.4305953084584141 0.3486892055583027 1.5223020456731717
-0.10259468669720195 0.9761232403039601 1.7000078676288533
-0.7200257332898834 0.5830653423076743 1.604745073212565
-0.15137817116119415 1.4402670908412867 1.7258981303470575
-1.041040932660115 0.8430183251705997 1.5964366194599502
-0.21924110181216117 2.0859397459862192 1.7599524753217448
-1.4561731325217808 1.1791857522836953 1.5722584932932755
-0.31909817374438626 3.0360163216809286 1.7625000000000004
-2.053408870609238 1.6628177170403533 1.5255000000000005
-0.40507835595256303 3.854063111049986 1.4104910710750582
-2.488788532467968 2.0153812155913937 1.1656046484538793
-2.4789342131623777 2.007401345159722 0.5624464474631876
-0.40898237223776424 3.8912073448226105 0.6899042098707145
-0.41058780371534315 3.9064820050065774 2.405206313525402e-16
-2.0975169499723645 1.698535735443511 1.6526608554493531e-16
-1.9332472437320676 1.5655127501924846 -0.4386352967866659
-0.22646897028016144 2.1547083208179574 -0.3820259908672467
-0.04017387186823432 0.3822288584916209 -0.1398862386201985
-0.3235132980878257 0.26197590331777804 -0.15151492349327125
-0.03802020793550134 0.3617381149236852 -0.2099999999999999
-0.3728575923689014 0.30193412495586885 -0.2769999999999999
-0.03491202351720317 0.3321657155770605 -0.28025539782333114
-0.29647351594270105 0.2400795194755847 -0.3201082296238966
-0.17983432617929057 0.14562696596037236 -0.27577599952283205
-0.031511922891522444 0.29981591904330385 -0.3592748438228006
-0.11346331037271773 0.09188077709327623 -0.2528794179050561
-0.004965102005213543 0.04723979002999298 -0.08227241335952168
-0.0042364003504321 0.03014355478536244 -0.08363264324994583
-0.026222345434689 0.019759954605504407 -0.0902104915954472
-0.0042364003504321 0.03014355478536244 -0.08363264324994583
-0.025949196003077657 0.019554121745030403 -0.0892707989746613
-0.11460419569178651 0.08636045582231888 -0.2485492908861339
-0.006541135745123071 0.0465425992308538 -0.08140638795573724
-0.18583378980610046 0.14003580495433832 -0.27730808840907
-0.04267182131671989 0.30362578539597795 -0.36540319936775245
-0.04648317235123323 0.33074495714833196 -0.28025539782333114
-0.29977724432911756 0.22589835659286134 -0.3149659287464043
-0.051706272169640535 0.3679092434532178 -0.2144999999999999
-0.37555978155545683 0.28300459444683507 -0.2714999999999999
-0.05335821388149878 0.3796634194929175 -0.13954421847687282
-0.3242038588512616 0.2443051308963227 -0.14775270191668888
-1.9922106859037225 1.5012384310208151 -0.4398508340303344
-0.2565739778214097 1.8256187133421375 -0.32506938859249357
-0.4915593925909508 3.4976268187952266 2.1627262472942257e-16
-2.1195786436655153 1.5972170714455358 1.6251063024685377e-16
-0.5036909019731199 3.5839469933399326 0.6381570529259692
-2.5553464344655326 1.9255916551072358 0.5641829292398569
-0.5112187697617125 3.637510555876996 1.3369567402600393
-2.5636119949905307 1.931820201717218 1.1683408096004846
-0.43016243676794186 3.0607647782856273 1.7845000000000004
-2.1164142385998117 1.594832521192109 1.5300000000000005
-0.29446450007822517 2.095223788173607 1.7753793779542217
-1.5013333828237847 1.1313358511813913 1.5774007941707677
-0.20289243343044167 1.4436546777318193 1.737388796993842
-1.072394438963933 0.8081071727889853 1.600266841675545
-0.13722467754662443 0.9764043157791883 1.707802096262913
-0.7419323888339351 0.5590861565082527 1.6090752002314872
-0.08529920705589125 0.6069353952288705 1.683929176448348
-0.4430483780735994 0.3338608996888347 1.5241814309147437
-0.04060082100811138 0.2888898525050566 1.6544770250605094
-0.2245255119215554 0.1691921088598912 1.5944037521267649
-0.0 0.0 1.612
-0.0 0.0 1.594
-0.0 0.0 1.612
-0.0 0.0 1.594
-0.0 0.0 1.613
-0.0 0.0 1.593
-0.0506280448502299 0.2871259103218989 1.6534922173074973
-0.2305779450108599 0.16145241524150797 1.5963733676327891
-0.10619142020962583 0.6022414708342357 1.6801704059652043
-0.45358956284144836 0.31760683115482885 1.5213623530523857
-0.17069615864659246 0.9680660212110004 1.7026059438402066
-0.758944369033751 0.5314185682792439 1.604745073212565
-0.25181223174243034 1.4280981318382069 1.7281962636764143
-1.0962579133672323 0.7676080547617827 1.5949045305737122
-0.36381577596520237 2.063301795921562 1.758024112492685
-1.531744273568602 1.0725388869622905 1.5690445552448424
-0.5158162048088929 2.92533906459688 1.7150000000000005
-2.1615615443047305 1.513541687626393 1.5235000000000005
-0.5427230805398946 3.077935539752823 1.1375589967011746
-2.6440951360843967 1.8514153460299223 1.1748391923236725
-2.63389928262437 1.84427613257873 0.5669613000825279
-0.5109780941285489 2.897900775454147 0.518860754868788
-0.5223337184221264 2.962301721060722 1.8418687859176193e-16
-2.225636104333191 1.558407177565792 1.6636826766416794e-16
-2.050649916211684 1.4358805295605301 -0.4414136676293368
-0.29789954483665737 1.689472272704526 -0.3024951254957926
-0.06657577175594619 0.37756996398651593 -0.13954421847687282
-0.3132887104472633 0.21936711669117273 -0.13920219833354716
-0.0648153890007676 0.367586337271503 -0.2154999999999999
-0.3745666213957656 0.2622743718630573 -0.2639999999999999
-0.057997688599937196 0.3289212369366732 -0.28025539782333114
-0.29806576400863827 0.20870789484108485 -0.3053241146011062
-0.19324046791823937 0.13530843232352274 -0.2811383106246649
-0.11550043824474783 0.08087427752549746 -0.24421916386721168
-0.008421936616846119 0.047763176021092084 -0.08400446416709055
-0.005973238848576065 0.02810187933811737 -0.0789341801460163
-0.027536853873764543 0.017882641998392988 -0.0902104915954472
-0.005973238848576065 0.02810187933811737 -0.0789341801460163
-0.027536853873764543 0.017882641998392988 -0.0902104915954472
-0.11825255008030475 0.07679410393711883 -0.24421916386721168
-0.009563937777616929 0.044994789633755056 -0.07967433714816836
-0.1989231213334298 0.12918218545647908 -0.28267039951090284
-0.06361409597291795 0.29928079130144186 -0.36463715492463344
-0.3090227444555561 0.20068171672017215 -0.30918084025922543
-0.07788283215569322 0.3664099171711311 -0.3143231411367177
-0.076704199352573 0.3608648857975527 -0.2129999999999999
-0.3769548989512243 0.24479737367192553 -0.2594999999999999
-0.0801029634709936 0.37685481380408925 -0.14022825876352416
-0.3097203697796762 0.20113475990286261 -0.13441391632698782
-2.1102493041039825 1.3704119216248896 -0.44367109393900694
-0.33599974694215784 1.580754526241217 -0.2849566595514326
-0.5428574247251697 2.553943385515967 1.5987763962868697e-16
-2.675359111745902 1.737398521697937 1.9533116446400284e-16
-2.7082221010399055 1.7587399964806312 0.5693923745698648
-0.5309246458385224 2.497804074676097 0.45026972469035054
-2.718131184147845 1.7651750302925524 1.1796274743302317
-0.5357129898474743 2.520331462075153 0.937819232998984
-0.5619572915008928 2.643801193836061 1.5605000000000004
-2.2210560327415103 1.4423706525794762 1.5290000000000004
-0.4386284657602845 2.0635846868901737 1.7702370770767295
-1.5746668329741538 1.0226005980896922 1.5754724313417081
-0.30296881422396 1.4253562056310265 1.7366227525507232
-1.1245355856410144 0.7302819481360846 1.597968708346188
-0.2054167505279462 0.9664098295249999 1.7112661978780508
-0.7782862870533533 0.5054250244939453 1.6073431494239183
-0.12757131540887448 0.6001758515783636 1.6858085616899197
-0.46497125134762823 0.30195586124369816 1.5232417382939576
-0.060726063832391305 0.2856936683359787 1.656446640566534
-0.2357808239585254 0.153117857409032 1.5944037521267649
-0.0 0.0 1.613
-0.0 0.0 1.593
-0.0 0.0 1.613
-0.0 0.0 1.594
-0.0 0.0 1.613
-0.0 0.0 1.594
-0.07057561779846763 0.2830633422386069 1.6544770250605094
-0.24127861989034025 0.14497482090542535 1.5963733676327891
-0.14819121107924896 0.5943624839142374 1.6829894838275619
-0.47463977404210483 0.28519234844604063 1.5213623530523857
-0.2381721062178729 0.9552561425187185 1.70520402005156
-0.7937369204501559 0.4769252573667103 1.6038790478087805
-0.35050691084554403 1.4058064350918558 1.7266641747901765
-1.1465821387854491 0.6889360536765694 1.5941384861305932
-0.5029664151740256 2.0172881081888554 1.744525572689268
-1.6015162957162727 0.9622880728268055 1.5677589800254697
-0.5805536157864885 2.3284733730917417 1.3855000000000002
-2.259648434042952 1.3577337568637062 1.5220000000000005
-2.7974104631149106 1.6808537825414003 1.1878359577700477
-0.5555999459281802 2.228389669802291 0.8358972302879346
-2.7865226560913166 1.674311728073351 0.5732126344785373
-0.5503495499270141 2.207331481627301 0.4011272904106093
-0.5595653445220317 2.24429401487638 1.416304023213914e-16
-2.750649867953078 1.6527571823863645 1.9649457892319284e-16
-0.5479670843429144 2.1977759340877885 -0.39939080863393966
-2.168608513631806 1.3030314539292451 -0.4461021684263439
-0.09320621024163417 0.3738296909242796 -0.14022825876352416
-0.30769098672902273 0.18487939675520157 -0.13065169475040544
-0.09197511271391862 0.36889202843279495 -0.2194999999999999
-0.3756183007968903 0.22569424473489996 -0.2529999999999999
-0.3092719045848153 0.18582930803666478 -0.30275296416236
-0.08098611769751261 0.32481757674227335 -0.2808981854330177
-0.20441228903863612 0.12282329452859554 -0.2842024883971408
-0.07355357978258313 0.2950072953852919 -0.36233902159527653
-0.12043200574864675 0.07236284952486263 -0.2433531384634273
-0.011007446249784883 0.04414845554555783 -0.07880831174438392
-0.02841806797117071 0.015752392301219956 -0.0892707989746613
-0.008107523403049701 0.028274294219573743 -0.0808135653875881
-0.02841806797117071 0.015752392301219956 -0.0892707989746613
-0.008013249875107264 0.027945523356555448 -0.07987387276680222
-0.12550792797450325 0.06957018050534937 -0.2485492908861339
-0.012265862333856455 0.042776145469255185 -0.07707626093681504
-0.20801204304664314 0.11530295827193734 -0.28343644395402184
-5.991392985937708 20.894470437886284 -25.90455888851136
-0.3142288586868501 0.1741799005977941 -0.30146738894298697
-0.09396195680913118 0.3276842853477199 -0.28604048631051004
-0.10049646894755597 0.3504728373627162 -0.2104999999999999
-0.3764491138615117 0.20866915122481003 -0.2484999999999999
-0.10697294277023377 0.37305898571708035 -0.14125431919350118
-0.30573701074292997 0.16947279241891858 -0.12723149331714875
-0.560272397578546 1.9539020518007986 -0.3584098387045442
-2.229127910950836 1.2356257778860507 -0.44940148380201567
-0.571671875964456 1.9936567573760733 1.2699587307158053e-16
-2.828520132888806 1.5678743118766545 1.98025387422127e-16
-0.5572864497232339 1.9434888141216273 0.35649970875020814
-2.8630684605875496 1.5870247626326244 0.5772065425648767
-2.872448528350914 1.5922242190970979 1.1953604009232126
-0.5612841815571346 1.957430561861775 0.7411576505867242
-0.58221113482919 2.030411520968325 1.2195000000000003
-2.3147454566615284 1.2830843584366587 1.5280000000000005
-0.5559591736594212 1.9388600524057222 1.692459776304658
-1.6414940379163812 0.909895003122805 1.5748296437320215
-0.40165862015379633 1.4007500734175593 1.7366227525507232
-1.1727381670143173 0.6500593809601654 1.597968708346188
-0.272605344903012 0.9506878172829972 1.7129982486856197
-0.8116470882253591 0.44990332758860085 1.6073431494239183
-0.16931525618461932 0.5904724699808654 1.6876879469314916
-0.48490198085544955 0.26878555705555307 1.5232417382939576
-0.08055498499165294 0.28092861818327824 1.6574314483195463
-0.24573555940347874 0.1362134448411579 1.5934189443737528
-0.0 0.0 1.615
-0.0 0.0 1.593
-0.0 0.0 1.614
-0.0 0.0 1.593
-0.0 0.0 1.613
-0.0 0.0 1.593
-0.09020285997936173 0.27761585716460624 1.6554618328135218
-0.2511132529053863 0.12794859306062514 1.5983429831388136
-0.18960792585089922 0.5835531919092589 1.6858085616899197
-0.4930728457951446 0.2512331633872683 1.5204226604316
-0.3045362479565106 0.9372661968088738 1.7069360708591288
-0.8250720413984285 0.42039520275882036 1.6038790478087805
-0.4477171933059472 1.3779318351480248 1.7266641747901765
-1.1912741441081574 0.6069844937478 1.5933724416874744
-0.5806760031112401 1.7871369752081907 1.576758006561081
-1.6640583546016263 0.8478800811133534 1.567116192415783
-0.564135723931255 1.7362312302756677 1.0540000000000003
-2.3473114946195626 1.1960149443994725 1.5210000000000004
-2.9538965186455393 1.505085451422897 1.2066470656529595
-0.5691467390506939 1.7516535490133014 0.6703594809183109
-2.94127988583331 1.49865695591814 0.5820686915395508
-0.5654308926199931 1.740217349626862 0.32263831410515675
-0.5815699834136508 1.7898883636674792 1.1523926379976594e-16
-2.9055722753782676 1.4804630196506623 1.9967866060097595e-16
-0.567865471274977 1.7477102122732642 -0.32402749952649196
-2.288442106877468 1.1660194931487198 -0.45287444735535426
-0.11992734858568195 0.36909842639923135 -0.14125431919350118
-0.3039298288742434 0.15485998267191373 -0.12415331202721774
-0.11641320678847057 0.35828301004265445 -0.21749999999999992
-0.37732916530866745 0.19225881256125646 -0.24449999999999988
