-0.496 6.074248123770872e-17 3.037124061885436e-17
3.13 0.0 1.9165722406656076e-16
-0.496 6.074248123770872e-17 3.037124061885436e-17
3.128 0.0 1.9153475938664604e-16
-0.0 0.0 1.585
0.0 0.0 0.25
1.093812995013652 0.0 1.7538706143667684
-0.4868446808962553 5.962127801415136e-17 0.7806293977829835
3.2921690927384164 0.0 1.6128169966917854
-0.49660924939562046 6.081709276993162e-17 0.24328636093032116
3.585749482628484 0.0 -0.3816236992503965
-0.49619772374698107 6.07666954130943e-17 -0.05280926953021294
-0.3135213341514391 3.839528983329677e-17 -0.2451700900026381
0.2016619636752975 0.0 -0.1576973443233049
0.026301275867339585 0.001862230208604985 -0.07234483386116979
-0.027667575912396186 -0.0019589694402208386 -0.07610300704876302
0.026642850878603734 0.001886415016508946 -0.0732843771580681
-0.028009150923660336 -0.0019831542481247998 -0.07704255034566133
-0.311952632658873 -0.022087431009861963 -0.24455408475137516
0.11393735953535664 0.008067197724004957 -0.0893207614331219
-0.4959505180490996 -0.03511518001418351 -0.05291509972967229
2.9399946709950626 0.20816278712407874 -0.3136807111974973
3.3161961369326702 0.2347992795103835 1.6286548068065982
-0.4971606850344765 -0.03520086443227 0.24416623927003298
1.0989993842817212 0.07781332977800956 1.7665982675914906
-0.4840453580145718 -0.03427224947475272 0.7780838671380389
-0.0 -0.0 1.586
-0.0 -0.0 1.586
-0.0 -0.0 1.586
0.0 0.0 0.263
1.0829734285453154 0.14979337575489485 1.7530221041517866
-0.48697111089961187 -0.0673562662518379 0.788265989717817
-0.4963736895491064 -0.06865680046586801 0.24548605677960073
3.3696479140000264 0.4660787816571836 1.6664895754142068
-0.4944732714924028 -0.06839394079770278 -0.05312676012859098
2.9343344138961514 0.4058676287576831 -0.3152681641893875
0.26140489471633865 0.03615667807381923 -0.20636175917307478
-0.3105646211853814 -0.04295629215934338 -0.2451700900026381
0.024457928501279733 0.005165240659829469 -0.06858666067357655
-0.02981857036457392 -0.006297348201709908 -0.0836193534239495
0.024457928501279733 0.005165240659829469 -0.06858666067357655
-0.02948353024811803 -0.0062265914803423805 -0.08267981012705118
0.2574277345625639 0.054365855287407894 -0.20574575392181185
-0.3059844629381373 -0.06462049266197892 -0.24455408475137516
-0.4952184834754759 -0.10458459906826448 -0.05386757152480639
3.7588525905928685 0.7938275816866391 1.8820597686436051
-0.4964356506977491 -0.10484165115777272 0.24856563096859208
1.0774559499631085 0.22754663305330353 1.765749757376509
-0.4841044273020213 -0.10223743484134507 0.793357051007706
-0.0 -0.0 1.586
0.0 0.0 0.274
0.0 0.0 0.273
-0.0 -0.0 1.586
0.0 0.0 0.273
-0.0 -0.0 1.586
1.0520807299575057 0.3011825550710742 1.7547191245817497
-0.4863584032105296 -0.13923139393034178 0.8111757655223175
3.823765783464688 1.0946418044400061 1.9484905832918487
-0.49728812176014 -0.1423602798278264 0.25340496183700717
-0.49519917374487776 -0.14176226991971533 -0.05482004331994049
2.7255074215186226 0.7802398292299393 -0.3017218986585914
0.2544598304526758 0.07284503908914361 -0.20697776442433768
-0.3006564068146199 -0.08606988249520833 -0.24455408475137516
0.02445132285988361 0.008911637887262652 -0.07140529056427147
-0.02670341838645184 -0.009732446640036842 -0.07798209364255965
0.02445132285988361 0.008911637887262652 -0.07140529056427147
-0.027025146318818725 -0.009849705033290298 -0.07892163693945796
0.24719933138398048 0.09009536784129488 -0.20574575392181185
-0.2930866324193302 -0.1068196576800981 -0.24393807950011226
-0.49609579007034155 -0.18080927824791718 -0.056195835912911975
2.8261577494591017 1.0300340239170425 -0.32013635336451735
3.6061267631934877 1.3143049999095178 1.8803000119641817
-0.4978041156490776 -0.18143190218685432 0.25956411021499
1.0341480931072606 0.3769102138312265 1.7649012471615277
-0.48326535889435446 -0.17613304223266926 0.8247519289620215
0.0 0.0 0.271
-0.0 -0.0 1.586
-0.0 -0.0 1.587
0.0 0.0 0.268
-0.0 -0.0 1.586
0.0 0.0 0.875
-0.4864108576216026 -0.2150399906318744 0.8527527660564111
0.23037966987849035 0.10184978660773361 0.40389086233119575
-0.5001975523467358 -0.22113502461000878 0.2679229544422524
1.18601849850359 0.524333293163962 0.6352721612719416
-0.498390066065111 -0.22033594328405243 -0.05799494930372083
3.070373837656595 1.357398073954309 -0.3572827533747473
0.24207943703537346 0.10702219955943726 -0.20697776442433768
-0.28674885696451985 -0.12677034352576194 -0.2451700900026381
-0.026631262127837355 -0.014100527466487872 -0.08267981012705118
0.04509156883008826 0.02387475673303059 -0.13999195123784802
-0.026631262127837355 -0.014100527466487872 -0.08267981012705118
0.04509156883008826 0.02387475673303059 -0.13999195123784802
0.23182772197920587 0.12274646036562298 -0.20512974867054895
-0.25132074364712703 -0.13306748406002977 -0.2223778957059104
-0.5017962806817569 -0.2656874542546947 -0.06042904389128575
3.5951814085272646 1.9035505698002726 -0.4329513459881787
3.969023177551841 2.1014895975094157 2.2001357884494324
-0.5023778587063218 -0.26599538396789857 0.27848149451879434
0.9736893839358257 0.5155419910670862 1.7665982675914906
-0.4849740111150102 -0.25678052100699744 0.8799050929358193
0.0 0.0 1.609
-0.0 -0.0 1.587
0.0 0.0 1.609
-0.0 -0.0 1.587
0.0 0.0 1.609
-0.0 -0.0 1.587
0.9294585409122371 0.5796629591991278 1.7564161450117126
-0.49122108394105685 -0.30635327408881435 0.9282701751897651
-0.5082443761024285 -0.3169699627039806 0.29343942629389547
3.9455612885432894 2.4606753626404974 2.278005021513929
-0.5070908440624852 -0.3162505548268436 -0.06360394987506608
3.460198920965477 2.1579759157152845 -0.4340096479827721
-0.21656392387951923 -0.1350615217851122 -0.19958570140918275
0.14237072773560985 0.08879044487724971 -0.13120911851899977
0.02022332094409187 0.014693102723384267 -0.06858666067357655
-0.023270670675393384 -0.016907131900880525 -0.07892163693945796
0.02022332094409187 0.014693102723384267 -0.06858666067357655
-0.023270670675393384 -0.016907131900880525 -0.07892163693945796
-0.18417874690096084 -0.13381369237828358 -0.1780255176149809
0.21540628530285388 0.15650182707217947 -0.2082097749268635
-0.5124497657693353 -0.3723165482978079 -0.0674138370556025
3.2814483431289156 2.384111774735885 -0.4316813835946665
-0.5107432578559945 -0.37107669772438806 0.3092772364087084
3.9617112163424446 2.8783516823486326 2.398988293224306
0.8921912533167301 0.6482148886490084 1.7682952880214537
-0.4914757959729396 -0.35707806725962643 0.9740897267987662
0.0 0.0 1.607
-0.0 -0.0 1.586
0.0 0.0 1.609
-0.0 -0.0 1.587
0.0 0.0 1.607
-0.0 -0.0 1.586
0.8408657427461133 0.7012047363860561 1.755567634796731
-0.4986671176169557 -0.4158425382047804 1.041122033782305
-0.5186460565059073 -0.4325031367578247 0.33083425573164826
3.587071994530881 2.9912883168583067 2.288123622420615
-0.5216010926375947 -0.43496736526232305 -0.07228202623073235
3.1502262183456478 2.626999094739507 -0.4365495727697964
0.2020663794712352 0.16850478637276747 -0.20574575392181185
-0.18210173718814912 -0.15185610987485923 -0.18541758063013583
0.019253675229042963 0.018512051607765246 -0.0732843771580681
-0.043197348270288705 -0.04153344911998611 -0.16442007695720406
0.019253675229042963 0.018512051607765246 -0.0732843771580681
-0.04344419026040464 -0.04177078311495746 -0.16535962025410236
0.18852510003408532 0.18126338684292684 -0.20451374341928605
-0.13571535815706748 -0.13048779956463705 -0.14722525505183542
1.6285819563963568 1.565851343477929 -0.24044621317163087
-0.3211288364725212 -0.30875941984071836 -0.04741192935778637
3.317650340617894 3.189859265383028 2.2546882455115655
-0.5178771263403543 -0.4979292511817408 0.3519513358847322
0.7942009403682612 0.7636094730036507 1.7665982675914906
-0.5035279737205117 -0.48413280709165163 1.120033483775585
0.0 0.0 1.608
-0.0 -0.0 1.587
0.0 0.0 1.608
-0.0 -0.0 1.587
0.0 0.0 1.607
-0.0 -0.0 1.587
0.7340309714188127 0.8130810897691255 1.7564161450117126
-0.5187861406694312 -0.5746558619962469 1.2413704445179399
2.9390485841877694 3.255564027627828 2.1486629055762902
-0.2485313401452801 -0.27529646670972424 0.18169487715049298
-0.5443994976791527 -0.603027602482695 -0.08646327295828451
0.7276429026507161 0.8060050696586327 -0.11556657780960429
0.17578009596230915 0.19471041079983065 -0.20512974867054895
-0.15255389709641837 -0.16898290907252572 -0.1780255176149809
-0.038812731409528616 -0.04963337629580318 -0.17287596662928884
0.015187590551554669 0.01942175594183603 -0.06764711737667824
-0.038812731409528616 -0.04963337629580318 -0.17287596662928884
0.015187590551554669 0.01942175594183603 -0.06764711737667824
-0.12762160126111335 -0.16320137049954456 -0.16200938108214527
0.6382728265321491 0.8162176231399849 -0.11027506783663706
-0.5598669514878929 -0.7159528863243244 -0.09672880230584095
2.582842720727096 3.3029163373761397 2.054075984057268
-0.21850993246673875 -0.2794285614186282 0.17377597209308654
0.680640066740642 0.8703964737262789 1.7716893288813798
-0.5248230399676408 -0.6711390434383663 1.366101446120221
0.0 0.0 1.608
-0.0 -0.0 1.588
0.0 0.0 1.607
-0.0 -0.0 1.588
0.0 0.0 1.608
-0.0 -0.0 1.587
0.6180859728997451 0.9094858904570872 1.7632042267315646
-0.5315301412761517 -0.7821228518993336 1.516287754171947
2.281039240436061 3.356447315933586 1.988085108578881
-0.5713955344486874 -0.8407829966003143 0.498011140276896
0.5583679121314534 0.8216134324891244 -0.10572436925988524
-0.5773714246564473 -0.8495762520132791 -0.10932259604150293
-0.13061912941186293 -0.19220021232086243 -0.18172154912255836
-0.03147432578996889 -0.054187020103820864 -0.17193642333239054
0.02941043557423322 0.0506337728838982 -0.16066190376961084
-0.03147432578996889 -0.054187020103820864 -0.17193642333239054
0.02941043557423322 0.0506337728838982 -0.16066190376961084
-0.10920096727043407 -0.1880032331216949 -0.1700174493485631
0.28210249878195454 0.48567501889771186 -0.4392117441504546
0.4809654563819639 0.8280426728797177 -0.10191448207934882
-0.6133183597477175 -1.0559048829660365 -0.12995948493607515
-0.6016984310218861 -1.0358997106337267 0.5868788525877909
2.0324236358205527 3.49907353531902 1.9823658993707542
0.5576240066643109 0.9600200322359959 1.7801744310311947
-0.5018084483232695 -0.8639265113734794 1.601987285885079
0.0 0.0 1.608
-0.0 -0.0 1.587
0.0 0.0 1.61
-0.0 -0.0 1.588
0.0 0.0 1.608
-0.0 -0.0 1.587
0.48563450584139994 0.9913033616199453 1.7699923084514166
-0.4455917757336719 -0.9095659799331616 1.624048551474598
1.7126609893243092 3.495976038792826 1.9071363013253926
-0.6435812575800001 -1.3137127952003491 0.7166609076952859
-0.6710767809683974 -1.3698381413950027 -0.1623435259706346
0.4059708296862273 0.8286895666327004 -0.09821042509827177
0.16149629902782828 0.3296549610660272 -0.28705844708851597
-0.12614732370414056 -0.25749872495286247 -0.22422591145969914
0.030113361186405153 0.07351531293908177 -0.2179740448804077
-0.023234015742959163 -0.056720866448688075 -0.1681782501447973
0.030113361186405153 0.07351531293908177 -0.2179740448804077
-0.023234015742959163 -0.056720866448688075 -0.1681782501447973
-0.1036126497034359 -0.25294806249773044 -0.21375382218822966
10.090140227027387 24.632913336954783 -20.816049450676246
0.3369698306716913 0.8226395718337295 -0.09461219831665406
-0.7719398358116604 -1.8845255515833084 -0.2167402484927377
-0.7250509986472183 -1.7700565118718004 0.9370704317930995
1.4112964508879646 3.4453776047983498 1.8239877982226245
0.42143241156869826 1.0288368484462518 1.7827199616761393
-0.3841233070699942 -0.9377546714776639 1.6248970616895797
0.0 0.0 1.609
-0.0 -0.0 1.588
0.0 0.0 1.61
-0.0 -0.0 1.588
0.0 0.0 1.61
-0.0 -0.0 1.588
0.3450683568442461 1.0479900048504143 1.769143798236435
-0.31544378328303774 -0.9580186806929925 1.617260469754746
1.177635826903791 3.5765394058023863 1.8446649392058525
-0.8465047417810708 -2.5708775981608376 1.3259766579457284
0.448762984444658 1.3629158191897701 -0.15271297781983423
-0.3912292684902151 -1.1881830218577483 -0.1331343909198555
-0.0869671436481054 -0.2641236018483805 -0.21744985369580713
0.32865203860218833 0.9981328183165431 -0.8217510051847217
0.018615983991075283 0.07370486953483708 -0.2085786119114246
-0.014842473722614094 -0.05876469327777549 -0.1662991635510007
0.018615983991075283 0.07370486953483708 -0.2085786119114246
-0.01475861793887051 -0.0584326893609519 -0.16535962025410236
-0.06886733790717983 -0.27266128710110876 -0.21991387470085877
0.2592652721211473 1.0264895514394685 -0.8279110576973507
0.34553947605619617 1.3680685379869 -0.15017305303280995
-0.306334503790483 -1.212847230998957 -0.1331343909198555
0.9086801446823479 3.597669161341002 1.8178286498446417
-0.7523220655755849 -2.978612342920515 1.505031900077086
0.2720045028483996 1.076927032433031 1.7810229412461764
-0.2466053210674155 -0.9763659565126523 1.6147149391098015
0.0 0.0 1.61
-0.0 -0.0 1.587
0.0 0.0 1.611
-0.0 -0.0 1.588
0.0 0.0 1.61
-0.0 -0.0 1.589
0.19377669866390487 1.0851135786987636 1.7674467778064724
-0.17610143570368345 -0.9861353838102539 1.6062298369599866
0.6524763260326568 3.6537464310170944 1.8182685890144976
-0.5381785132942974 -3.0136998749908717 1.499752630038815
0.2506761719427738 1.403740077660834 -0.15176050602470012
-0.22410519695302414 -1.2549475450217495 -0.13567431570687974
-0.04916115301376122 -0.2752933404663095 -0.21868186419833294
0.007853453869467888 0.07113569524524485 -0.19636454905174655
-0.006500705834535653 -0.05888265682979597 -0.16254099036340744
0.007891030203771562 0.07147605742345177 -0.19730409234864488
-0.006463129500231979 -0.058542294651589055 -0.16160144706650914
-0.031551450702614586 -0.28578946525073534 -0.22484191671096204
0.009162887053361995 0.08299639264815876 -0.06529655663386844
-0.13999847982555216 -1.2680903665055527 -0.13578014590633908
0.4057074486393317 3.674852097538171 1.811229562296803
-0.33534672035940083 -3.0375325936172928 1.4971129950196795
0.12229351010177014 1.1077207569642509 1.7869625127510467
-0.10998286236123164 -0.9962123046962446 1.607078347174968
0.0 0.0 1.611
-0.0 -0.0 1.588
0.0 0.0 1.611
-0.0 -0.0 1.588
0.0 0.0 1.61
-0.0 -0.0 1.589
0.043420732470992804 1.1051314383673423 1.7733863493113426
-0.039203312044384764 -0.9977909206694616 1.6011387756700974
0.14656084303953457 3.7302225471395354 1.8288271290910396
-0.12075316031041865 -3.0733731594786886 1.5067916567565096
-0.09744219541299047 -2.480069484004414 -0.2641521778505241
0.026780988002127755 0.681621661068521 -0.07259951682911038
0.003030807542466443 0.07713920305370532 -0.060368514623765156
-0.011288211765308791 -0.2873041746388004 -0.22484191671096204
-0.0007851872906888918 0.024985064710066444 -0.06858666067357655
0.0009142591740898214 -0.029092198635008875 -0.07986118023635627
-0.0007851872906888918 0.024985064710066444 -0.06858666067357655
0.0009142591740898214 -0.029092198635008875 -0.07986118023635627
-0.0023506396829748727 0.07479856753367614 -0.05852049886997642
0.00903140509774572 -0.28738396999780835 -0.22484191671096204
0.07858565740245005 -2.500636165112434 -0.266268781839711
-0.02133306995463929 0.6788292928345758 -0.07228202623073235
0.09728845327785032 -3.0957687796457765 1.5173501968330516
-0.08434110620491954 2.6837775155525874 1.3154181178691866
-0.03510548259779597 1.1170745690681014 1.7920535740409358
0.03138217383742421 -0.998596963257848 1.601987285885079
-0.0 0.0 1.612
0.0 -0.0 1.587
-0.0 0.0 1.613
0.0 -0.0 1.588
-0.0 0.0 1.612
0.0 -0.0 1.588
-0.11315831899078636 1.1044356884608273 1.7801744310311947
0.10150808214521523 -0.9907282963218669 1.5968962245951899
0.32044993279117095 -3.1276210648574296 1.5402270336655592
-0.20869061604223488 2.036839768030546 1.0030613072714867
-0.06871670350029077 0.6706813994407391 -0.07175287523343563
3.527660150488404 -34.43029024916572 -3.683525922381947
0.02986794670158491 -0.2915139299741796 -0.2291539534698024
-0.004488787465942439 0.026329657263998413 -0.0732843771580681
0.0049491759239878325 -0.029030134932100805 -0.08080072353325457
-0.004431238908686766 0.02599209755548561 -0.07234483386116979
0.005006724481243505 -0.029367694640613607 -0.08174026683015287
0.04911570779753691 -0.28809556308906786 -0.2285379482185395
-0.11313718314000012 0.6636231451125295 -0.07164704503397629
0.2516759199539745 -1.4762429195560847 -0.15938028038577293
0.5371308931992534 -3.1506219510600877 1.5657435055172024
-0.2739231725643838 1.6067375221056643 0.7984895932884861
-0.18853888477396105 1.1059031541812232 1.798841655760788
0.16755059382742626 -0.9827931804138793 1.598593245025153
-0.0 0.0 1.614
0.0 -0.0 1.588
-0.0 0.0 1.615
0.0 -0.0 1.588
-0.0 0.0 1.614
0.0 -0.0 1.588
-0.26190583223869296 1.0723472213150842 1.7699923084514166
0.23604168964944575 -0.966449077695282 1.5951992041652268
-0.3379256199349685 1.3836026347751758 0.6977435233914816
0.7753539287158594 -3.1746090718454374 1.6009386391056755
-0.16066807761181273 0.6578393658070282 -0.07207036583181366
0.3626238403661626 -1.4847270267920736 -0.1626610165690126
0.06990108101554408 -0.2862029812517672 -0.23038596397232824
-0.018316326041506164 0.07499436407131868 -0.060368514623765156
-0.007631201871073696 0.023804090733539653 -0.06858666067357655
0.008885646014263877 -0.027717091950011933 -0.07986118023635627
-0.007631201871073696 0.023804090733539653 -0.06858666067357655
0.008885646014263877 -0.027717091950011933 -0.07986118023635627
-0.14501050043491634 0.4523328262030463 -0.37145116651153454
0.09595222168081512 -0.2993048053980357 -0.245786095253901
-0.19549614686505304 0.6098132504753622 -0.06815464845181791
0.48297262369922167 -1.506541741469412 -0.16837584733981723
-0.37284360099214214 1.1630150869259972 0.5983172710040447
0.6168368398767046 -1.9241058423408044 0.9898631321758093
-0.3216414229474715 1.0032995778198666 1.689383838028174
0.3043558216137796 -0.9493804141700799 1.598593245025153
-0.0 0.0 1.616
0.0 -0.0 1.588
-0.0 0.0 1.617
0.0 -0.0 1.588
-0.0 0.0 1.616
0.0 -0.0 1.588
-0.3539252340318992 0.8837576840316798 1.526469876751725
0.3698607226125458 -0.9235488860364415 1.5951992041652268
-0.4009686724573194 1.0012259970934976 0.5283669429969542
1.2399647373076461 -3.0962142824356786 1.6339340768448691
1.0129372618521364 -2.529322587163007 -0.28997474651860417
-0.2554524262554112 0.6378693093903787 -0.07312866782640709
-0.17571670034427772 0.43876776564609465 -0.3696031507577458
0.117730189230666 -0.29397440298288346 -0.24763411100768973
-0.016601604760687113 0.03457276390948926 -0.1052288492526106
0.01245120357051532 -0.02592957293211695 -0.07892163693945796
-0.01674983337462182 0.03488144930153827 -0.10616839254950891
0.012599432184450027 -0.026238258324165965 -0.07986118023635627
0.09002187027343318 -0.18747012186581333 -0.16262538633340817
-0.21073301450371884 0.4388505125495174 -0.3806912452804782
1.2758290878603231 -2.6569080808323284 -0.3136807111974973
-0.3086266720633781 0.6427135944523547 -0.07588025301235006
-0.417497647105722 0.8694368884346328 0.472494668425253
1.4449150412401928 -3.0090287842751686 1.635253894354437
-0.36421665757856553 0.7584794780914829 1.349131241820591
0.4308751779278497 -0.8972955335157734 1.5960477143802085
-0.0 0.0 1.617
0.0 -0.0 1.588
-0.0 0.0 1.616
0.0 -0.0 1.587
-0.0 0.0 1.617
0.0 -0.0 1.588
-0.3775483053864924 0.6619126421161443 1.2218547095733652
0.4876665611242189 -0.8549704960666867 1.578228999865597
1.5599440274381917 -2.7348730163095456 1.5424267295148388
-0.4315874804948795 0.7566534015459949 0.4267409947602378
1.3996933101527043 -2.453923600920541 -0.30066359666399795
-0.3522635398659572 0.6175837292003471 -0.07566859261343137
0.11864926199528247 -0.2080143000828257 -0.18726559638392457
-0.014078055005938379 0.021069298249009105 -0.06952620397047486
0.04128294508498143 -0.0617842935139862 -0.20388089542693305
-0.013887811019371645 0.020784578002400876 -0.06858666067357655
0.041473189071548164 -0.06206901376059443 -0.20482043872383135
0.17680899686215357 -0.26461336359500365 -0.24886612151021553
-0.2910346111716144 0.4355640762145479 -0.40964349208983497
1.4380280542492467 -2.152161072864065 -0.27547600919267395
-0.47565968294606314 0.7118750225647174 -0.09111980173449567
1.7841285849355115 -2.6701371215507135 1.573222471404753
-0.440045137559598 0.6585740887046221 0.3880263478129172
-0.379548966236482 0.5680351700832479 1.0954266875411212
0.5218430790625522 -0.7809933593321189 1.506105631592169
-0.0 0.0 1.617
0.0 -0.0 1.588
-0.0 0.0 1.617
0.0 -0.0 1.588
-0.0 0.0 1.617
0.0 -0.0 1.588
0.5711666799857006 -0.7423448733932996 1.5018630805172615
-0.39045857784333227 0.507478698760391 1.0266973601276195
1.9905866343668377 -2.5871638434938804 1.5991788824262518
-0.4506885282211578 0.5857595166975138 0.36206993679141825
1.4747037628196682 -1.916671291347731 -0.257379045085126
-0.48631267178510484 0.6320601873605592 -0.08487581996639436
0.19406731056846366 -0.2522291270515483 -0.24886612151021553
-0.1292180855022692 0.1679446415268972 -0.16570541258972274
-0.01796934379269745 0.020221580451454935 -0.07422392045496641
0.04230756892964211 -0.04761030334140021 -0.17475505322308546
-0.01796934379269745 0.020221580451454935 -0.07422392045496641
0.04230756892964211 -0.04761030334140021 -0.17475505322308546
0.21139686799272764 -0.23789287035833567 -0.24886612151021553
-17.820651319872088 20.05425120246 -20.97929084226092
1.5092930890984686 -1.6984644502395647 -0.24182200576460236
-0.4960521268765643 0.5582261716104653 -0.07947847979396777
2.046649849337688 -2.3031722839628226 1.5094312917756452
-0.45752854399358966 0.5148741305157346 0.337433343279487
0.6225214498762446 -0.7005468717530254 1.502711590732243
-0.37716855771722774 0.4244420064319574 0.9104514606751535
-0.0 0.0 1.619
0.0 -0.0 1.587
-0.0 0.0 1.618
0.0 -0.0 1.588
-0.0 0.0 1.619
0.0 -0.0 1.587
0.6681729915331431 -0.6526121383934361 1.497620529442354
-0.38424679116495186 0.37529819856619706 0.8612378682062262
1.7358677016227306 -1.6954416701650192 1.188715636950683
-0.46384029628853113 0.453038077668077 0.3176360806359708
-0.5015161745218757 0.4898365352101821 -0.07461029061883792
1.5557671967082871 -1.5195354645456283 -0.23145064621758657
-0.5641046881378567 0.5509674462577384 -0.6166212565141725
0.22767062338430996 -0.222368479808318 -0.24886612151021553
-0.018810520464985134 0.015938376029642768 -0.06764711737667824
0.05042264513530742 -0.042723702412792386 -0.18133185630137363
0.05042264513530742 -0.042723702412792386 -0.18133185630137363
-0.018549263236304788 0.01571700969589773 -0.06670757407977992
-0.5745638065034783 0.486834695410039 -0.5889010202073417
0.242206290816843 -0.20522424921573804 -0.24825011625895263
-0.5067888260460055 0.42940815445155395 -0.07069457323884218
1.5522304462427063 -1.3152231796525127 -0.21652858809381897
-0.4652172323617405 0.3941840524111715 0.29871869633216647
1.7533002910363695 -1.485592032577595 1.1258043356612872
-0.3992962577033915 0.33832843245099575 0.8391766026167071
0.7134039305984764 -0.6044755714266015 1.499317549872317
-0.0 0.0 1.618
0.0 -0.0 1.587
-0.0 0.0 1.619
0.0 -0.0 1.588
-0.0 0.0 1.619
0.0 -0.0 1.587
0.7495849620362379 -0.5536520437131599 1.494226488582428
-0.40395010163111283 0.29836217460748954 0.805236194017447
-0.4673614216273969 0.3451985022935759 0.28464064289677715
1.776984694286548 -1.3125012606525446 1.0822503578455516
-0.5103096817774619 0.37692057945666935 -0.06751966725506184
1.5645230996186765 -1.1555746918765593 -0.20700387014247798
0.2566244058873348 -0.18954572727851715 -0.24948212676147846
-0.5753455815943209 0.4249568404170214 -0.5593327681467221
0.05695729412982613 -0.03614619799068566 -0.18509002948896688
-0.034694798454716416 0.02201798862376793 -0.11274519562779707
0.05695729412982613 -0.03614619799068566 -0.18509002948896688
-0.035562168416084325 0.022568438339362125 -0.115563825518492
0.2687054933078952 -0.17052569140931015 -0.24886612151021553
-0.5859642069412269 0.3718641933950553 -0.5427006263626235
-0.5146664400191537 0.32661725463450275 -0.06487391226857822
1.5809411199935834 -1.003295743028986 -0.19927826558194583
-0.4685859917328786 0.29737371291254744 0.2718824069709556
1.795488071882616 -1.139451378927042 1.0417759542188072
0.7881562727091573 -0.500179180141699 1.4967720192273726
-0.40033334486814337 0.2540592661037203 0.7602651526234273
-0.0 0.0 1.618
0.0 -0.0 1.587
-0.0 0.0 1.619
0.0 -0.0 1.586
-0.0 0.0 1.618
0.0 -0.0 1.587
0.8182542568404525 -0.44150604070636695 1.490832447722502
-0.4065657178268158 0.21937095818819463 0.7407494176788527
-0.4710313817270449 0.25415474304743696 0.2622037452341255
1.8177385536446355 -0.9807985050488347 1.011860090668605
-0.5154463001205882 0.27811973266319306 -0.06233398748155395
1.5997212845847795 -0.863162769623629 -0.1934576046116819
-0.2294700076063869 0.1238152978395199 -0.20389773816802312
0.25581399639503544 -0.13802974290870965 -0.22730593771601368
-0.03245756192618653 0.014655151150266128 -0.09771250287742413
0.07989553704907454 -0.036074218216039705 -0.24052308400596709
-0.03276965386778448 0.01479606606517253 -0.09865204617432244
0.07989553704907454 -0.036074218216039705 -0.24052308400596709
-0.23620577421658984 0.10665099650990538 -0.20266572766549731
0.2771289630626252 -0.1251285247806185 -0.23777802698748315
-0.516582468598732 0.23324592820954065 -0.0603232136918264
1.6113747880149922 -0.7275636146606376 -0.18816609463871467
-0.46898060260778157 0.21175286157938 0.2520851443274394
1.8268144939276936 -0.8248383718065905 0.9819442271184029
0.8893528566644278 -0.40155821222735594 1.564652836425893
-0.39982294911866084 0.18052698369657155 0.7034149682196665
-0.0 0.0 1.619
0.0 -0.0 1.586
-0.0 0.0 1.621
0.0 -0.0 1.587
-0.0 0.0 1.62
0.0 -0.0 1.586
0.9245701473947958 -0.34522287440191457 1.5824715509405043
-0.4040346756711843 0.15086147058314206 0.6915358252099255
-0.47112497601888026 0.17591214564093127 0.24636593511931257
1.8441177632739023 -0.6885703986516463 0.9643466603241663
-0.5160864008677637 0.19270017667056538 -0.0586299305004769
-0.24279422524224928 0.09065631262537865 -0.20266572766549731
0.30035638198661224 -0.11214929859735308 -0.25071413726400427
0.08507004992486007 -0.02507781656398529 -0.24334171389666204
-0.029561021209410843 0.008714299192118422 -0.0845588967208478
0.08539850571607575 -0.02517464211056438 -0.24428125719356034
-0.02988947700062652 0.008811124738697516 -0.08549844001774612
-0.24783510591412547 0.0730593590778419 -0.2020497224142344
0.30450471854692845 -0.08976500520844616 -0.24825011625895263
-0.5179156158366134 0.15267644513017367 -0.05746579830642411
-0.4677291709676728 0.13788197328569368 0.238886969231762
3.162124837241853 -0.9321633958228038 1.6150166925410647
0.9486736928839985 -0.27965970244800653 1.5858655918004303
-0.39642276840149976 0.1168615450036879 0.6626864779005545
-0.0 0.0 1.62
0.0 -0.0 1.586
-0.0 0.0 1.619
0.0 -0.0 1.586
-0.0 0.0 1.619
0.0 -0.0 1.586
0.9634717634423329 -0.21139233215864858 1.581623040725523
-0.4005850947788669 0.08789112522690605 0.6575954166106653
-0.46928204262122136 0.10296370811682025 0.23536745587291466
3.2121697945400234 -0.7047721478949442 1.6110572400123615
-0.5167212659214621 0.11337220002051995 -0.05630166611237132
3.244077120634743 -0.7117728347152934 -0.35347286619421087
-0.2523761735251934 0.05537306844588155 -0.2020497224142344
0.2962342280707301 -0.06499582729165965 -0.23716202173622025
-0.07487962721759535 0.01095712611253504 -0.20763906861452627
0.08741603539429685 -0.012791577090651738 -0.2424021705997637
-0.0745408053749818 0.010907546356369724 -0.20669952531762797
0.0877548572369104 -0.012841156846817055 -0.24334171389666204
0.3078793440478441 -0.04505194437431814 -0.24332207424884936
-0.25409788901163843 0.03718211105323481 -0.20081771191170858
-0.5165507018094555 0.07558679701752989 -0.055560854716155905
3.141612173100174 -0.45971170071804257 -0.33791582687368726
-0.4664965182210792 0.06826237484266968 0.2309680641743555
3.2788040994967282 -0.4797869774656201 1.6233755367683271
0.9780901931196035 -0.143123810756992 1.585017081585449
-0.3932257682188556 0.05754067552382292 0.6372311714511093
-0.0 0.0 1.62
0.0 -0.0 1.586
-0.0 0.0 1.619
0.0 -0.0 1.587
-0.0 0.0 1.619
0.0 -0.0 1.587
0.982821399973032 -0.07734972168163844 1.5807745305105414
-0.39566078903906277 0.031139179420949577 0.6363826612361277
-0.468220591121309 0.03684975969167886 0.2300881858346437
3.2766488785927166 -0.2578778594102182 1.6101773616726498
-0.5154858078484761 0.040569612921542424 -0.05503170371885918
3.431945897637354 -0.27009999987380634 -0.36638415052825096
0.3188373621089109 -0.025093044597430156 -0.2500981320127414
-0.08559919327554504 0.006736802613595807 -0.06714457238765716
0.08902908759103227 -0.0006992471965827626 -0.24428125719356034
-0.024996628439020598 0.0001963270975020803 -0.06858666067357655
0.08937150715869009 -0.0007019366088773118 -0.24522080049045863
-0.0229421110330737 0.00018019062373478606 -0.0629494008921867
0.32060112416316494 -0.0025180471164904586 -0.25071413726400427
-0.0819226459778112 0.000643432187014751 -0.0640645461313426
-0.5150751372292482 0.004045473849979192 -0.05482004331994049
2.9691396906689875 -0.023320048100459567 -0.3160089755856029
