1.726429353206276 1.7539606693698095 -1.6465195194651677e-16
6.986559414893425 6.921154367248205 -1.6465195194651677e-16
8.458610088064326 8.394010285089072 0.015017708643862022
1.8072332281177281 1.8344255880936884 0.015017708643862022
2.1928600654235457 2.2190439030630564 0.029665631459994818
13.697433450612811 13.635229553851229 0.029665631459994818
14.308019591525072 14.24974326735833 0.04358308797499638
2.2993935552393845 2.3239241375605855 0.04358308797499638
12.452095001187644 12.399181206124757 0.056427384220077335
2.059910153840095 2.082183456493903 0.056427384220077335
9.651219773022753 9.604971420308988 0.0678822509939085
1.6604125212862892 1.6798801016405145 0.0678822509939085
7.919208448454963 7.880764326023615 0.07766563145999492
1.4137064746514596 1.429888976268586 0.07766563145999492
6.884593446603092 6.854900176337149 0.08553662632208328
1.2549160245570876 1.2674149805406576 0.08553662632208328
6.255106559767263 6.234895288526987 0.09130142556433472
1.0922519988751533 1.1007596434471947 0.09130142556433472
5.852091700815025 5.841860097175715 0.09481808069713321
1.0835530777904196 1.0878599245063156 0.09481808069713321
1.628 1.628 1.724
1.609 1.609 1.705
1.628 1.628 1.724
1.611 1.611 1.707
1.628 1.628 1.724
1.611 1.611 1.707
5.230956285177615 5.221314322699572 0.09481808069713321
1.0116144221849463 1.0165723925395307 0.09481808069713321
5.583432476711364 5.564385968871328 0.09130142556433472
1.018042339256166 1.0278361982806443 0.09130142556433472
6.14141875050023 6.113436685532957 0.08553662632208328
1.1680967739463548 1.18248536432759 0.08553662632208328
7.043084944384986 7.00685633359712 0.07766563145999492
1.3145264799951002 1.3331555068849128 0.07766563145999492
8.555888736215051 8.512305648240055 0.0678822509939085
1.5411199151738142 1.5635306701039813 0.0678822509939085
10.842679101468402 10.792814696576198 0.056427384220077335
1.9132993895212331 1.9389400453283425 0.056427384220077335
2.1570170812022735 2.1852562798438964 0.04358308797499638
11.056369659412459 11.001451764741962 0.04358308797499638
10.406305715878608 10.34768659225865 0.029665631459994818
2.055853046548437 2.0859954452334897 0.029665631459994818
9.991085292602385 9.930208337402206 0.015017708643862022
1.6924612240765267 1.723764616912497 0.015017708643862022
1.6164786766983936 1.6481722702636554 -1.6465195194651677e-16
5.618821058331082 5.557185264226742 -1.6465195194651677e-16
1.8783114886084278 1.817434533408249 -0.015017708643862348
0.6837911267982011 0.7150945196341714 -0.015017708643862348
1.9026661026633944 1.8440469790434357 -0.029665631459995147
0.46686060290159737 0.4970030015866498 -0.029665631459995147
104.61487150600288 104.55995361133239 -0.04358308797499667
0.33454753727412 0.36278673591574284 -0.04358308797499667
0.2654780702129595 0.29111872602006883 -0.05642738422007763
2.1943883620059528 2.144523957113747 -0.05642738422007763
0.24933585377484063 0.2717466087050076 -0.06788225099390874
0.40926041331216767 0.36567732533717134 -0.06788225099390874
0.33362973290047393 0.29965238702100316 -0.07766563145999512
0.09469305842057857 0.1157502259826467 -0.07766563145999512
0.33362973290047393 0.29965238702100316 -0.07766563145999512
0.09469305842057857 0.1157502259826467 -0.07766563145999512
0.23269893514361573 0.25803074794029157 -0.06788225099390874
0.36385064473630924 0.3229758327460624 -0.06788225099390874
0.2495243843252496 0.2785070890540123 -0.05642738422007763
94.56725926923676 94.52049346466266 -0.05642738422007763
1.8942570423541485 1.8427517745116178 -0.04358308797499667
0.31217429971520744 0.3440942459975526 -0.04358308797499667
1.7358022267170816 1.6808257262365864 -0.029665631459995147
0.4325308449842521 0.46660205780648023 -0.029665631459995147
1.700224483947766 1.6431304547276806 -0.015017708643862348
0.6401839668657431 0.6755674998922985 -0.015017708643862348
1.5123253715705285 1.548149964787084 -1.6465195194651677e-16
4.71226235873412 4.654456645258062 -1.6465195194651677e-16
7.7998491351450445 7.742755105924959 0.015017708643862022
1.8733669948194036 1.9087505278459589 0.015017708643862022
1.9223893412908946 1.9564605541131228 0.029665631459994818
7.715989783196015 7.66101328271552 0.029665631459994818
2.014788239789988 2.0467081860723333 0.04358308797499638
8.143872463662834 8.092367195820303 0.04358308797499638
9.222511075845315 9.175745271271214 0.056427384220077335
1.790147584372815 1.8191302891015777 0.056427384220077335
7.785616158397114 7.744741346406867 0.0678822509939085
1.4413551961213245 1.4666870089180004 0.0678822509939085
6.402700708704688 6.368723362825217 0.07766563145999492
1.2274874587517393 1.2485446263138076 0.07766563145999492
5.573999342325939 5.5477560975771425 0.08553662632208328
1.0905043469420161 1.1067683719193662 0.08553662632208328
5.0609354414335215 5.043072493597451 0.09130142556433472
0.9489967990662301 0.9600672071867152 0.09130142556433472
4.733283918058305 4.724241112194409 0.09481808069713321
0.9405985788731019 0.9462027799482177 0.09481808069713321
1.631 1.631 1.727
1.6099999999999999 1.6099999999999999 1.706
1.629 1.629 1.725
1.6099999999999999 1.6099999999999999 1.706
1.629 1.629 1.725
1.611 1.611 1.707
4.300095849361054 4.291661124268941 0.09481808069713321
0.8748330629696613 0.8810779640954508 0.09481808069713321
4.591543429401804 4.5748816701425925 0.09130142556433472
0.8795693717915898 0.8919054038518132 0.09130142556433472
5.056585945623891 5.032107420007754 0.08553662632208328
1.0094489142610428 1.0275723232054343 0.08553662632208328
5.793407525121725 5.761714975688897 0.07766563145999492
1.1361789293188105 1.1596434566710132 0.07766563145999492
6.993668196626694 6.955541999125756 0.0678822509939085
1.3305607730306475 1.3587886442529487 0.0678822509939085
7.459918369526523 7.416297317473541 0.056427384220077335
1.6533518282893735 1.6856479795093469 0.056427384220077335
1.8836492363911381 1.9192184291809669 0.04358308797499638
6.590814679231628 6.542772867698118 0.04358308797499638
1.795277445658508 1.8332438484443239 0.029665631459994818
6.242575017490315 6.191295395317865 0.029665631459994818
6.263524702567901 6.210269944241704 0.015017708643862022
1.7492704463752358 1.7886992003171849 0.015017708643862022
6.229263659691663 6.17534507410412 -1.6465195194651677e-16
1.410960944738609 1.4508811830581085 -1.6465195194651677e-16
1.5530724017486837 1.4998176434224866 -0.015017708643862348
0.5934314436429011 0.6328601975848501 -0.015017708643862348
1.5775855270811505 1.5263059049086998 -0.029665631459995147
0.39852834386835745 0.4364947466541731 -0.029665631459995147
1.6808311549460722 1.6327893434125627 -0.04358308797499667
0.28464154594145846 0.32021073873128714 -0.04358308797499667
0.23489434394676037 0.26719049516673354 -0.05642738422007763
1.8124270319223574 1.768805979869375 -0.05642738422007763
0.20649013500923347 0.23471800623153466 -0.06788225099390874
0.33336647155416166 0.29524027405322284 -0.06788225099390874
0.07920295546841624 0.10505168595516355 -0.07766563145999512
0.2851837219253463 0.2558072456591652 -0.07766563145999512
0.07920295546841624 0.10505168595516355 -0.07766563145999512
0.2851837219253463 0.2558072456591652 -0.07766563145999512
0.3049399335091532 0.26959997645142425 -0.06788225099390874
0.19838792223794244 0.22948399438496483 -0.06788225099390874
0.2183686527592963 0.2539463780683874 -0.05642738422007763
1.6865716865928808 1.6461384357729585 -0.05642738422007763
1.5389674637261759 1.4944365199695127 -0.04358308797499667
0.2713108011521337 0.310494137950483 -0.04358308797499667
1.4495127250877127 1.401980588019327 -0.029665631459995147
0.3688865814795161 0.410710705973109 -0.029665631459995147
1.3477741111391475 1.3912091745766406 -0.015017708643862348
1.4273206514100671 1.377957719994701 -0.015017708643862348
5.098056845682721 5.048078599117998 -1.6465195194651677e-16
1.3154711224195814 1.3594476093864327 -1.6465195194651677e-16
5.110837315698625 5.061474384283259 0.015017708643862022
1.6304434944171164 1.6738785578546096 0.015017708643862022
1.6729869251293459 1.7148110496229387 0.029665631459994818
5.077568661683094 5.030036524614708 0.029665631459994818
1.7527531149000997 1.791936451698449 0.04358308797499638
5.344959901670502 5.300428957913839 0.04358308797499638
5.989399810121925 5.9489665593020025 0.056427384220077335
1.5361860548697552 1.5717637801788464 0.056427384220077335
6.299320251680118 6.263980294622389 0.0678822509939085
1.2374551006306131 1.2685511727776355 0.0678822509939085
5.339042532966172 5.3096660566999905 0.07766563145999492
1.0545837910081652 1.0804325214949126 0.07766563145999492
4.650171570086048 4.6274819209520235 0.08553662632208328
0.936747139570574 0.9567120468654445 0.08553662632208328
4.216821574985052 4.2013774474474905 0.09130142556433472
0.8150090982795541 0.8285985801052197 0.09130142556433472
3.9399399195212896 3.9321215992562886 0.09481808069713321
0.8085649032757112 0.8154443414887192 0.09481808069713321
1.63 1.63 1.726
1.6099999999999999 1.6099999999999999 1.706
1.631 1.631 1.727
1.609 1.609 1.705
1.63 1.63 1.726
1.609 1.609 1.705
3.622022107067944 3.6148279073682392 0.09481808069713321
0.7466683962029473 0.7541755823282225 0.09481808069713321
3.8732880592880226 3.8590768049613993 0.09130142556433472
0.7499871228870036 0.7648166433002273 0.09130142556433472
4.264150205266297 4.243271824558726 0.08553662632208328
0.8609178900274559 0.8827045927196979 0.08553662632208328
4.875052576809063 4.848021164744938 0.07766563145999492
0.969149449742316 0.9973568737873727 0.07766563145999492
5.476197322286122 5.443678481942574 0.0678822509939085
1.1346034553546218 1.1685370403574307 0.0678822509939085
4.741261728991384 4.704056182141516 0.056427384220077335
1.408636810118128 1.4474609985968079 0.056427384220077335
1.6308617343675706 1.6736205459516822 0.04358308797499638
4.44024293296463 4.399266803650015 0.04358308797499638
1.554670019553098 1.6003105903930808 0.029665631459994818
4.222322721089548 4.178584977605889 0.029665631459994818
4.2701319574242 4.224709568173313 0.015017708643862022
1.5141260635174174 1.5615245712868207 0.015017708643862022
4.23719965921275 4.191211074166259 -1.6465195194651677e-16
1.2215777040878089 1.2695670402187214 -1.6465195194651677e-16
1.3204818130820053 1.2750594238311184 -0.015017708643862348
0.6946221402645457 0.7420206480339488 -0.015017708643862348
1.3491764709810137 1.3054387274973547 -0.029665631459995147
0.3455066551061608 0.39114722594614354 -0.029665631459995147
1.4417153006398202 1.4007391713252053 -0.04358308797499667
0.25689455064388494 0.29965336222799643 -0.04358308797499667
0.20398861880206054 0.24281280728074034 -0.05642738422007763
72.36645401519982 72.32924846834996 -0.05642738422007763
0.18415951130652486 0.21809309630933357 -0.06788225099390874
0.27393251439729666 0.2414136740537488 -0.06788225099390874
0.25438866005550786 0.22972898893360363 -0.07766563145999512
0.11976243935514594 0.15030071963650288 -0.07766563145999512
0.25635127056101303 0.23169159943910878 -0.07766563145999512
None None None
1.4323482718602634 1.4026826404002684 -0.06788225099390874
0.15811153920403415 0.19484914871108278 -0.06788225099390874
0.18795093125043455 0.22998326811197564 -0.05642738422007763
1.4371401066731528 1.4031989811761987 -0.05642738422007763
0.2340412410671882 0.28033332965236235 -0.04358308797499667
None None None
1.2844304057201765 1.244530219693541 -0.029665631459995147
0.3112199890176386 0.360631964470845 -0.029665631459995147
0.7023407168673832 0.7536558923640193 -0.015017708643862348
1.230648063727171 1.1892110430550424 -0.015017708643862348
3.588796378648772 3.5468428403016854 -1.6465195194651677e-16
None None None
3.603444164882895 3.5620071442107664 0.015017708643862022
1.4023616372779113 1.4536768127745474 0.015017708643862022
1.4391235193595722 1.4885354948127787 0.029665631459994818
3.539469876545591 3.499569690518956 0.029665631459994818
1.507747945364451 1.554040033949625 0.04358308797499638
3.7109683483055727 3.6735874719255315 0.04358308797499638
1.2976290648479523 1.3396614017094934 0.056427384220077335
3.976758100796815 3.942816975299861 0.056427384220077335
4.590188575218046 4.560522943758051 0.0678822509939085
1.0461854169319469 1.0829230264389957 0.0678822509939085
4.5211038990237 4.4964442279017955 0.07766563145999492
0.8922707331809655 0.9228090134623226 0.07766563145999492
3.9581659952237773 3.939119487383741 0.08553662632208328
0.7925005280241453 0.8160875252685421 0.08553662632208328
0.6894201472751427 0.7054750713296662 0.09130142556433472
3.5905329491723714 3.5775685928489604 0.09130142556433472
3.347856125233287 3.3412931459054156 0.09481808069713321
0.6846430570195923 0.6927705823707824 0.09481808069713321
1.631 1.631 1.727
1.6099999999999999 1.6099999999999999 1.706
1.631 1.631 1.727
1.6099999999999999 1.6099999999999999 1.706
1.631 1.631 1.727
1.609 1.609 1.705
3.1018106522868147 3.0958853701990154 0.09481808069713321
0.6257684785527069 0.6345083222435384 0.09481808069713321
3.3201929618421193 3.3084882977764063 0.09130142556433472
0.6279232026876236 0.6451876861117398 0.09130142556433472
3.6579887132187463 3.64079287484997 0.08553662632208328
0.7208860366988342 0.7462500509767983 0.08553662632208328
4.136725520370006 4.114461926308522 0.07766563145999492
0.8112023244806297 0.8440413234025806 0.07766563145999492
3.9557692056784144 3.9289860594986483 0.0678822509939085
0.9486389163808863 0.9881442948069769 0.0678822509939085
1.17617312274583 1.221372127148376 0.056427384220077335
3.3931785676880026 3.3625353593370666 0.056427384220077335
1.3909395565313285 1.4407192374150435 0.04358308797499638
3.1617878576704226 3.1280391246368944 0.04358308797499638
3.0195011367257534 2.983477884822542 0.029665631459994818
1.3260945414585823 1.37922915787082 0.029665631459994818
3.09898052149584 3.0615697627391207 0.015017708643862022
1.2918179504753464 1.3469991518163562 0.015017708643862022
3.083645306050685 3.045768217480239 -1.6465195194651677e-16
0.6596838405035653 0.7155528824604241 -1.6465195194651677e-16
0.6471742693857987 0.7023554707268087 -0.015017708643862348
1.1581147266469445 1.1207039678902255 -0.015017708643862348
1.1659470177463491 1.1299237658431376 -0.029665631459995147
0.2914905562163887 0.3446251726286265 -0.029665631459995147
0.214257010861427 0.26403669174514177 -0.04358308797499667
1.253663941272587 1.2199152082390587 -0.04358308797499667
0.1733100924928052 0.2185090968953508 -0.05642738422007763
None None None
0.14529046034549403 0.1847958387715845 -0.06788225099390874
61.93072198302049 61.90393883684072 -0.06788225099390874
0.12407215906240493 0.1591794684977141 -0.07766563145999512
0.22273290961797543 0.20288736409633415 -0.07766563145999512
0.12372978253667624 0.15883709197198542 -0.07766563145999512
0.22442381727376043 0.20457827175211915 -0.07766563145999512
0.12161981247047182 0.16385397277663968 -0.06788225099390874
1.2217735734981732 1.1978993443303474 -0.06788225099390874
0.15765696628225015 0.20597803226539688 -0.05642738422007763
1.2521763397567085 1.2248612896988336 -0.05642738422007763
0.19375941813803954 0.2469775647852364 -0.04358308797499667
1.1591876841375242 1.1291044003754793 -0.04358308797499667
1.0948224752353855 1.0627117080560864 -0.029665631459995147
0.2589663942848263 0.31577121420471665 -0.029665631459995147
1.077558516233244 1.0442109392941716 -0.015017708643862348
0.5894717178871274 0.6484644878888948 -0.015017708643862348
2.666338132631872 2.632574873951529 -1.6465195194651677e-16
0.6014953640110056 0.6612234863114277 -1.6465195194651677e-16
2.6670117126711523 2.6336641357320802 0.015017708643862022
1.1841797430778471 1.2431725130796147 0.015017708643862022
2.738384716658414 2.706273949479115 0.029665631459994818
1.2152240306450337 1.2720288505649242 0.029665631459994818
2.8585498782014582 2.828466594439413 0.04358308797499638
0.8627631494118834 0.9159812960590803 0.04358308797499638
3.064829346758238 3.037514296700363 0.056427384220077335
1.0704327838749153 1.118753849858062 0.056427384220077335
3.3793717422798446 3.3554975131120184 0.0678822509939085
0.8642344967759822 0.9064686570821502 0.0678822509939085
3.7651844484875694 3.745338902965928 0.07766563145999492
0.7379532696939309 0.7730605791292403 0.07766563145999492
3.414256384089352 3.3989281854082276 0.08553662632208328
0.6550461774980554 0.6821621775897289 0.08553662632208328
3.096222758660804 3.0857893379431003 0.09130142556433472
0.570079587369591 0.5885365922025267 0.09130142556433472
2.8874693878135873 2.8821876505039126 0.09481808069713321
0.5667043761319382 0.5760479129918622 0.09481808069713321
1.632 1.632 1.728
1.6099999999999999 1.6099999999999999 1.706
1.633 1.633 1.729
1.6099999999999999 1.6099999999999999 1.706
1.633 1.633 1.729
1.6099999999999999 1.6099999999999999 1.706
2.688299737011832 2.683666756917335 0.09481808069713321
0.5101762508547554 0.5201142599409502 0.09481808069713321
2.8787268954725476 2.86957501462946 0.09130142556433472
0.5110992889773299 0.5307306003836562 0.09130142556433472
3.170960911734543 3.1575154798225724 0.08553662632208328
0.5862564616088435 0.6150976872958903 0.08553662632208328
3.377198444373798 3.3597905325494475 0.07766563145999492
0.6610980818455634 0.6984390551183752 0.07766563145999492
2.953539446782471 2.932597695608403 0.0678822509939085
0.7727556143175172 0.8176768764865323 0.0678822509939085
2.6750137176015043 2.651053782493312 0.056427384220077335
0.9577553031302952 1.009150743635791 0.056427384220077335
2.4909939273088417 2.464605781387354 0.04358308797499638
0.815478813279294 0.872082905804337 0.04358308797499638
2.387134705956151 2.3589681129511906 0.029665631459994818
1.1054327356947076 1.1658516996231187 0.029665631459994818
2.3239225059704496 2.294671020881361 0.015017708643862022
1.0769333178263354 1.139679437747152 0.015017708643862022
2.3217689377236126 2.292152829193403 -1.6465195194651677e-16
0.5441404357419478 0.6076686939402864 -1.6465195194651677e-16
1.031809260796157 1.0025577757070687 -0.015017708643862348
0.533333138037298 0.5960792579581146 -0.015017708643862348
53.54536472769832 53.51719813469336 -0.029665631459995147
0.23727217691447924 0.2976911408428902 -0.029665631459995147
0.17404905953840935 0.23065315206345222 -0.04358308797499667
None None None
0.1403553723439496 0.19175081284944506 -0.05642738422007763
1.176477502771319 1.1525175676631265 -0.05642738422007763
0.11348273073635823 0.15840399290537327 -0.06788225099390874
1.147732399258399 1.126790648084331 -0.06788225099390874
0.1923440696117295 0.17739097099195777 -0.07766563145999512
0.09531896464189692 0.13485675071982126 -0.07766563145999512
0.1923440696117295 0.17739097099195777 -0.07766563145999512
0.09504539559881468 0.13458318167673902 -0.07766563145999512
0.10217156187760605 0.14973559404711717 -0.06788225099390874
1.0582051612084893 1.0402165550082598 -0.06788225099390874
0.1247236724651671 0.17914276639827914 -0.05642738422007763
None None None
0.1541575201939117 0.21409169719137333 -0.04358308797499667
None None None
0.9716299228221958 0.9474353010182759 -0.029665631459995147
0.21093964205501425 0.27491312376901844 -0.029665631459995147
0.9539381055474769 0.9288115799925809 -0.015017708643862348
0.4783238405326796 0.5447613875276144 -0.015017708643862348
2.042321126434193 2.01688139557764 -1.6465195194651677e-16
0.48793706464873604 0.555202764024009 -1.6465195194651677e-16
2.0354577626751524 2.010331237120256 0.015017708643862022
0.9707481180807038 1.0371856650756386 0.015017708643862022
2.0855215968979106 2.0613269750939907 0.029665631459994818
0.9966299337871949 1.0606034155011992 0.029665631459994818
2.17345532832671 2.1507883621599246 0.04358308797499638
0.736038874829827 0.7959730518272887 0.04358308797499638
2.3258625554846177 2.3052813808893413 0.056427384220077335
0.8565208627101475 0.9109399566432597 0.056427384220077335
2.559089583344855 2.5411009771446254 0.0678822509939085
0.6906185735474949 0.7381826057170062 0.0678822509939085
2.941022599563428 2.9260695009436564 0.07766563145999492
9.25960833885371 9.299146124931635 0.07766563145999492
2.9627713485969323 2.951221952472126 0.08553662632208328
0.5225273748284875 0.5530653633031979 0.08553662632208328
2.6966987210332096 2.68883741186621 0.09130142556433472
0.45538691513503504 0.4761731593805107 0.09130142556433472
2.513894891983397 2.509915241296085 0.09481808069713321
0.45371027541054254 0.4642329491078704 0.09481808069713321
1.632 1.632 1.728
1.609 1.609 1.705
1.633 1.633 1.729
1.6099999999999999 1.6099999999999999 1.706
1.633 1.633 1.729
1.6099999999999999 1.6099999999999999 1.706
2.3492460824695054 2.345923688624137 0.09481808069713321
0.3986754519045167 0.40977240560445616 0.09481808069713321
2.518004039893763 2.5114410605658914 0.09130142556433472
0.3989739177080205 0.420894581279129 0.09130142556433472
2.7467318421673186 2.737089879689276 0.08553662632208328
0.45407989536941856 0.4862845093240639 0.08553662632208328
2.6084738486994885 2.595990320187324 0.07766563145999492
8.120392326617077 8.16208790647871 0.07766563145999492
2.26676364086767 2.251745932223808 0.0678822509939085
0.6030794414925906 0.6532393037053219 0.0678822509939085
2.065468510015552 2.048286407067722 0.056427384220077335
0.7482101879579051 0.8055992302430186 0.056427384220077335
1.9300689408130882 1.9111455239599962 0.04358308797499638
0.6460935325357038 0.7092986462088285 0.04358308797499638
1.848020700379546 1.8278219269473348 0.029665631459994818
0.8867978209952413 0.9542626863919991 0.029665631459994818
1.802692366928845 1.7817155977553019 0.015017708643862022
0.8638509706833418 0.933914378914613 0.015017708643862022
1.805024941651315 1.7837866944113978 -1.6465195194651677e-16
0.43198511792084193 0.5029218753488521 -1.6465195194651677e-16
0.8984094451792852 0.8774326760057419 -0.015017708643862348
0.4230663690122518 0.493129777243523 -0.015017708643862348
0.9065754667772649 0.8863766933450538 -0.029665631459995147
0.185287686963147 0.25275255235990474 -0.029665631459995147
0.13520593321322014 0.19841104688634484 -0.04358308797499667
None None None
46.91487338856869 46.89769128562086 -0.05642738422007763
0.10912053128664041 0.16650957357175383 -0.05642738422007763
0.09027121209746622 0.1404310743101973 -0.06788225099390874
1.0115033293979618 0.9964856207540999 -0.06788225099390874
0.07543358035826477 0.1192458055002509 -0.07766563145999512
0.1696380269598942 0.15963638829082327 -0.07766563145999512
0.0756406704026927 0.11945289554467885 -0.07766563145999512
0.1696380269598942 0.15963638829082327 -0.07766563145999512
0.07920611212099472 0.13191230264881534 -0.06788225099390874
0.9238422573291003 0.9118102669069271 -0.06788225099390874
0.9831403337137593 0.9693742590745648 -0.05642738422007763
0.09423673018411616 0.1545390847651586 -0.05642738422007763
0.11592060225347399 0.18233427678591224 -0.04358308797499667
None None None
0.8405008491906036 0.8243178578808517 -0.029665631459995147
0.15871472923009883 0.22960439863259535 -0.029665631459995147
0.8316768217845155 0.8148705105309432 -0.015017708643862348
0.3685888070853973 0.44220893242793846 -0.015017708643862348
1.603547675853368 1.5865318718159875 -1.6465195194651677e-16
0.3771120870812728 0.45164989654673726 -1.6465195194651677e-16
1.596167815233059 1.5793615039794866 0.015017708643862022
0.7577110005654916 0.8313311259080327 0.015017708643862022
1.630775687274848 1.614592695965096 0.029665631459994818
0.7244847306072235 0.7953744000097202 0.029665631459994818
1.7009937517017777 1.685832559290161 0.04358308797499638
0.5514309656854262 0.6178446402178646 0.04358308797499638
1.8172477076786964 1.8034816330395016 0.056427384220077335
0.6484096890732766 0.7087120436543192 0.056427384220077335
1.984847464088209 1.9728154736660357 0.0678822509939085
0.5230000773300645 0.5757062678578853 0.0678822509939085
2.278756518160261 2.26875487949119 0.07766563145999492
0.10049147573404524 0.14430370087603162 0.07766563145999492
2.5432054784719904 2.53548046509359 0.08553662632208328
0.38822705792571555 0.42206651529443295 0.08553662632208328
2.3646135403150823 2.359355367694578 0.09130142556433472
0.34440094576406494 0.36743439561237534 0.09130142556433472
2.2047823040257404 2.2021204458239234 0.09481808069713321
0.3439156136467257 0.3555758959957263 0.09481808069713321
1.633 1.633 1.729
1.609 1.609 1.705
1.633 1.633 1.729
1.6099999999999999 1.6099999999999999 1.706
1.632 1.632 1.728
1.609 1.609 1.705
2.066518339082577 2.0645196434569866 0.09481808069713321
0.29020402443330845 0.3024161281404547 0.09481808069713321
2.2131895008374403 2.209241324105852 0.09130142556433472
0.28992998160173855 0.31405348649311265 0.09130142556433472
2.3472099051297852 2.3414094645065786 0.08553662632208328
0.31518595737370214 0.3506268626975558 0.08553662632208328
2.0379854249726197 2.030475546556496 0.07766563145999492
0.08492305106354903 0.1308086841091877 0.07766563145999492
1.7760420650243367 1.7670076669457595 0.0678822509939085
0.43839174493504224 0.49359224913119715 0.0678822509939085
1.6240196989785018 1.613683238101613 0.056427384220077335
0.5432198046228364 0.606375960356228 0.056427384220077335
1.5188755085158772 1.507491502812213 0.04358308797499638
0.44858269129587913 0.5181393844090877 0.04358308797499638
1.4568337834014473 1.444682544872781 0.029665631459994818
0.5820405336637128 0.6562850475268615 0.029665631459994818
1.4244884345896656 1.411869167056221 0.015017708643862022
0.6493148216743345 0.726419009952698 0.015017708643862022
1.430234288466055 1.4174577201754537 -1.6465195194651677e-16
0.317042304402917 0.3951076060869521 -1.6465195194651677e-16
0.810421920581585 0.7978026530481405 -0.015017708643862348
0.3140466510582624 0.39115083933662587 -0.015017708643862348
0.8246353841372228 0.8124841456085563 -0.029665631459995147
0.13577259391082544 0.21001710777397403 -0.029665631459995147
0.0977815341182087 0.1673382272314171 -0.04358308797499667
0.8564573004914126 0.8450732947877485 -0.04358308797499667
0.92171134339052 0.9113748825136314 -0.05642738422007763
0.07984812685830145 0.14300428259169298 -0.05642738422007763
0.33274399863526527 0.323709600556688 -0.06788225099390874
0.06490195570110446 0.12010245989725919 -0.06788225099390874
0.05207022141953589 0.09998397878885018 -0.07766563145999512
0.10471205974281819 0.09970135292296088 -0.07766563145999512
0.05207022141953589 0.09998397878885018 -0.07766563145999512
0.10471205974281819 0.09970135292296088 -0.07766563145999512
0.312937295579962 0.306909405705148 -0.06788225099390874
0.05553440024378782 0.11317474187507268 -0.06788225099390874
0.06630608160036759 0.1322537109853344 -0.05642738422007763
0.8726689866533615 0.8657723403777282 -0.05642738422007763
0.07951240590776022 0.15214347354331742 -0.04358308797499667
38.63299467699452 38.625399092638034 -0.04358308797499667
4.856904615964981 4.934430703917248 -0.029665631459995147
38.58967926805161 38.58157177410942 -0.029665631459995147
0.7618989976285744 0.7534792275087704 -0.015017708643862348
0.25744062921072736 0.33795278789998384 -0.015017708643862348
1.2856874263878055 1.2771627027743522 -1.6465195194651677e-16
0.41501427282400505 0.49653002569878685 -1.6465195194651677e-16
1.277995191539783 1.269575421419979 0.015017708643862022
0.5136185654760218 0.5941307241652783 0.015017708643862022
0.46487621977221355 0.5424023077244802 0.029665631459994818
1.3014456886294723 1.2933381946872824 0.029665631459994818
1.3527010390171768 1.3451054546606873 0.04358308797499638
0.5221309513439076 0.5947620189794649 0.04358308797499638
1.442076215979574 1.435179569703941 0.056427384220077335
0.4461610326515179 0.5121086620364849 0.056427384220077335
1.577656539999737 1.571628650124923 0.0678822509939085
0.35938989686956746 0.4170302385008525 0.0678822509939085
1.8015909742289018 1.7965802674090445 0.07766563145999492
0.06886410835248301 0.11677786572179755 0.07766563145999492
2.1401794716552622 2.136309328121849 0.08553662632208328
0.06662736796107105 0.10363474534533865 0.08553662632208328
2.080965907444277 2.0783316229753708 0.09130142556433472
0.23673256171752563 0.2619223146651017 0.09130142556433472
1.9418049979269427 1.9404714373488563 0.09481808069713321
0.23666114640724706 0.24941301960056522 0.09481808069713321
1.632 1.632 1.728
1.609 1.609 1.705
1.632 1.632 1.728
1.632 1.632 1.728
1.609 1.609 1.705
1.609 1.609 1.705
1.8212635670092738 1.820596457541979 0.09481808069713321
0.18369925278048324 0.19697831090068377 0.09481808069713321
1.9490795456348522 1.9477617531493567 0.09130142556433472
0.18342981502675743 0.20966095678557195 0.09130142556433472
1.9496409082448665 1.947704881165666 0.08553662632208328
0.05137179387243158 0.08990912150358969 0.08553662632208328
1.6278226349078277 1.6253160446469175 0.07766563145999492
0.05322285798359808 0.10311745458276299 0.07766563145999492
1.4231945053522843 1.420179072480784 0.0678822509939085
0.2773795250577996 0.3374028200660275 0.0678822509939085
1.3004094782625648 1.2969594527454187 0.056427384220077335
0.34469371426287765 0.4133677349511707 0.056427384220077335
1.2220207311979638 1.2182210641133824 0.04358308797499638
0.4148892779300034 0.4905230419930082 0.04358308797499638
1.1761731724936826 1.1721174242556602 0.029665631459994818
0.36727662504791786 0.44800777820033155 0.029665631459994818
1.1521144077508332 1.1479024443412469 0.015017708643862022
0.38267706255921147 0.46651773587908546 0.015017708643862022
1.1572355572040658 1.1529710911407647 -1.6465195194651677e-16
0.3279374488352154 0.4128232066941725 -1.6465195194651677e-16
0.3509919675760718 0.43483264089594575 -0.015017708643862348
0.733611914503191 0.7293999510936046 -0.015017708643862348
3.7665242714969382 3.8472554246493518 -0.029665631459995147
0.737437734279869 0.7333819860418468 -0.029665631459995147
0.061826790975019155 0.13746055503802385 -0.04358308797499667
36.265481412606164 36.26168174552158 -0.04358308797499667
0.05157898541188225 0.12025300610017513 -0.05642738422007763
0.8361166358809559 0.8326666103638098 -0.05642738422007763
0.04343974711608236 0.10346304212431001 -0.06788225099390874
0.2944091546080068 0.29139372173650663 -0.06788225099390874
0.028824770655826015 0.08065096654184532 -0.07766563145999512
0.6579001860266342 0.6579001860266342 -0.07766563145999512
0.028824770655826015 0.08065096654184532 -0.07766563145999512
0.6559001860266342 0.6559001860266342 -0.07766563145999512
0.031454946694725296 0.0938019593344229 -0.06788225099390874
0.2719999999999994 0.2719999999999995 -0.06788225099390874
0.03662983746143441 0.10796247648574905 -0.05642738422007763
0.7949178946704962 0.7949178946704963 -0.05642738422007763
0.04401573538770941 0.12257755448440644 -0.04358308797499667
0.7334835285121636 0.7334835285121637 -0.04358308797499667
2.6836510729800067 2.767507619431196 -0.029665631459995147
0.7035598571485387 0.7035598571485389 -0.029665631459995147
0.25597933102228637 0.34306577835041824 -0.015017708643862348
0.6970465078400351 0.6970465078400352 -0.015017708643862348
0.24985462850286785 0.3380266193513752 -1.6465195194651677e-16
1.0428822509939066 1.0428822509939066 -1.6465195194651677e-16
1.0370465078400344 1.0370465078400346 0.015017708643862022
0.2652661324275912 0.3523525797557231 0.015017708643862022
1.0575598571485383 1.0575598571485383 0.029665631459994818
0.2683743922393436 0.35223093869053324 0.029665631459994818
1.0944835285121628 1.094483528512163 0.04358308797499638
0.29405105796951675 0.37261287706621393 0.04358308797499638
1.1639178946704958 1.1639178946704958 0.056427384220077335
0.24684209638998567 0.3181747354143005 0.056427384220077335
1.2709999999999977 1.2709999999999977 0.0678822509939085
0.19861737199021123 0.260964384629909 0.0678822509939085
1.445900186026633 1.4459001860266332 0.07766563145999492
0.03929209766350006 0.09111829354951963 0.07766563145999492
1.7358178970521667 1.7358178970521667 0.08553662632208328
0.03663160995153353 0.07666085613987816 0.08553662632208328
1.8329767691735401 1.8329767691735401 0.09130142556433472
0.13092612756997038 0.1581727711700315 0.09130142556433472
1.7136191236199556 1.7136191236199556 0.09481808069713321
0.13103609210071923 0.14482923032063763 0.09481808069713321
1.633 1.633 1.729
1.6099999999999999 1.6099999999999999 1.706
1.633 1.633 1.729
1.6099999999999999 1.6099999999999999 1.706
1.633 1.633 1.729
1.6099999999999999 1.6099999999999999 1.706
1.6076256513853873 1.608292760852682 0.09481808069713321
0.07856661450272118 0.09286022066020012 0.09481808069713321
1.7124981576446043 1.7138159501300998 0.09130142556433472
0.0783134500993084 0.10654870639291006 0.09130142556433472
1.573653436304674 1.5755894633838745 0.08553662632208328
0.02209553580839657 0.06357719652072928 0.08553662632208328
1.3091787729340447 1.3116853631949552 0.07766563145999492
0.024162507905567343 0.07786915688015453 0.07766563145999492
1.150806105303174 1.1538215381746744 0.0678822509939085
0.11840664734018452 0.18301584863712295 0.0678822509939085
1.053267351941691 1.0567173774588372 0.056427384220077335
0.14720994819924857 0.22113080885696204 0.056427384220077335
0.991042918276454 0.9948425853610355 0.04358308797499638
0.17002831300043528 0.2514406561002597 0.04358308797499638
0.9564876321754799 0.9605433804135024 0.029665631459994818
0.1617641289109677 0.24866331237370942 0.029665631459994818
0.9372965106353842 0.9415084740449707 0.015017708643862022
0.15726106456777328 0.24750734209472441 0.015017708643862022
0.1428389881077706 0.2342101968359942 -1.6465195194651677e-16
0.666716525892348 0.6709809919556495 -1.6465195194651677e-16
31.96767795286855 31.971889916278137 -0.015017708643862348
None None None
0.03632171325687433 0.12322089671961593 -0.029665631459995147
0.6681954428895103 0.6722511911275327 -0.029665631459995147
0.026665552252899974 0.10807789535272425 -0.04358308797499667
32.01297279795726 32.016772465041846 -0.04358308797499667
0.0220033265595426 0.09592418721725587 -0.05642738422007763
0.7537064125859114 0.7571564381030577 -0.05642738422007763
0.019750431720499048 0.08435963301743725 -0.06788225099390874
0.25212328723583527 0.2551387201073357 -0.06788225099390874
0.005771901234679902 0.06130600131937881 -0.07766563145999512
0.2339170448109043 0.23892775163076177 -0.07766563145999512
0.005771901234679902 0.06130600131937881 -0.07766563145999512
0.2339170448109043 0.23892775163076177 -0.07766563145999512
0.00661161518545493 0.07341924365831705 -0.06788225099390874
0.23620257256996147 0.24223046244477564 -0.06788225099390874
0.007283691272498884 0.08371982259871528 -0.05642738422007763
0.709048673515286 0.7159453197909194 -0.05642738422007763
0.008883993486781734 0.09306651643612504 -0.04358308797499667
0.669291307598964 0.6768868919554539 -0.04358308797499667
0.5357844202967611 0.6256404817684427 -0.029665631459995147
0.6334308010827303 0.6415382950249205 -0.029665631459995147
0.6287034581093958 0.6371232282292 -0.015017708643862348
0.024094956091158734 0.1174120016365751 -0.015017708643862348
0.04568232843207528 0.14016258268838008 -1.6465195194651677e-16
0.7855315662165208 0.7940562898299744 -1.6465195194651677e-16
0.8499897247925557 0.8584094949123601 0.015017708643862022
None None None
0.8635332536895223 0.8716407476317126 0.029665631459994818
0.05283478388138611 0.14269084535306778 0.029665631459994818
0.8941040486515768 0.9016996330080667 0.04358308797499638
0.055540481798061175 0.13972300474740462 0.04358308797499638
0.9488489306380729 0.9557455769137063 0.056427384220077335
0.04925882149732673 0.12569495282354332 0.056427384220077335
1.034067398658646 1.04009528853346 0.0678822509939085
0.03961676062047113 0.10642438909333349 0.0678822509939085
1.1701959899006094 1.1752066967204668 0.07766563145999492
0.008065452511934721 0.0635995525966339 0.07766563145999492
1.4032653986995185 1.407135542232932 0.08553662632208328
0.006905438500422781 0.04979857634576208 0.08553662632208328
1.5977155144069182 1.6003497988758248 0.09130142556433472
0.026119181430139478 0.05531518562820366 0.09130142556433472
1.5113278517106674 1.5126614122887538 0.09481808069713321
0.026171868454333384 0.04095183648578344 0.09481808069713321
1.634 1.634 1.73
1.6099999999999999 1.6099999999999999 1.706
1.633 1.633 1.729
1.609 1.609 1.705
1.633 1.633 1.729
1.609 1.609 1.705
1.4167622278598322 1.4187609234854226 0.09481808069713321
-0.026187577709663137 -0.010935833848281852 0.09481808069713321
1.488144561210758 1.4920927379423459 0.09130142556433472
-0.02607205366417455 0.004055885507084973 0.09130142556433472
1.2794433600789434 1.28524380070215 0.08553662632208328
-0.006779764457835052 0.03748252017200879 0.08553662632208328
1.066749013062347 1.07425889147847 0.07766563145999492
-0.007437082298989926 0.04986966344375082 0.07766563145999492
0.9425143805337383 0.9515487786123158 0.0678822509939085
-0.03939683104594902 0.02954329353931729 0.0678822509939085
0.8651960754004407 0.8755325362773296 0.056427384220077335
-0.04902318266748317 0.029852786093863562 0.056427384220077335
0.8139587440225963 0.8253427497262606 0.04358308797499638
-0.05687576850058577 0.029993856311604887 0.04358308797499638
0.7886788472466558 0.8008300857753226 0.029665631459994818
-0.05088683622126373 0.0418374261751391 0.029665631459994818
-0.05268580078023786 0.04360992012599395 0.015017708643862022
0.771065920888635 0.7836851884220799 0.015017708643862022
-0.042728988431236556 0.05476707074893782 -1.6465195194651677e-16
0.7784374801740092 0.7912140484646109 -1.6465195194651677e-16
-0.04517677673552513 0.051118944170706615 -0.015017708643862348
0.5816206452609385 0.5942399127943833 -0.015017708643862348
0.6066790191327114 0.6188302576613782 -0.029665631459995147
None None None
-0.008962539763402135 0.07790708504878836 -0.04358308797499667
None None None
-0.007283691272500576 0.07159227748884595 -0.05642738422007763
0.6774053436646891 0.6877418045415779 -0.05642738422007763
-0.006611615185456469 0.062328509399809606 -0.06788225099390874
0.22278778753768586 0.2318221856162633 -0.06788225099390874
0.16334754064190743 0.17334917931097846 -0.07766563145999512
-0.016381305430784535 0.04264153113067663 -0.07766563145999512
-0.016334146627907054 0.04268868993355411 -0.07766563145999512
0.16334754064190743 0.17334917931097846 -0.07766563145999512
-0.019750431720500488 0.051254153397445976 -0.06788225099390874
0.20760092581662504 0.21963291623879833 -0.06788225099390874
-0.021720373742279312 0.05951759139584098 -0.05642738422007763
0.6363425622348985 0.6501086368740933 -0.05642738422007763
-0.027844522324838965 0.06162647451840597 -0.04358308797499667
None None None
None None None
-0.03698193649716173 0.05851901917171273 -0.029665631459995147
-0.13075781735063977 -0.03157845333420384 -0.015017708643862348
0.729077447531024 0.7458837587845966 -0.015017708643862348
-0.12572034266325496 -0.025304695398779997 -1.6465195194651677e-16
0.7073071483881608 0.7243229524255415 -1.6465195194651677e-16
0.7003773056221885 0.717183616875761 0.015017708643862022
-0.1626843268986952 -0.06350496288225921 0.015017708643862022
-0.14705058241320507 -0.0515496267443305 0.029665631459994818
0.7121841540849242 0.7283671453946765 0.029665631459994818
-0.1539943200221037 -0.0645233231788586 0.04358308797499638
0.736575330364241 0.751736522775858 0.04358308797499638
0.7798432717790768 0.7936093464182715 0.056427384220077335
-0.1479173302424215 -0.06667936510430102 0.056427384220077335
0.8467608429215049 0.8587928333436782 0.0678822509939085
-0.11897255297472294 -0.047967967856776234 0.0678822509939085
0.95686768044566 0.9668693191147311 0.07766563145999492
-0.10145578582176233 -0.04243294926030086 0.07766563145999492
1.1444665574623438 1.1521915708407444 0.08553662632208328
-0.021388153765235948 0.024199596118033146 0.08553662632208328
1.3802754961760182 1.3855336687965227 0.09130142556433472
-0.07840776770506909 -0.04737762619918608 0.09130142556433472
1.3309623463860665 1.3336242045878834 0.09481808069713321
-0.07861377330560439 -0.0629053052441177 0.09481808069713321
1.634 1.634 1.73
1.6099999999999999 1.6099999999999999 1.706
1.634 1.634 1.73
1.6099999999999999 1.6099999999999999 1.706
1.634 1.634 1.73
1.609 1.609 1.705
1.2454025703292089 1.2487249641745777 0.09481808069713321
-0.13119349551437456 -0.11504380561425284 0.09481808069713321
1.2808944768734483 1.2874574562013197 0.09130142556433472
-0.02908611893891771 0.0028156018982368643 0.09130142556433472
1.0435035780965765 1.0531455405746188 0.08553662632208328
-0.03537238264234131 0.011495842889094006 0.08553662632208328
0.8715972615881872 0.8840807901003521 0.07766563145999492
-0.1685990019763532 -0.10791832300994372 0.07766563145999492
0.7722550542560377 0.7872727628999 0.0678822509939085
-0.19743684638785117 -0.12443787369024802 0.0678822509939085
0.7118902109630818 0.729072313910912 0.056427384220077335
-0.24566157078762788 -0.1621417813363465 0.056427384220077335
-0.24926978678632145 -0.15728571498394178 0.04358308797499638
0.6700179438715441 0.6889413607246364 0.04358308797499638
0.6487039618963841 0.6689027353285953 0.029665631459994818
None None None
-0.27604826626257645 -0.17408313719415072 0.015017708643862022
0.6376932344167452 0.6586700035902888 0.015017708643862022
-0.20648998804251364 -0.10325385081426006 -1.6465195194651677e-16
0.6434737468484076 0.6647119940883254 -1.6465195194651677e-16
0.6623956803689275 0.683372449542471 -0.015017708643862348
-0.21135546325273846 -0.10939033418431279 -0.015017708643862348
0.6981088538007486 0.7183076272329598 -0.029665631459995147
-2.68498900199615 -2.5868056009680793 -0.029665631459995147
-0.04684899683339779 0.04513507496898169 -0.04358308797499667
0.6024494887670456 0.6213729056201378 -0.04358308797499667
-0.03631503063413764 0.04720475881714353 -0.05642738422007763
0.6007292041782618 0.617911307126092 -0.05642738422007763
-0.03295027912439455 0.040048693573208366 -0.06788225099390874
0.19610682954778763 0.21112453819164986 -0.06788225099390874
0.15880196349376713 0.173755062113539 -0.07766563145999512
-0.036773104839042406 0.02550553202824203 -0.07766563145999512
0.15948156279199166 0.17443466141176353 -0.07766563145999512
-0.03699390689467405 0.02528472997261039 -0.07766563145999512
-0.04608937178366343 0.028831947320816148 -0.06788225099390874
0.18223053615846144 0.20021914235869104 -0.06788225099390874
-0.0506957771893573 0.035023412626362674 -0.05642738422007763
0.5567520306335689 0.5773332052288455 -0.05642738422007763
0.5727293740825252 0.5953963402493105 -0.04358308797499667
-0.06558042592075901 0.02882594366725763 -0.04358308797499667
0.636454009455232 0.6606486312591522 -0.029665631459995147
None None None
-0.28751137658198583 -0.18286110973356176 -0.015017708643862348
0.6037710986415658 0.628897624196462 -0.015017708643862348
-0.2805754079022385 -0.17462066231380075 -1.6465195194651677e-16
0.5854066554853831 0.6108463863419367 -1.6465195194651677e-16
0.580664722501932 0.6057912480568284 0.015017708643862022
-0.37461778752866853 -0.26996752068024443 0.015017708643862022
0.5888820585795155 0.6130766803834355 0.029665631459994818
-0.32278501083815353 -0.2220160596138746 0.029665631459994818
0.6060297396955272 0.6286967058623125 0.04358308797499638
-0.33860216770928425 -0.2441957981212674 0.04358308797499638
0.6417019429116348 0.6622831175069114 0.056427384220077335
-0.3470121358470208 -0.26129294603130054 0.056427384220077335
0.6960076056162025 0.7139962118164321 0.0678822509939085
-0.2785939363637824 -0.20367261725930252 0.0678822509939085
0.7840333178603303 0.7989864164801023 0.07766563145999492
-0.23715097032475746 -0.17487233345747272 0.07766563145999492
0.9344807896288516 0.9460301857536579 0.08553662632208328
-0.05126139284461738 -0.0031589449451459237 0.08553662632208328
1.1747117625117411 1.182573071678741 0.09130142556433472
-0.04421411895101302 -0.011472301929511725 0.09130142556433472
1.1657988092785072 1.1697784599658196 0.09481808069713321
-0.1841408568917523 -0.16756588294715125 0.09481808069713321
1.634 1.634 1.73
1.6099999999999999 1.6099999999999999 1.706
1.635 1.635 1.731
1.609 1.609 1.705
1.635 1.635 1.731
1.609 1.609 1.705
1.0881689351107062 1.092801915205203 0.09481808069713321
-0.23708810963436167 -0.22010420914344375 0.09481808069713321
1.0814214408028588 1.0905733216459466 0.09130142556433472
-0.05384997943924738 -0.020300378453832115 0.09130142556433472
0.8521657889375852 0.8656112208495559 0.08553662632208328
-0.06548879935544911 -0.0161996003965394 0.08553662632208328
0.717528003676003 0.7349359155003538 0.07766563145999492
-0.30440548864085826 -0.24059035536829526 0.07766563145999492
0.6360883651652443 0.6570301163393124 0.0678822509939085
-0.35725508073403217 -0.2804853535192713 0.0678822509939085
-0.44559174834871706 -0.35775775265990295 0.056427384220077335
0.5854840643805626 0.6094439994887552 0.056427384220077335
-0.42506797771451205 -0.32833247802982235 0.04358308797499638
0.5541628736683394 0.5805510195898271 0.04358308797499638
0.5369439900485995 0.5651105830535601 0.029665631459994818
-0.40538601012839415 -0.302130955496783 0.029665631459994818
0.5286743993367471 0.5579258844258357 0.015017708643862022
-0.47163384814366555 -0.36440172069404264 0.015017708643862022
-0.3525353205904226 -0.243966531183625 -1.6465195194651677e-16
0.5324807998564466 0.5620969083866565 -1.6465195194651677e-16
-0.3604810880196657 -0.25324896057004287 -0.015017708643862348
0.5496168361557038 0.5788683212447924 -0.015017708643862348
0.5788288636865131 0.6069954566914737 -0.029665631459995147
None None None
0.626509473588372 0.6528976195098597 -0.04358308797499667
-0.08207418527041517 0.01466131441427436 -0.04358308797499667
-0.06516751299474563 0.022666482694068235 -0.05642738422007763
0.5848494450830182 0.6088093801912108 -0.05642738422007763
-0.059661711439174564 0.017108015775586044 -0.06788225099390874
0.17408551655310547 0.1950272677271736 -0.06788225099390874
0.1529175293443668 0.17276307486600823 -0.07766563145999512
-0.06031461167944503 0.004974040166350245 -0.07766563145999512
0.1529175293443668 0.17276307486600823 -0.07766563145999512
-0.06031461167944503 0.004974040166350245 -0.07766563145999512
-0.0727557129513524 0.005786659921449763 -0.06788225099390874
0.16170552270114702 0.18557975186897313 -0.06788225099390874
0.6362559595556069 0.6635710096134818 -0.05642738422007763
-0.07949907098051445 0.010363049031975283 -0.05642738422007763
-0.09917775762936575 -0.00020859410717366522 -0.04358308797499667
0.5704776164584309 0.6005609002204761 -0.04358308797499667
0.5272830666170647 0.559393833796364 -0.029665631459995147
-0.13647070566640584 -0.03083144790025015 -0.029665631459995147
0.4995032721545968 0.5328508490936692 -0.015017708643862348
-0.42975867454523464 -0.3200505116579141 -0.015017708643862348
0.4829543658392461 0.5167176245195892 -1.6465195194651677e-16
-0.4196647324728118 -0.30858904353513 -1.6465195194651677e-16
0.4788043298556153 0.5121519067946877 0.015017708643862022
-0.5604801007771157 -0.45077193788979514 0.015017708643862022
0.48588518201910186 0.5179959491984011 0.029665631459994818
-0.482559608493936 -0.3769203507277802 0.029665631459994818
0.5006926109932937 0.5307758947553389 0.04358308797499638
-0.5058278552532414 -0.4068586917310491 0.04358308797499638
-0.5493282824841509 -0.45946616247166094 0.056427384220077335
0.5298042563037026 0.5571193063615777 0.056427384220077335
0.5733187752751779 0.5971930044430042 0.0678822509939085
-0.4404860802017841 -0.3619437073289817 0.0678822509939085
0.6443695593573259 0.6642151048789674 0.07766563145999492
-0.3737667899337286 -0.308478138087933 0.07766563145999492
0.7300894234307301 0.7454176221118547 0.08553662632208328
-0.07992229574410198 -0.029494988214369335 0.08553662632208328
0.974349161007464 0.9847825817251675 0.09130142556433472
-0.06635969187806044 -0.032035416334411385 0.09130142556433472
1.0147960281026944 1.0200777654123687 0.09481808069713321
-0.29090213618889216 -0.27352607021095077 0.09481808069713321
1.635 1.635 1.731
1.6099999999999999 1.6099999999999999 1.706
1.635 1.635 1.731
1.609 1.609 1.705
1.635 1.635 1.731
1.609 1.609 1.705
0.9418177450434762 0.9477430271312753 0.09481808069713321
-0.34474397382444344 -0.32699289043876095 0.09481808069713321
0.8889511785890946 0.9006558426548076 0.09130142556433472
-0.07704769840759926 -0.041982622221657995 0.09130142556433472
