1.9255838410046227 0.9811339721270904 2.053331018681236
0.6403527075692819 1.9708029860715883 1.9686869887309675
2.093831207910485 1.0668602873760542 2.092083318794287
0.6906723389259807 2.1256708870948287 1.989617568512625
1.8597167489005242 0.9475730124158587 1.6868004332717645
0.7369848005928462 2.2682059879330017 1.9278874975954987
2.1917637653174102 1.1167594177089566 1.7380684681565322
0.8413583976908481 2.5894348894372863 1.9240375516085941
1.9798830604714188 1.0088008063331064 1.3048832600892883
0.5375816698319286 1.6545062551289176 1.0209829832320243
1.7716051012903646 0.9026778855615972 0.9016251324827377
0.9309229660181964 2.8650862868925753 1.366965394715772
1.7164291958853626 0.8745643575588515 0.5945486971773961
1.7778348984745727 0.90585212577214 0.31177388882517715
1.7271080715840472 0.880005516499319 -3.320481030921421e-15
0.8926251548635462 2.7472177439920613 -4.951564429891603e-15
1.8784082809817708 0.9570968237012953 -0.3294509833747302
0.8873747850859922 2.7310587673636006 -0.4489669146654681
1.318793502132436 0.6719588519643623 -0.4564181006918003
0.522772096696802 1.6089270756983454 -0.5219297034992896
1.0548614160583287 0.5374787371714504 -0.5357087896926674
0.4179181522734527 1.2862198171387127 -0.6124331841486512
0.8817998569093191 0.4492994684558444 -0.5789684735080881
0.3344386300120113 1.029296265783418 -0.6336325019712882
0.7665975942247117 0.3906009837786945 -0.6045762979144996
0.12545485767139164 0.0639224427462755 -0.08332875042061977
0.09439748448159847 0.29052558393977357 -0.2346149283687353
0.03355853228053449 0.13978134679268306 -0.09533769808815551
0.033732653134217375 0.14050661234449635 -0.09622870461234388
0.11881105490113865 0.0728075080831546 -0.08171071643186988
0.07197730468013054 0.29980705063587765 -0.23704197935186017
0.7327409200234575 0.44902421329275427 -0.6038691911333132
0.8395869378436812 0.5144995372226007 -0.5760295472466257
0.2521849661700381 1.0504259816083266 -0.6324569314667032
1.005190432243689 0.6159814891096524 -0.5334388371939697
0.2952264373528784 1.2297066116305657 -0.5724820201715709
1.2398856859782958 0.7598029255709209 -0.4483836588380516
1.8324474985602595 1.1229252713427755 -0.33586479644137973
0.2731183057519556 1.1376196161561127 -0.1824025862369114
1.7941178077897795 1.0994368066294653 -3.60519169782894e-15
0.4336206631249235 1.80616004842071 -3.1815559464665476e-15
1.6953205433717122 1.0388937651280044 0.31067884756989556
0.3916626765771067 1.6313924566996307 0.2620277289423842
1.7021337413769848 1.0430688982353888 0.6161798867836423
0.4422468233186336 1.8420905914923342 0.5846601533573978
1.7455693335010891 1.0696862633223647 0.9284105719673708
1.9525571462974054 1.1965285581393081 1.3448526572451764
0.4086774309828113 1.7022640093138577 1.0274486210072415
2.157879981404234 1.3223505533158983 1.788273049620777
0.3261936003628597 1.358694128596394 0.9857068529740464
0.5583843286915814 2.325838115921152 1.9335506165561234
1.5079856715916278 0.9240948080550754 1.4287240120661564
1.8230778666235403 1.1171835535073729 1.9031899356663533
0.5024076162899719 2.0926783286243085 1.9156640270049903
1.8469280267127246 1.1317989504072885 2.0580863012627115
0.4839844885746198 2.0159404789872055 1.9696380452472624
1.7268321085667506 1.058204077115047 1.9980935130239632
0.45950041940528163 1.9139569913052827 1.9417952776100407
0.08185345577799281 0.05015986221273114 2.038
0.02241075493016678 0.093347512358177 2.0109999999999997
0.07766563145999492 0.056427384220077474 2.038
0.015017708643862022 0.09481808069713325 2.0109999999999997
0.07766563145999492 0.056427384220077474 2.038
0.015017708643862022 0.09481808069713325 2.0109999999999997
1.636866913060124 1.1892534250230355 1.9961181363427731
0.3077603499592385 1.9431223757120821 1.9408075892694454
1.735462141249469 1.2608870513609878 2.0381141144205137
0.3232297961999337 2.0407926153454565 1.9629806496331967
1.506774550880078 1.0947357913305558 1.6572721349903636
0.3316683670030949 2.0940716545356084 1.8871518182309623
1.1780645908220597 0.8559140259694616 1.1755016928267978
0.36495785195595387 2.3042531905794763 1.8858186138880015
1.0118293107105936 0.7351370253135975 0.8817621561396239
0.21796188659024293 1.3761571916005897 0.9828784258493002
0.917482343355317 0.6665899411416555 0.6641973350904936
0.27276613304934927 1.7221775856924 1.0233341242411942
0.8642906929627491 0.6279439449966618 0.4830458917228765
0.22592175319426983 1.4264138114283762 0.6542003101246852
0.8344825001401323 0.6062870252280465 0.31736045322306955
0.2596465773282494 1.6393439708864412 0.5120411596792854
0.8248169292788817 0.5992645769398987 0.15878098201583282
0.25355609219692177 1.6008901611634152 0.2531109644350911
0.8264277883503275 0.6004349345619272 -1.7442816159334117e-15
0.25464921932329926 1.6077918942133134 -2.7870773115946847e-15
0.8505939427855469 0.6179926734974595 -0.1637868848971237
0.9005551151037378 0.6542915899356293 -0.3426998467618189
0.27104798055515555 1.7113295977797416 -0.5345994002686626
0.2001397512436581 0.14541004082293163 -0.1035098339406171
0.19923856054158937 1.2579427634011473 -0.5765679346692267
0.7982419447460102 0.5799567204956827 -0.5772051177512106
0.16930372480173836 1.0689416489071126 -0.6336325019712882
0.6976640033432441 0.5068825686873418 -0.6059905114768728
0.10983578934099532 0.07980037205327113 -0.07766563145999512
0.04838151559912052 0.3054688673962243 -0.2378509963462351
0.10486160932788996 0.08956027517356664 -0.08820964589464855
0.10486160932788996 0.08956027517356664 -0.08820964589464855
0.6074044603622426 0.5187724178597519 -0.6415504765393347
0.024265560424126156 0.30832317878697196 -0.2378509963462351
0.02734172845474308 0.3474095995868668 -0.23688077169749405
0.6534768007875608 0.5581219139511139 -0.6038691911333132
0.08522622659185537 1.082901883967755 -0.6359836429804582
0.8206894292885482 0.7009349903193854 -0.48803978722001484
0.7623880419273834 0.6511409014384907 -0.30839896038619957
0.12309759555845172 1.5641032516965518 -0.4839206131911708
0.7207689961535422 0.615594878295633 -0.14751770053293953
0.08757103636534329 1.1126955170170765 -0.17395512512473885
0.6995904319754227 0.5975066756852526 -1.5693389169902379e-15
0.10884830299566926 1.3830488230481823 -2.3737323072289498e-15
0.6935406823902585 0.5923397014126732 0.14188605979148808
0.10884830299566926 1.3830488230481823 0.21650529961567747
0.7048844358506823 0.6020281821438807 0.2849136688137002
0.11346674565084951 1.4417317009871862 0.44591152288304703
0.7351438760863416 0.6278721856020933 0.4367388607494429
0.7888840842909445 0.6737706594624301 0.6071821656181238
0.13163465286701753 1.672576849703648 0.9845402975898909
0.8593233395605977 0.7339314668866717 0.7962022356160517
0.10978757463351722 1.394983400781561 0.9871210665364194
1.0079036937200843 0.8608310776136108 1.0695204665636797
0.16814970395081316 2.1365445647262433 1.7321053849567616
1.2347777763999854 1.0545998496627562 1.4443215757093437
0.1669740071347694 2.121605920273922 1.8942798704244694
1.5886453044167248 1.356831270554556 1.984854949507985
0.1614092774769955 2.0508993259407817 1.95442114098654
1.540032351089813 1.3153118860547035 1.9980935130239632
0.15435600302322625 1.9612789766707572 1.9408075892694454
0.07299897269760293 0.062347012639697684 2.038
0.007532073189872951 0.09570406403838029 2.012
0.0678822509939085 0.06788225099390863 2.038
-1.6465195194651677e-16 0.096 2.012
0.0678822509939085 0.06788225099390863 2.038
-1.6465195194651677e-16 0.096 2.012
1.4306741417946984 1.4306741417947009 1.9961181363427731
-3.370813118240154e-15 1.9653460255130646 1.938832212588255
1.3706407260839715 1.370640726083974 1.841245415547417
-3.4530431635982202e-15 2.0132900933546565 1.9125746542695536
1.0360164091364565 1.0360164091364585 1.3026515383633934
-3.632936536763036e-15 2.11817657432047 1.8853698051825858
0.8526488139908475 0.8526488139908489 0.9724384272386862
-3.3588216292996218e-15 1.9583544112340852 1.5824372409973964
0.7371092185015724 0.7371092185015737 0.7339768388716356
-2.3623260926811483e-15 1.3773496288161549 0.9715647173503154
0.6695446213658947 0.6695446213658959 0.5536937076595089
0.6231340144784261 0.6231340144784272 0.397695677771842
-2.423924236249967e-15 1.4132643064904737 0.6401266046327593
0.596431052176192 0.596431052176193 0.25895624128620476
-2.3024465244362126e-15 1.3424369631383068 0.4137737554680527
0.5880017006778122 0.5880017006778132 0.1292148681232295
-2.2459959703497432e-15 1.3095235774891567 0.20430341134253957
0.5922161767462953 0.5922161767462965 -1.4269835835364785e-15
-2.2528380647227447e-15 1.313512847291567 -2.2468130942701764e-15
0.6097806982842269 0.6097806982842279 -0.1340643365394795
0.6456314738300785 0.6456314738300796 -0.2805874308924541
-2.4376137181734244e-15 1.4212459322721032 -0.4381860980236783
0.7054307194898725 0.7054307194898737 -0.45081256624137184
0.11370356194948325 0.11370356194948344 -0.07582429754572931
-1.767403965476054e-15 1.0304814408809115 -0.6030676688520795
-6.059416160792305e-16 0.3532930794680247 -0.2404163056034268
0.6083752953564102 0.6083752953564112 -0.6045762979144996
-5.32078504365919e-16 0.3102273359973296 -0.23866001334061004
-0.03840618817297301 0.4879968900618346 -0.42768313161041727
0.08590653690258689 0.1005836314586249 -0.0810815937011416
-0.03832925578840764 0.4870193714327048 -0.4267921250862289
0.08590653690258689 0.1005836314586249 -0.0810815937011416
0.09239753782737029 0.10818361707504365 -0.08494678440936966
-0.0243401562524094 0.30927100865358903 -0.23866001334061004
0.5574765355137068 0.6527211597241465 -0.6031620843521266
-0.02726631373732155 0.3464513647471719 -0.2361736649163075
-0.08514807478411118 1.081908871098005 -0.6353958577281658
0.5975066756852514 0.6995904319754237 -0.41540130726168706
0.5465065773124009 0.6398769889238749 -0.2583382072974577
-0.10211806222462755 1.2975330058875136 -0.4011040586986843
0.5174829598399117 0.6058946989991943 -0.12373966184682414
0.500724445262571 0.5862729994776243 -1.3120702420738055e-15
-0.09429529966433119 1.1981353831939083 -2.0547191503325736e-15
0.4955697156875856 0.5802375865913253 0.11842089003545365
-0.09398246943017168 1.1941604981910123 0.1867827512580339
0.5020132592701789 0.5877820067992318 0.2370160346855836
-0.09625063704477847 1.2229803002781665 0.37792778412055894
0.520061922853008 0.6089142767240985 0.3609224472929388
-0.10149210971476434 1.2895795251420696 0.5856477446640138
-0.10963102669487167 1.3929942706220395 0.8193726416957062
0.5574765355137068 0.6527211597241465 0.5013808202054788
0.6149487732056338 0.7200125042892561 0.6660945878777272
-0.10994412362781569 1.3969725443542946 0.9885352800987925
0.7041694185163331 0.8244764581395694 0.8737383539249426
-0.14095700071550982 1.7910285100883478 1.4513764879086548
0.8550015004984622 1.0010781358841965 1.1698915662593266
-0.16509292748957932 2.097704537176988 1.8728957138439486
1.1311097535425672 1.3243593641609788 1.6538872818372716
-0.15372908103727462 1.9533131775635555 1.8612176023896152
1.3140144514324787 1.5385132503253272 1.9961181363427731
-0.1543560030232334 1.9612789766707568 1.9408075892694454
0.06234701263969756 0.07299897269760304 2.038
-0.0075320731898733 0.09570406403838028 2.013
0.056427384220077335 0.07766563145999501 2.038
-0.015017708643862348 0.0948180806971332 2.013
0.056427384220077335 0.07766563145999501 2.038
-0.015017708643862348 0.0948180806971332 2.013
1.1845564600939238 1.6304020954506135 1.988216629618012
-0.30744785412008396 1.9411493546342473 1.938832212588255
0.9468415869712131 1.303215641857415 1.5292988782026067
-0.30588538636571627 1.9312843214834776 1.8574133763244345
0.7157988855600493 0.9852126447782686 1.0816819203646781
0.5910726528943571 0.8135417131287284 0.8098260113693219
0.5162297388149265 0.7105292793144224 0.6173042199758555
0.46951681092594966 0.646234449915761 0.46611370506793054
-0.13397011418289945 0.8458540113434592 0.5002052497008939
0.4380230755307297 0.602887041909677 0.3354989793075242
-0.12325010765704654 0.77817055390353 0.3550205707963247
0.42054258264202354 0.5788272075367369 0.2190930490118367
-0.11750727677277466 0.7419117467094362 0.23021766080933478
0.4164656579382554 0.5732158020833481 0.10981699445824104
-0.11471511156962556 0.7242827094288309 0.11372785608424676
0.4199601199587145 0.5780255164300812 -1.214308145605561e-15
-0.11487020156170581 0.7252619091012386 -1.2486106355944188e-15
0.4345259874214189 0.5980737130617269 -0.11466646287449063
-0.11766243011962413 0.7428913463881139 -0.11670011092001366
0.4590151234618455 0.6317801171557291 -0.23948817064058583
-0.12402648851074444 0.7830724296945297 -0.24319637457308524
0.5027938548470632 0.6920363715355069 -0.3858919247786164
-0.13412556382194185 0.8468354817374188 -0.3867999057780955
-0.167278190376024 1.0561529278587085 -0.6259912936914861
0.5606550121192027 0.7716754223024189 -0.557808204425559
0.5057143220568767 0.6960560498024232 -0.6045762979144996
-0.05436452158348245 0.3432440804922921 -0.2361736649163075
0.11835519837140164 0.16290195523217688 -0.143196008004366
-0.04853024734759881 0.30640792269845263 -0.23866001334061004
-0.13793144560472864 0.5745258186656103 -0.5194568036018192
-0.13793144560472864 0.5745258186656103 -0.5194568036018192
0.408549776883575 0.6666926426835541 -0.6277971876349606
-0.07219918264196072 0.3007312388592725 -0.2378509963462351
0.449024213292753 0.7327409200234583 -0.6038691911333132
-0.2157036425260702 0.8984703326214981 -0.6498311319104388
0.4703186597938297 0.7674902984727141 -0.5260678008017654
-0.24869733458285023 1.035898950560037 -0.6236401526823162
0.42099768628882583 0.687005784647739 -0.363192399791639
-0.18855970339527237 0.7854076892006386 -0.36410038079111806
0.38418996497977065 0.6269410425301908 -0.22527338889933815
-0.17396567172405786 0.7246191724358371 -0.22836355884308765
0.3629616677045135 0.5922996098066909 -0.10762691194768016
-0.16517261710161393 0.6879934640385792 -0.10966055999320319
0.3510634378620753 0.5728834633644619 -1.1405577921295171e-15
-0.16077929797783425 0.669693972902366 -1.1697149086200461e-15
0.34692684987784084 0.5661331652834323 0.10277744353143071
-0.16101046768917432 0.6706568640478626 0.10684473962247669
0.3495120963475667 0.5703519040966982 0.20456925027621425
-0.16424751956065284 0.6841401554639027 0.2153848450793374
0.3645141874798983 0.5948330918214534 0.31370743532002604
-0.19064598314334305 0.7940976697556216 0.36818629528877156
0.38833455795317096 0.6337044035662963 0.43319773093955205
-0.20340205876400283 0.8472305486056113 0.509022028485281
0.4256670455264071 0.6946254863973964 0.5720493859799165
-0.23103319993284785 0.9623225345635363 0.6965001794687486
0.4869465172910233 0.7946244957828467 0.7499587537855759
0.586302994260623 0.9567595303528611 0.9961452940425949
-0.3250291414776968 1.3538438082697246 1.2376080620976426
0.7702304092307298 1.2569017927810677 1.3990041354701706
-0.4571687580893621 1.9042449229621252 1.86026654587332
1.042025111308717 1.7004304359196984 1.9674751744655141
-0.45903408487136993 1.912014568178366 1.9398199009288504
0.050159862212731 0.0818534557779929 2.038
-0.022410754930167098 0.09334751235817691 2.013
0.04358308797499638 0.08553662632208338 2.037
-0.029665631459995147 0.09130142556433468 2.012
0.04358308797499638 0.08553662632208338 2.037
-0.029665631459995147 0.09130142556433468 2.012
0.893155322531266 1.7529160190477093 1.9408075892694454
-0.607016673776419 1.8682052236725526 1.93784452424766
0.6320971208511798 1.2405604498820881 1.3210175011339682
-0.6042388593437102 1.859655989923677 1.8574133763244345
0.480486695850741 0.9430082370321253 0.9391208764945392
-0.4108290000585643 1.2644016500744055 1.1814746510737753
0.4014305581282784 0.7878518306133577 0.7111259380555784
-0.3479838713454492 1.0709842320423926 0.9077170676886904
0.35182857795661093 0.6905024632345848 0.5437651147324546
-0.3042861958601995 0.9364966155886139 0.692964645562816
0.32031820823949186 0.6286598805954152 0.4108618913524381
0.29919317273655505 0.587199663988182 0.29600180583018376
-0.24929398987127777 0.7672480085435603 0.3636463902913761
0.2879692194197012 0.5651714152952253 0.19375365547309115
-0.20548584553113003 0.6324204039136914 0.20333318229871447
0.2843796635320777 0.5581265152000774 0.09683293385990199
-0.20090026390290522 0.6183074348281307 0.1005873610208675
0.28841798849478595 0.5660521741965324 -1.0770981856501305e-15
-0.20120589852282333 0.6192480814662434 -1.1045401776412165e-15
0.2987440320810353 0.5863181758192094 -0.10183883674119154
-0.20548584553113003 0.6324204039136914 -0.10293387799647317
0.3153714862299247 0.6189513920116252 -0.21260369212996524
0.34597293186074574 0.6790101106903194 -0.3432168178030988
-0.23518629547792802 0.7238289897616484 -0.3427628273033593
0.3919544799120395 0.7692539799551787 -0.5043197464669438
-0.3310529794994328 1.0188763049382137 -0.627166864196071
0.3906009837786932 0.7665975942247125 -0.6045762979144996
-0.2861465665128999 0.8806685769759691 -0.651245345472812
-0.09586551894284236 0.29504372943314616 -0.23866001334061004
-0.1103827790130315 0.26648760214569134 -0.24235377457923646
-0.1103827790130315 0.26648760214569134 -0.24235377457923646
0.29922614427619226 0.7223958157281944 -0.6277971876349606
-0.11871886175293667 0.2866126861534345 -0.23866001334061004
0.32848976083907144 0.7930444357183837 -0.6031620843521266
-0.35436093233039184 0.8555029688072014 -0.651245345472812
0.31784410562372367 0.7673435505171432 -0.48492283314129214
-0.31518342758615925 0.7609201055137395 -0.4808083363752448
0.2775911338602199 0.6701642801598706 -0.3264191693127355
-0.27531539791624654 0.6646701675795438 -0.3236952263142982
0.25409286581109664 0.6134344427433988 -0.2030241653043418
-0.254850214698861 0.6152628446996815 -0.20364219929309169
0.23971291425199154 0.578718168663139 -0.09683293385990409
-0.24122567859727587 0.5823703048621932 -0.09745867172006502
0.23101911340690345 0.5577294767543566 -1.0222142016679582e-15
-0.23555400945859745 0.5686776843063028 -1.0427956956612728e-15
0.22761944932047942 0.5495219616093989 0.09182703097861465
-0.23555400945859745 0.5686776843063028 0.09511215474445947
0.23026351823274938 0.5559053086372501 0.18355609465871792
-0.24122567859727587 0.5823703048621932 0.19251758749559136
0.23820037950253367 0.5750665867574372 0.27920415733982057
0.25447153425769614 0.614348629242822 0.38676269600844676
-0.4126406441255236 0.996202639434203 0.6312813609621151
0.2791084764761911 0.6738274692821149 0.5112382027978734
-0.377586588906208 0.9115746639075563 0.694378859125189
0.31784410562372367 0.7673435505171432 0.6674390203593313
-0.432464788509373 1.0440623576681343 0.9109531356661903
0.3798718613493382 0.9170917996334877 0.8803144458981071
-0.49044730190974667 1.1840445278997953 1.1387063379127336
0.4931186009165668 1.1904936141912257 1.222107623439272
-0.7486653421081211 1.8074380225961082 1.8583644328407298
0.7219109698506111 1.7428472542392663 1.8608048336812393
-0.7505764600538126 1.8120518694598913 1.9348814592258745
0.036737609507048505 0.08869243512108359 2.038
-0.0367376095070488 0.08869243512108345 2.013
0.029665631459994818 0.09130142556433479 2.038
-0.04358308797499667 0.08553662632208323 2.012
0.029665631459994818 0.09130142556433479 2.038
-0.04358308797499667 0.08553662632208323 2.012
0.5597983371763051 1.7228821264656047 1.786728208136604
-0.8890742978233119 1.7449065570826379 1.9319183942040892
0.3827872477854432 1.178098010749889 1.1745547976245143
-0.8863536397151975 1.7395669648977647 1.8545602067755491
0.2956761415043887 0.9099975930435623 0.848238211027326
-0.5696119132760062 1.1179263250563727 1.1146491617596477
0.24714637516467344 0.7606383301168583 0.6423594935337079
-0.5121431392758382 1.0051375054651424 0.9093351016774404
0.21680597970522014 0.6672601944999116 0.49143921292465015
-0.44568481129010545 0.8747056927820369 0.6908433252192563
0.19753897769632806 0.6079624596064215 0.3714802794488425
-0.47234913515871596 0.9270373749287633 0.6089455213750011
0.18502274801705307 0.5694414655750124 0.26830838534607143
0.17801095554293406 0.5478613873113268 0.17552165280496934
-0.2740659089859141 0.5378846321765707 0.18417412864746782
0.17618305226167336 0.5422356794750421 0.08791616935260893
-0.26734490229455865 0.5246939138365461 0.09088842418837327
0.1783156586842734 0.5487991671531526 -9.759058401830004e-16
-0.26734490229455865 0.5246939138365461 -9.964873341763149e-16
0.18502274801705307 0.5694414655750124 -0.09245276883877757
-0.2736177051764295 0.5370049826714688 -0.0930785066989385
0.1969279745394533 0.606081985249346 -0.19468070645621816
-0.28931557552263876 0.5678137879269967 -0.19468070645621816
0.21496946619598123 0.661607987106727 -0.31279945432054906
-0.31177481493446085 0.6118925271422938 -0.3087135398228931
0.24898717133606807 0.7663037181888548 -0.47022820183398023
-0.35002667529919207 0.6869660301492309 -0.4496557180037436
0.2655626678491162 0.817317850927569 -0.6038691911333132
-0.42084209194487715 0.8259491108097761 -0.6519524522539986
0.24162520747545266 0.7436459232137594 -0.6277971876349606
-0.1507116293151761 0.24593902656789746 -0.24235377457923646
0.06382585801957943 0.2658538317347796 -0.22809767019222252
-0.1507116293151761 0.24593902656789746 -0.24235377457923646
0.06382585801957943 0.2658538317347796 -0.22809767019222252
-0.43033712622005954 0.702246365456355 -0.6617759013987086
0.06733593835214477 0.280474368537013 -0.2200526224699862
0.19992206987891406 0.8327353517026467 -0.6017478707897534
-0.48330863047066097 0.7886880040374483 -0.6505382386916254
0.1823028939463671 0.7593462022416255 -0.4555335705266683
-0.38678024631353886 0.6311679974948335 -0.4314343751826768
0.1573125588334266 0.6552539651412114 -0.302811663326279
-0.3448589483766964 0.5627586567299689 -0.2964557963299253
0.14392375268796567 0.5994855739817375 -0.18819134957434422
-0.3185184849320297 0.5197749270180356 -0.18602823061371956
0.13470768462736155 0.5610978878077651 -0.08901121060789247
-0.30304916753525163 0.49453129532537277 -0.08948051400301316
0.12964627410227073 0.5400155957112711 -9.38173101195257e-16
-0.29583756150419577 0.4827630238566861 -9.570394706891287e-16
0.12803706771820325 0.5333127687296867 0.08447461112172389
-0.29583756150419577 0.4827630238566861 0.08729043149244801
0.1291864370319687 0.5381002364680629 0.16841426193434558
-0.3035644715422213 0.4953721950385305 0.1770667377768441
0.13355686533244274 0.5563043804632243 0.2560506418531038
-0.31955048537079356 0.5214589986751501 0.27421026184268554
0.14254033222121948 0.5937232130296611 0.35443450713236074
-0.3453758988173627 0.5636022431787322 0.38441155499927687
0.15592630040851596 0.6494797832426452 0.4673975823643075
-0.38626216611250025 0.6303225674447007 0.5183092706097389
0.17767032662012644 0.740050170622707 0.610807830753085
0.21222122443567895 0.8839650173502464 0.8054698978662843
0.2721876839855907 1.1337432975266315 1.1051276719349683
-1.020628025128476 1.6655135647368187 1.8555112632918442
0.39842168875159395 1.6595457685560613 1.6830209323741145
-1.020628025128476 1.6655135647368187 1.9269799525011133
0.02241075493016678 0.093347512358177 2.0389999999999997
-0.0501598622127313 0.08185345577799272 2.012
0.015017708643862022 0.09481808069713325 2.038
-0.05642738422007763 0.0776656314599948 2.012
0.015017708643862022 0.09481808069713325 2.038
-0.05642738422007763 0.0776656314599948 2.012
0.259958923121019 1.6413160446086426 1.6385749570473331
-1.1463952361112788 1.5778776766978375 1.9240168874793282
0.17787534230383548 1.1230607118941938 1.0775470329624088
0.13863456712101144 0.8753042081466134 0.7849767478099519
0.11580081746842638 0.7311375866918923 0.5938184738712111
0.1015475385313396 0.6411459252137739 0.4539625535217631
-0.4205425826420257 0.5788272075367353 0.5013387078612618
0.09289257149022463 0.5865006139484711 0.3444421578433887
-0.37516035497005745 0.516363929858332 0.37089249419655
0.087185658447786 0.5504685830826552 0.24924078435701058
-0.3472935517532219 0.47800856572935185 0.2646764613481551
0.08395154348490416 0.5300491848371265 0.1631609730299715
-0.32932763710765156 0.45328060562646066 0.1705773808949702
0.0830282462769598 0.5242197156919726 0.08165879075099974
-0.3212234303876195 0.4421261220172477 0.08416174219164342
0.08410545930339934 0.5310209710692829 -9.07300860205285e-16
-0.3206448017112805 0.4413297079684685 -9.210218562008281e-16
0.08749386761967567 0.5524145392085104 -0.08619539023716827
-0.32874855959426935 0.45248357380648996 -0.08619539023716827
0.09320133844498146 0.5884500917767487 -0.18170199269247025
-0.3455537457994848 0.47561392826949994 -0.17922985673747066
0.10201170509831753 0.6440765575790924 -0.2928238723320089
-0.37283612847886255 0.5131649065367712 -0.284652043336697
0.018678694375945853 0.11793263490828149 -0.04173275291276575
-0.4187952392109846 0.5764221956293963 -0.4149763881184875
0.1344364699542259 0.8487984658010678 -0.6038691911333132
-0.5355146243498352 0.7370726471030212 -0.6406387437550137
-0.48469193887247075 0.6671212216621842 -0.6625849183930834
0.0452701449239026 0.2858244460828515 -0.22086163946436116
-0.18732945912035998 0.21933461593116899 -0.24235377457923646
-0.1867171609991568 0.21861770694162672 -0.24146276805504807
0.022557092359473736 0.2866150337722817 -0.21924360547561125
-0.535539523175154 0.6270362183457419 -0.6625849183930834
0.0672701533434478 0.8547483410157337 -0.60245497757094
0.009854974643054735 0.12521932548446643 -0.0476106054356905
-0.4466470060510141 0.5229564532402918 -0.40028175681117567
0.05015494242446452 0.6372789669763146 -0.2869219958353948
-0.3991147565303638 0.46730333951268577 -0.27557223334190606
0.045661036711574086 0.5801784809232624 -0.177375754771221
-0.36899624099276035 0.4320390886635292 -0.17304951684997172
0.04280049745035554 0.5438318834143527 -0.08400530772660501
-0.3510865932620074 0.41106958538874877 -0.08322313540140384
0.041102458069619506 0.522256247392633 -8.832891172130847e-16
-0.34278123930029275 0.40134526530626413 -8.901496152108562e-16
0.040562669572720714 0.5153975842368048 0.07946870824043653
-0.34278123930029275 0.40134526530626413 0.08118948735587907
0.04094820720735686 0.5202963043559923 0.15852571811434732
-0.35172573777829835 0.41181792746833124 0.16470605800184623
0.04233717072815227 0.5379447592222971 0.24106895536169876
-0.3709167184293895 0.4342876788369353 0.25559665135336423
0.045042081509290254 0.5723139094005235 0.33268645279753933
-0.4003977579492705 0.4688055411673344 0.3579612186461156
0.04930185035891397 0.6264394045326229 0.43911331111684565
-0.4485763574322266 0.5252154334678631 0.4836610383315981
0.05597961635692022 0.7112884664835583 0.5719750150230875
0.06656850868646824 0.8458331003521082 0.7511184998907938
0.08530437896375567 1.083894904005738 1.029994207147651
0.12388072570631209 1.5740538636903365 1.5565968247779367
-1.2601735700005074 1.475473677661576 1.9141400040733767
0.007532073189872951 0.09570406403838029 2.0389999999999997
-0.06234701263969782 0.0729989726976028 2.012
-1.6465195194651677e-16 0.096 2.038
-0.06788225099390874 0.06788225099390839 2.0109999999999997
-1.6465195194651677e-16 0.096 2.038
-0.06788225099390874 0.06788225099390839 2.0109999999999997
-2.658401478865054e-15 1.5499758062627944 1.527953862900678
-1.368522012976046 1.368522012976039 1.9092015623704008
-1.834013511425388e-15 1.0693180069558352 1.0128751898543384
-1.4347475198116231e-15 0.8365267479286003 0.7404264216005334
-1.2033294420272432e-15 0.7015988882545354 0.5622668110905882
-1.0591029187759985e-15 0.6175078946863757 0.4313351365237936
-0.47720016764456524 0.4772001676445628 0.47234732983261335
-9.677193875150321e-16 0.5642269047112164 0.3268086002746146
-0.42547150315855575 0.42547150315855353 0.3491444398617285
-9.103094979662563e-16 0.530754180388624 0.23698304086404284
-0.3933954753171429 0.3933954753171409 0.24878679385727104
-0.3732137457275666 0.3732137457275647 0.16037982008059698
-8.765947456678432e-16 0.5110968597046943 0.1551265311762229
-8.698573101021305e-16 0.5071686110160999 0.07790436359003423
-0.3641785276481862 0.3641785276481843 0.07915583931035608
-8.799641765743832e-16 0.5130613998343668 -8.64422747719213e-16
-0.3634838373298057 0.3634838373298038 -8.661378722186559e-16
-9.119963862200078e-16 0.5317377173005504 -0.08181522521604175
-0.371823210679485 0.3718232106794831 -0.08087661842580035
-9.761710606568092e-16 0.5691546362808618 -0.17335853384434666
-0.39060977970347954 0.3906097797034775 -0.1681052449399725
-1.074354041212339e-15 0.6264000319284794 -0.2810201193387806
-0.42267954764809823 0.422679547648096 -0.2678543948463337
-1.3240627835196496e-15 0.7719922279401523 -0.45024350325603607
-0.4723012809637522 0.47230128096374974 -0.3885260517653262
-1.4517867845720375e-15 0.846461458071187 -0.5946768029778879
-0.648444292133104 0.6484442921331005 -0.644881384442133
-1.3427847612043066e-15 0.782908040576925 -0.6286062046293356
-0.5837876326199467 0.5837876326199436 -0.6633939353874584
-0.6277914599303125 0.5361845604253884 -0.6633939353874584
-0.6988341814717439 0.5968607767366839 -0.6462955980045061
-0.07054567906392356 0.896367841438664 -0.6321534623807751
-0.05551317859879869 0.7053618128321507 -0.41203746185702517
-0.49812104835976695 0.42543556642688773 -0.380884843485524
-0.04868164025575317 0.6185588879823888 -0.27829617634034337
-0.44478549326680605 0.37988269897351745 -0.2619525183497196
-0.04411411061654827 0.5605229212481065 -0.171195414883722
-0.41181792746833323 0.351725737778296 -0.16470605800184807
-0.0412567290495842 0.5242164460488903 -0.08087661842580035
-0.3908819511544996 0.33384472477733024 -0.07899940484531756
-0.03971495266905773 0.5046263197005231 -8.524168762231128e-16
-0.38192141883074276 0.3261917071881385 -8.455563782253413e-16
-0.03925284329866413 0.4987546634297974 0.07680932233475263
-0.38266783320549036 0.3268292052889627 0.07727862572987332
-0.03956089356139307 0.5026688131370636 0.15296341221559828
-0.3931232655389112 0.3357589881031076 0.15698063314247257
-0.04087108939154663 0.5193164295994767 0.23244313586664736
-0.4140632174547812 0.35364339658898575 0.24333890786039647
-0.04334124762113291 0.550702765795346 0.31975517724710495
-0.44703593483597404 0.38180475765150795 0.3409154463296339
-0.04736434661342321 0.6018210852652834 0.42143564158718194
-0.5018823387175292 0.42864801187387236 0.46174072811481515
-0.053803550146587 0.6836389236955601 0.549322539180589
-0.06376292076447236 0.8101847258098511 0.7190422650200127
-0.08131936116042689 1.033260451919292 0.9814903248165981
-0.11745963405457156 1.492466158533508 1.4756063808491358
-1.4618032890840922 1.2484979551536837 1.8963616139426642
-0.0075320731898733 0.09570406403838028 2.0389999999999997
-0.07299897269760316 0.062347012639697406 2.0109999999999997
-0.015017708643862348 0.0948180806971332 2.0389999999999997
-0.07766563145999512 0.05642738422007719 2.0109999999999997
-0.015017708643862348 0.0948180806971332 2.0389999999999997
-0.07766563145999512 0.05642738422007719 2.0109999999999997
-0.23294620418557324 1.4707644495144465 1.4677048741243746
-1.5568690753028598 1.1311315937439013 1.8983369906238545
-0.1613585677464232 1.0187779015147622 0.9767350422351225
-0.1266667164419617 0.7997421727943399 0.7163692454474475
-0.10650096982968568 0.6724206595765306 0.5452774542087143
-0.09412780185021716 0.5942995515048335 0.42002142802480885
-0.5275640699028884 0.383297733032039 0.4560838738653228
-0.08610719102634441 0.5436594077669885 0.31857960674252
-0.47002773395103703 0.34149513805741544 0.33680094956358664
-0.08102897582827856 0.5115968188683548 0.23108116436742873
-0.43416407864998835 0.3154386672714789 0.2397069838624801
-0.07811015805693197 0.4931681287434551 0.15141832724372353
-0.41189692230817765 0.2992606312114092 0.154508497187473
-0.0774961877222811 0.48929167261308765 0.07602715000955149
-0.4015732512002467 0.2917600451063572 0.07618358447459171
-0.07841721298718193 0.4951067972744092 -8.438412537258984e-16
-0.3999858892023618 0.29060675910755424 -8.318353822297982e-16
-0.08149019492597699 0.5145088416450453 -0.08009444610059918
-0.4103080253255629 0.2981062299809202 -0.07790436359003593
-0.08733975889175641 0.5514415349941731 -0.16995934690622222
-0.4309805975143526 0.3131257328393367 -0.1619249050524735
-0.09598143655847546 0.6060029404517534 -0.2751182428421665
-0.46524104780466713 0.3380174070038636 -0.2574126133523241
-0.5203633532335125 0.37806610613962033 -0.37383142045801426
-0.022957523914299897 0.14494810138709768 -0.07848885271170698
-0.7555789953613433 0.5489602733975777 -0.6569021997223043
-0.6719425542472408 0.48819484203716657 -0.6674390203593331
-0.12130585662948899 0.07433632454853994 -0.09355568503977876
-0.12067795509284765 0.07395154599201187 -0.09266467851559039
-0.1316963388866344 0.08070362026487259 -0.09789105631936885
-0.034970863520142566 0.14566412978031193 -0.08131727983645318
-0.16563520241855564 0.6899202705528836 -0.41321303236161017
-0.14369315939791957 0.598525083803715 -0.2760262238416456
-0.13010616141478903 0.541931164228363 -0.16965032991184725
-0.12160688631044908 0.5065291355903208 -0.08009444610059918
-0.11679199462125929 0.4864736683443284 -8.421261292264555e-16
-0.453380934672412 0.27783219409487125 -8.970101132086278e-16
-0.11541766377134742 0.4807491683711624 0.07587071554451126
-0.4357817104594718 0.2670473756265302 0.07853010145019516
-0.11633381452233423 0.48456521088361587 0.1511093102493486
-0.1200011354986734 0.4998407021032091 0.22926520236847056
-0.1271178065808626 0.5294837705256606 0.3150528952287651
-0.13885290209430065 0.5783639611697728 0.415071680556503
-0.15708149800371957 0.6542915275203458 0.5388053182537147
-0.1857785134604117 0.7738231994043857 0.7038951541088104
-0.23614530381355409 0.9836159796825201 0.9577139119092194
-0.34016858686691526 1.4169041366687323 1.4360988472253302
-1.6357078780236831 1.0023630768196021 1.8924108605802836
-0.022410754930167098 0.09334751235817691 2.038
-0.08185345577799301 0.05015986221273085 2.01
-0.029665631459995147 0.09130142556433468 2.036
-0.08553662632208345 0.043583087974996236 2.01
-0.029665631459995147 0.09130142556433468 2.036
-0.08553662632208345 0.043583087974996236 2.01
-0.4521390683021142 1.3915409670271641 1.4420249772689009
-1.7155392970010621 0.8741109314298161 1.8993246789644496
-0.31628263000335494 0.9734178434558103 0.9691265901047612
-0.24806674847702395 0.7634709479083255 0.710132199778129
-0.2097676917354355 0.6455985714853986 0.5436594202199644
-0.1853277737728749 0.5703802383221126 0.41860721446243576
-0.5889627262631554 0.30009149783469624 0.4624478348960017
-0.16978986490539896 0.5225594719985528 0.31799182149022753
-0.5246939138365475 0.26734490229455593 0.34150323158192636
-0.15975909636616115 0.49168794080012546 0.2306271738676892
-0.48342503053102315 0.2463173559781757 0.24243092686091738
-0.1546002479929033 0.4758106380909665 0.1517273442380985
-0.4588917158443179 0.23381700778484404 0.1563625991537227
-0.1533873329856954 0.47207766954129 0.07618358447459171
-0.4457678124837247 0.22713004502591638 0.07680932233475263
-0.15520684249414474 0.4776775440011783 -8.455563782253413e-16
-0.4448933961976461 0.22668450767470694 -8.404110047270126e-16
-0.1612775650659146 0.4963613069190725 -0.08025088056563942
-0.4553906364890703 0.23203311875264582 -0.07853010145019686
-0.17283334584305898 0.5319263431760958 -0.17026836390059716
-0.47816427755544105 0.2436368684536131 -0.16316097302997332
-0.19082043361878664 0.5872849071051786 -0.2769342048411247
-0.5159050883291516 0.26286677202737196 -0.25922857535128235
-0.21925512491934296 0.6747978884055605 -0.41321303236161017
-0.5783860949275166 0.29470243499926807 -0.3773581319717691
-0.04534975739817586 0.13957220175925647 -0.07848885271170698
-0.8268353315761869 0.4212936439792286 -0.6526595590351851
-0.0441926715137455 0.1360110575816473 -0.08575580140374461
-0.13279285753368011 0.0676613404244975 -0.09222793735874421
-0.052772863965183284 0.12740496391001513 -0.08820964589464855
-0.13769214905671945 0.057033955571590474 -0.10157474375747409
-0.13769214905671945 0.057033955571590474 -0.10157474375747409
-0.052772863965183284 0.12740496391001513 -0.08820964589464855
-0.0530482614829146 0.12806983233236593 -0.08090169943749492
-0.13769214905671945 0.057033955571590474 -0.09222793735874421
-0.05529742493473339 0.13349979324174072 -0.07636753236814733
-0.7040616725073352 0.29163189349962026 -0.5345727265770314
-0.29466922485485614 0.7113944390585565 -0.44906793275145107
-0.6070359590447396 0.25144252708448767 -0.3820604139901089
-0.24046926799595886 0.5805441681297708 -0.2819281003382597
-0.5404063515767893 0.22384364001566726 -0.2619525183497196
-0.21705168717684756 0.5240091269183047 -0.17274049985559675
-0.5003513537784832 0.2072523166867845 -0.16470605800184807
-0.20235813582821816 0.4885357559730183 -0.08134592182092105
-0.4767298957966855 0.19746798842769783 -0.07931227377539803
-0.1948366092498387 0.470377184497745 -8.575622497214414e-16
-0.4658414618492273 0.19295785141365704 -8.48986627224227e-16
-0.19183092558741027 0.4631208222357071 0.07696575679979287
-0.46765555433968936 0.1937092731266056 0.07774792912499401
-0.19295785141365943 0.4658414618492263 0.15296341221559828
-0.4803613878662756 0.19897220169457233 0.15790768412559741
-0.1989722016945748 0.4803613878662745 0.23198914536690782
-0.5067173933710061 0.20988921662461157 0.24515486985935467
-0.2113964894544888 0.5103562718790847 0.31975517724710495
-0.5495219616093993 0.2276194493204785 0.3450299430956812
-0.2302635182327513 0.5559053086372493 0.42002142802480885
-0.6161770889850893 0.2552289070811952 0.466690475583121
-0.260531825094638 0.6289794655732864 0.5452774542087143
-0.30682334790257665 0.7407370877591147 0.7092411932539406
-0.38825228680343316 0.9373239364232113 0.960567081458105
-0.5557239418175784 1.3416362772714265 1.4311604055223544
-1.7797555461536063 0.7371988849255524 1.9003123673050448
-0.0367376095070488 0.08869243512108345 2.036
-0.08869243512108364 0.03673760950704835 2.01
-0.04358308797499667 0.08553662632208323 2.036
-0.09130142556433483 0.02966563145999468 2.01
-0.04358308797499667 0.08553662632208323 2.0349999999999997
-0.09130142556433483 0.02966563145999468 2.01
-0.6696936952859814 1.3143478818388254 1.4538772373560427
-1.8435076974573412 0.5989919610608577 1.9121646273921864
-0.47234913515871596 0.9270373749287633 0.9852945508817788
-0.37301114873715097 0.7320755991820729 0.7270613237377079
-0.31537148622992683 0.6189513920116241 0.5566036921299636
-0.27899738591334905 0.5475632006020107 0.42921381618023396
-0.25570629516838717 0.5018518612212749 0.32622081502232214
-0.5750747075677827 0.18685309929414945 0.3509077956186059
-0.24095735559348597 0.47290543746651337 0.23698304086404284
-0.5309894261746567 0.17252892305555292 0.24969477485675012
-0.5029065996281746 0.1634042595847087 0.16068883707497192
-0.23337098914495083 0.4580163549760065 0.15605358215934773
-0.23114136155365528 0.45364046444196576 0.0782172325201147
-0.48888467945448616 0.1588482615412718 0.07899940484531584
-0.23470913677067273 0.46064261756416514 -8.712832457169845e-16
-0.4870161605891387 0.15824114295913766 -8.627076232197701e-16
-0.24408354955639225 0.47904093858035995 -0.08275383200628314
-0.4982310874249297 0.16188509357989708 -0.08056374949571989
-0.26152374832820335 0.5132692559080143 -0.1755216528049713
-0.5225594719985538 0.16978986490539627 -0.16717819395684766
-0.2897643933239991 0.5686946424590043 -0.28646800533565525
-0.5647482184215106 0.18349781957759034 -0.2660384328473755
-0.34507220304058606 0.677242330845257 -0.44319008022852635
-0.06492540342621834 0.12742327883845556 -0.07495331880577423
-0.8059776129087588 0.2618780011568342 -0.5953839097590745
-0.13905909792728516 0.03338513566918245 -0.09444669156396714
-0.07130717685601859 0.11636273685688425 -0.08642763284627182
-0.13905909792728516 0.03338513566918245 -0.09444669156396714
-0.07318711087039227 0.11943051034993071 -0.08251973342624483
-0.7130495436327252 0.17118804959798514 -0.5140666299226213
-0.39714428146737474 0.6480805657460826 -0.44319008022852635
-0.6639172062555787 0.15939241900977436 -0.3973428305497133
-0.344342014683891 0.5619150976112307 -0.29600180583018576
-0.5918027389554241 0.14207926718862993 -0.27284829034346875
-0.3107812502787499 0.5071489075953698 -0.18139297569809532
-0.5486372704202734 0.1317161550675993 -0.1718134488724719
-0.28966031116986585 0.47268266747679305 -0.08541321791196711
-0.5218284579084639 0.12527992862735268 -0.08259739754124291
-0.2778321940948737 0.4533809346724104 -8.970101132086278e-16
-0.5113084973725283 0.12275430955631349 -8.867193662119705e-16
-0.27320829918325346 0.44583542395977677 0.08040731503067791
-0.5132206759712745 0.12321338302144005 0.08118948735587907
-0.27474930106327644 0.44835011047756085 0.1597617860918471
-0.5266126036172465 0.12642850039237563 0.16470605800184623
-0.28348713252162916 0.46260895548472064 0.24243092686091738
-0.555345821579844 0.13332673570521447 0.25559665135336423
-0.2999578662244413 0.48948675006590353 0.33268645279753933
-0.6042885948451449 0.14507685597668718 0.36090014490757794
-0.3267768014500688 0.5332512747608412 0.436991990773286
-0.36917250620951225 0.6024347770995526 0.5663118960624629
-0.43500790513393833 0.7098683839071737 0.7368623955037801
-0.5493507767471602 0.8964589918603592 0.9957561725610256
-0.7749229745351814 1.2645593633900887 1.4617787440808037
-1.890648228150344 0.4539044804713478 1.9180907574357573
-0.0501598622127313 0.08185345577799272 2.0349999999999997
-0.09334751235817704 0.022410754930166598 2.009
-0.05642738422007763 0.0776656314599948 2.036
-0.09481808069713327 0.015017708643861838 2.01
-0.05642738422007763 0.0776656314599948 2.036
-0.09481808069713327 0.015017708643861838 2.01
-0.8993200798667152 1.2378078986452319 1.5082000960887751
-1.9283248351958888 0.30541664978639776 1.9259922641605185
-0.6402384587701674 0.8812126394415825 1.0318963201802414
-1.8967576767612613 0.30041690306509344 1.8241263982541043
-0.5080508491054136 0.6992720033887158 0.7653746042778077
-0.4304466622316134 0.5924590036227514 0.5873463379162115
-0.38097236626431963 0.5243634771253287 0.45325544674057655
-0.3501937518550769 0.48200034871529374 0.34561772834797366
-0.636262205546874 0.10077403332519447 0.37441920571030485
-0.33048588436895515 0.4548747962163542 0.2515107368557083
-0.5855259401355698 0.0927381983238681 0.2655844423476342
-0.3194876446475455 0.4397370179067981 0.1653240919905961
-0.5543607034440128 0.08780210975289426 0.17088639788934515
-0.3177521625133863 0.43734833167404064 0.08322313540140204
-0.5387973428858451 0.08533711560131997 0.0840053077266032
-0.3235382752042484 0.445312232571552 -9.295974786980427e-16
-0.5368529073362447 0.08502914726504937 -9.175916072019424e-16
-0.33627892406241344 0.46284823131500197 -0.0882290382826913
-0.5485228372813358 0.08687748258802913 -0.08556965237700734
-0.3623814064553171 0.4987752161600115 -0.18819134957434422
-0.5748074606409693 0.09104055794798584 -0.177375754771221
-0.4013295088567229 0.5523826801419661 -0.30689757782393495
-0.6216162345468911 0.09845433940535285 -0.2823820908379993
-0.4630986886786111 0.6374006624911454 -0.4596480672927157
-0.6968748459273393 0.11037413244844664 -0.4108618913524402
-0.7487693907489648 0.11859342088591618 -0.5317442994522851
-0.07345199321952026 0.10109799548991835 -0.05656854249492395
-0.08276091494937923 0.11391062705797743 -0.08332875042061977
-0.8183789146782368 0.1296184863747111 -0.6658209863705833
-0.08680523682951499 0.10163587387813329 -0.08286360674951834
-0.13050481809645745 0.010270951933027102 -0.07929958065276486
-0.08680523682951499 0.10163587387813329 -0.08286360674951834
-0.13118462430053573 0.010324453841598025 -0.08019058717695322
-0.8230553371320475 0.06477585984340105 -0.6633939353874584
-0.09002764941890637 0.10540883426025777 -0.08090169943749492
-0.9221436838222802 0.07257428185435155 -0.6505382386916254
-0.5400550059486553 0.6323231693918845 -0.4855106183935846
-0.7231444834849148 0.0569127051310674 -0.42261759639828966
-0.4653040329415873 0.5448010250800692 -0.3223332548150796
-0.645164971171984 0.05077558441468866 -0.2905539198333112
-0.41965451431534684 0.4913523060032896 -0.19746185940559272
-0.5988685803366481 0.04713197943612827 -0.183247077664345
-0.3894956043489654 0.45604075935472493 -0.0926092033038178
-0.5693654895482451 0.04481003583447937 -0.08807260381765107
-0.373477804051909 0.43728632482683927 -9.724755911841147e-16
-0.55659422327983 0.04380491538084347 -9.433184746935857e-16
-0.36707605725920367 0.42979084237223797 0.08713399702740779
-0.558558467789911 0.043959504776407726 0.08635182470220663
-0.36771608558601604 0.43054021926098596 0.1724314828612199
-0.5732968134729669 0.045119437737435424 0.1752126358105944
-0.37988269897352 0.4447854932668039 0.2619525183497179
-0.6047739660570721 0.047596743371783344 0.27194030934398783
-0.4016808615349424 0.4703078624438958 0.3591367891507005
-0.6550255184526672 0.05155162631590325 0.382060413990107
-0.43635998250743363 0.5109118961877012 0.47022600948905374
-0.735992409321582 0.05792385882356918 0.5176021638285523
-0.4910600336949966 0.5749574273869926 0.6067627457812103
-0.5768418623667325 0.6753950442676342 0.7867587608583285
-1.373103719577715 0.10806560637799367 1.224242964234817
-0.7261665630532464 0.8502318052763229 1.0594769591528008
-1.8418006595912182 0.14495285554053056 1.754699272564558
-1.0163519589808896 1.1899952501903976 1.5427691880096048
-1.9523174581519944 0.1536507162200558 1.9319183942040892
-0.06234701263969782 0.0729989726976028 2.038
-0.09570406403838032 0.007532073189872785 2.0109999999999997
-0.06788225099390874 0.06788225099390839 2.038
-0.096 -3.2930390389303353e-16 2.01
-0.06788225099390874 0.06788225099390839 2.038
-0.096 -3.2930390389303353e-16 2.01
-1.162346118847569 1.1623461188475628 1.6207965669166209
-1.9613508100286392 -6.727921652564526e-15 1.9348814592258745
-0.8336189177315996 0.8336189177315952 1.1174914066468051
-1.7037068409793978 -5.84413868566441e-15 1.6177471342180558
-0.663213766443371 0.6632137664433676 0.831309087067747
-1.2706317326432548 -4.358583228852011e-15 1.1289052661466616
-0.5648296203281142 0.5648296203281113 0.6415504765393331
-1.0245076866475915 -3.5143164664736728e-15 0.8251973342624458
-0.5017095773453017 0.5017095773452992 0.4970960671741425
-0.8802505325190096 -3.019478507941995e-15 0.6187184335382285
-0.46180731912779505 0.4618073191277926 0.3797092729809371
-0.7868780083342017 -2.6991875003336208e-15 0.4590602820404208
-0.43664401976896583 0.43664401976896355 0.27693420484112286
-0.7273630455281599 -2.4950363587494723e-15 0.3273271503122124
-0.421981634671464 0.4219816346714618 0.1820110096868432
-0.6897137087226844 -2.365889758863777e-15 0.21105860715808814
-0.4205859008573645 0.42058590085736236 0.09182703097861465
-0.6728833479883419 -2.308157430803912e-15 0.10418535371679279
-0.4289621195397106 0.42896211953970836 -1.0273595751662868e-15
-0.6738731334605944 -2.311552641429218e-15 -1.143988041128403e-15
-0.44782362599577197 0.44782362599576964 -0.09792797511518572
-0.6907039886955917 -2.3692866657494586e-15 -0.10700117408751923
-0.48210009334162257 0.4821000933416201 -0.2085864712030909
-0.7323196023595162 -2.5120385828581527e-15 -0.2243463379162133
-0.7898556830206389 -2.7094016659457794e-15 -0.3559285517958062
-0.5353582912405499 0.5353582912405471 -0.34094686530440105
-0.6189167957003607 0.6189167957003575 -0.5113731694944534
-0.8891973909093526 -3.0501684599786415e-15 -0.5196021630265482
-0.9269843580125827 -3.179787166055426e-15 -0.6519524522539986
-0.09600000000000024 0.09599999999999974 -0.07766563145999512
-0.8275868534480233 -2.8388289755311028e-15 -0.6650119693762083
-0.1048616093278903 0.08956027517356624 -0.08820964589464855
-0.7616996453565633 -0.059947062177270714 -0.6753829453347839
-0.1048616093278903 0.08956027517356624 -0.08820964589464855
-0.7616996453565633 -0.059947062177270714 -0.6753829453347839
-0.8230553371320469 -0.0647758598434067 -0.6633939353874584
-0.9231352234265802 -0.07265231771360053 -0.651245345472812
-0.6527211597241477 0.5574765355137055 -0.6031620843521266
-0.8042454111653685 -0.06329548656458432 -0.4708159870862727
