-0.496 6.074248123770872e-17 3.037124061885436e-17
3.123 0.0 1.9122859768685922e-16
-0.496 6.074248123770872e-17 3.037124061885436e-17
3.123 0.0 1.9122859768685922e-16
0.0 0.0 1.61
-0.0 0.0 1.585
1.0959297110175488 0.0 1.7572646552266944
-0.4868446808962553 5.962127801415136e-17 0.7806293977829835
-0.49750727697138103 6.092706942955175e-17 0.24372630010017707
3.2993533133445014 0.0 1.6163365100506326
-0.49619772374698107 6.07666954130943e-17 -0.05280926953021294
3.5469684982073777 0.0 -0.3774963214714821
-0.31430907619704573 3.849176041076736e-17 -0.245786095253901
0.17409099207906542 0.0 -0.13613716052910305
0.026301275867339585 0.001862230208604985 -0.07234483386116979
-0.028009150923660336 -0.0019831542481247998 -0.07704255034566133
0.026301275867339585 0.001862230208604985 -0.07234483386116979
-0.028009150923660336 -0.0019831542481247998 -0.07704255034566133
-0.3127384075522204 -0.022143066856234413 -0.2451700900026381
0.13201018208234427 0.00934682219057126 -0.10348888221216884
-0.4959505180490996 -0.03511518001418351 -0.05291509972967229
3.0034763373053477 0.21265753016589423 -0.3204538439628954
3.3197792770049905 0.23505297943421968 1.6304145634860219
-0.49626490001639634 -0.03513743945131095 0.24372630010017707
1.099527241814998 0.07785070409586646 1.7674467778064724
-0.4840453580145718 -0.03427224947475272 0.7780838671380389
0.0 0.0 1.609
-0.0 -0.0 1.585
0.0 0.0 1.61
-0.0 -0.0 1.585
0.0 0.0 1.608
-0.0 -0.0 1.585
1.0845459940272302 0.15001088791717204 1.755567634796731
-0.4859227339116687 -0.06721125814365311 0.7865689692878539
3.3740957069171333 0.4666939859624334 1.6686892712634867
-0.4963736895491064 -0.06865680046586801 0.24548605677960073
-0.4944732714924028 -0.06839394079770278 -0.05312676012859098
2.9402444529976535 0.40668508621741656 -0.31590314538614356
0.2629655209534511 0.03637253883843904 -0.2075937696756006
-0.31134493430393767 -0.043064222541653284 -0.245786095253901
0.024457928501279733 0.005165240659829469 -0.06858666067357655
-0.02948353024811803 -0.0062265914803423805 -0.08267981012705118
0.024457928501279733 0.005165240659829469 -0.06858666067357655
-0.02981857036457392 -0.006297348201709908 -0.0836193534239495
-0.3059844629381373 -0.06462049266197892 -0.24455408475137516
0.25896921800305833 0.05469139933104507 -0.20697776442433768
-0.4952184834754759 -0.10458459906826448 -0.05386757152480639
3.7632458264397517 0.7947553839092745 1.8842594644928852
-0.4964356506977491 -0.10484165115777272 0.24856563096859208
1.0795269849462188 0.22798401245369432 1.769143798236435
-0.4841044273020213 -0.10223743484134507 0.793357051007706
0.0 0.0 1.609
-0.0 -0.0 1.587
0.0 0.0 1.609
-0.0 -0.0 1.586
-0.0 -0.0 1.587
0.0 0.0 1.609
1.0525894730570982 0.30132819460447413 1.755567634796731
-0.4863584032105296 -0.13923139393034178 0.8111757655223175
3.8358526475352464 1.0981019501302656 1.9546497316698312
-0.49728812176014 -0.1423602798278264 0.25340496183700717
2.7226394726359304 0.7794188122226823 -0.30140440806021335
-0.4961551567057752 -0.14203594225546765 -0.054925873519399836
0.2552171513766421 0.07306183980071844 -0.2075937696756006
-0.2991417649666873 -0.08563628107205866 -0.24332207424884936
0.02445132285988361 0.008911637887262652 -0.07140529056427147
-0.02670341838645184 -0.009732446640036842 -0.07798209364255965
0.02445132285988361 0.008911637887262652 -0.07140529056427147
-0.027025146318818725 -0.009849705033290298 -0.07892163693945796
0.24867956690124984 0.09063486106190144 -0.20697776442433768
-0.2923465146606955 -0.10654991106979482 -0.24332207424884936
-0.49609579007034155 -0.18080927824791718 -0.056195835912911975
2.8298948175575602 1.0313960523784202 -0.3205596741623547
3.6095017063504304 1.3155350467040048 1.8820597686436051
-0.49696037985984187 -0.18112439048823253 0.2591241710451341
1.036136839440159 0.3776350411655173 1.7682952880214537
-0.48276817231112984 -0.17595183539909656 0.8239034187470401
0.0 0.0 1.609
-0.0 -0.0 1.587
0.0 0.0 1.608
-0.0 -0.0 1.587
0.0 0.0 1.608
-0.0 -0.0 1.587
1.0013771785264634 0.44270421951974964 1.755567634796731
-0.48495888491228445 -0.2143980802120778 0.8502072354114667
3.917803488824186 1.7320428035956363 2.0985098402127154
-0.5001975523467358 -0.22113502461000878 0.2679229544422524
-0.49748059514163456 -0.21993387039484796 -0.057889119104261484
3.0985674362843665 1.3698623335196478 -0.36056348955798695
0.24352038606534596 0.10765923646157678 -0.2082097749268635
-0.28674885696451985 -0.12677034352576194 -0.2451700900026381
-0.02693389010656278 -0.014260760733152508 -0.0836193534239495
0.047512592659891655 0.02515662286634767 -0.1475082976130345
-0.02693389010656278 -0.014260760733152508 -0.0836193534239495
0.047209964681166235 0.024996389599683037 -0.1465687543161362
0.23322008066977168 0.1234836763437949 -0.20636175917307478
-0.23530861870562034 -0.12458950031105281 -0.2082097749268635
-0.500917478088619 -0.26522215223323287 -0.0603232136918264
3.965848593926524 2.099808742002509 2.1983760317700085
-0.5015842127999927 -0.26557517009117204 0.27804155534893843
0.9741570541490517 0.5157896096987228 1.7674467778064724
-0.4849740111150102 -0.25678052100699744 0.8799050929358193
0.0 0.0 1.607
-0.0 -0.0 1.587
0.0 0.0 1.607
-0.0 -0.0 1.586
0.0 0.0 1.607
-0.0 -0.0 1.587
0.9294585409122371 0.5796629591991278 1.7564161450117126
-0.4907720701531765 -0.3060732436737423 0.9274216649747835
-0.5067204049596925 -0.316019528033204 0.29255954795418365
3.8762206015488045 2.417430585120164 2.2379705570570407
-0.5054033537328264 -0.31519814033490734 -0.0633922894761474
0.44549744702993704 0.2778374258711705 -0.055878345314533936
0.22525321712159865 0.1404806569184655 -0.2075937696756006
-0.21790073822445452 -0.13589523488255117 -0.20081771191170858
0.02022332094409187 0.014693102723384267 -0.06858666067357655
-0.023270670675393384 -0.016907131900880525 -0.07892163693945796
0.019946289150337183 0.014491827343611879 -0.06764711737667824
-0.023270670675393384 -0.016907131900880525 -0.07892163693945796
0.21349439519661553 0.15511275760112464 -0.20636175917307478
-0.18545334030511973 -0.13473973869232014 -0.17925752811750673
-0.5116452920397132 -0.3717320639205743 -0.06730800685614315
0.44648291994031586 0.3243888293646522 -0.058735760699936246
-0.5107432578559945 -0.37107669772438806 0.3092772364087084
3.879614504908977 2.8187049300828346 2.349275167030587
0.8917631385118758 0.6479038450364131 1.7674467778064724
-0.49190391077779416 -0.35738911087222197 0.9749382370137477
0.0 0.0 1.607
-0.0 -0.0 1.588
0.0 0.0 1.607
-0.0 -0.0 1.587
0.0 0.0 1.607
-0.0 -0.0 1.588
0.8404593310773139 0.7008658264119692 1.7547191245817497
-0.4986671176169557 -0.4158425382047804 1.041122033782305
-0.5165769897911231 -0.4307777253079929 0.32951443822208054
0.4414008991539635 0.36808777596410625 0.28156106870778574
-0.5193100190242524 -0.43305682046614885 -0.07196453563235432
0.48647129723301274 0.40567234505431893 -0.0674138370556025
-0.18210173718814912 -0.15185610987485923 -0.18541758063013583
0.20267136863132876 0.16900929172118895 -0.20636175917307478
0.019253675229042963 0.018512051607765246 -0.0732843771580681
-0.043197348270288705 -0.04153344911998611 -0.16442007695720406
0.019253675229042963 0.018512051607765246 -0.0732843771580681
-0.043197348270288705 -0.04153344911998611 -0.16442007695720406
0.09142331658279437 0.0879018231376844 -0.09917684545332847
-0.13628320484391712 -0.13103377362139285 -0.14784126030309833
1.6672894500783129 1.6030678806908731 -0.2461610439424355
-0.3390489724363896 -0.32598929818004413 -0.05005768434426998
3.2742781312868883 3.1481576905965567 2.2252123211312194
-0.515935087116578 -0.49606201648980935 0.3506315183751645
0.7945824009544133 0.7639762402817506 1.7674467778064724
-0.5020021313759041 -0.4826657379792527 1.116639442915659
0.0 0.0 1.607
-0.0 -0.0 1.586
0.0 0.0 1.606
-0.0 -0.0 1.587
0.0 0.0 1.607
-0.0 -0.0 1.588
0.7340309714188127 0.8130810897691255 1.7564161450117126
-0.5170131189993374 -0.5726918980112973 1.2371278934430323
2.9017387946260076 3.2142362287513073 2.121386677045223
-0.2503366525434299 -0.27729619891342683 0.18301469466006073
1.329347610611885 1.472509261876348 -0.21113124792139243
-0.5424004787158265 -0.6008133028407757 -0.08614578235990648
0.08868185021521902 0.09823227932243708 -0.10348888221216884
-0.1536096334085043 -0.1701523409692214 -0.17925752811750673
-0.038812731409528616 -0.04963337629580318 -0.17287596662928884
0.015187590551554669 0.01942175594183603 -0.06764711737667824
-0.038812731409528616 -0.04963337629580318 -0.17287596662928884
0.015187590551554669 0.01942175594183603 -0.06764711737667824
-0.12810685449784764 -0.16382190802996108 -0.16262538633340817
0.6502393372239236 0.831520290758136 -0.8254470366922991
0.6848263148396763 0.8757498106242831 -0.11831816299554725
-0.5610920432854594 -0.7175195228370691 -0.09694046270475963
2.583395910429544 3.303623751455681 2.054515923227124
-0.6140405697166583 -0.7852296282903223 0.48833247854006595
0.6799881126537256 0.8695627606288399 1.7699923084514166
-0.525149017011099 -0.6715558999870858 1.3669499563352026
0.0 0.0 1.607
-0.0 -0.0 1.588
0.0 0.0 1.607
-0.0 -0.0 1.588
0.0 0.0 1.607
-0.0 -0.0 1.587
0.6174910874590331 0.9086105431130477 1.7615072063016017
-0.5330173548779318 -0.7843112202594326 1.5205303052468546
2.283563072302001 3.360161021748959 1.9902848044281607
-0.573919366314627 -0.844496702415687 0.5002108361261757
0.5930213761476197 0.8726044563272883 -0.11228584162636458
-0.5790482051733585 -0.8520435596183515 -0.10964008663988098
-0.13061912941186293 -0.19220021232086243 -0.18172154912255836
0.5955346747761214 0.8763026629544403 -0.8285270629486136
-0.0316463166412802 -0.054483124038814425 -0.17287596662928884
0.026486591101941022 0.04560000598900773 -0.14468966772233957
-0.03147432578996889 -0.054187020103820864 -0.17193642333239054
0.026486591101941022 0.04560000598900773 -0.14468966772233957
-0.10959662294895015 -0.1886844042561938 -0.170633454599826
0.5293872978544953 0.9114069779595211 -0.8242150261897733
0.5074360370551146 0.8736151148969815 -0.10752348265069409
-0.6083239105641043 -1.047306309000515 -0.1289011829414817
2.0040075929761905 3.4501517348917896 1.9546497316698312
-0.5976389963298344 -1.0289108820012651 0.5829194000590877
0.5570924299182057 0.9591048558468291 1.7784774106012318
-0.501542659950217 -0.863468923178896 1.6011387756700974
0.0 0.0 1.607
-0.0 -0.0 1.587
0.0 0.0 1.608
-0.0 -0.0 1.588
0.0 0.0 1.607
-0.0 -0.0 1.588
0.4849360861302187 0.9898777096137806 1.7674467778064724
-0.44582458230406574 -0.9100411972685499 1.6248970616895797
1.717796996904751 3.50645993464157 1.9128555105335194
-0.6372600174809945 -1.3008095387711254 0.7096218809775913
-0.6640772839048418 -1.355550390246163 -0.16065024277928508
0.4186574181139218 0.8545861155899723 -0.10127950088259276
-0.12614732370414056 -0.25749872495286247 -0.22422591145969914
0.0290749694213567 0.07098030214807896 -0.2104576985052212
-0.02336381471359022 -0.05703774279756343 -0.1691177934416956
0.0290749694213567 0.07098030214807896 -0.2104576985052212
-0.02336381471359022 -0.05703774279756343 -0.1691177934416956
-0.10331405417114932 -0.2522191055452874 -0.21313781693696676
0.34903139060624855 0.8520852835772188 -0.09799876469935308
-0.47417007492727964 -1.157584542915919 -0.1331343909198555
1.4712067681470777 3.591635795450668 1.9014170921172657
-0.7114350174519654 -1.7368160139962734 0.9194728649988628
0.42143241156869826 1.0288368484462518 1.7827199616761393
-0.3841233070699942 -0.9377546714776639 1.6248970616895797
0.0 0.0 1.607
-0.0 -0.0 1.588
0.0 0.0 1.608
-0.0 -0.0 1.588
0.0 0.0 1.607
-0.0 -0.0 1.588
0.3450683568442461 1.0479900048504143 1.769143798236435
-0.3156092836939942 -0.9585213137888441 1.6181089799697275
1.180163545110835 3.584216213494307 1.848624391734556
-0.8420110205241045 -2.5572299400418688 1.318937631228034
0.4580927762210543 1.391250867405774 -0.15588788380361457
-0.39060728237178866 -1.186294018643348 -0.13292273052093678
-0.0869671436481054 -0.2641236018483805 -0.21744985369580713
0.3308693312164459 1.004866847825425 -0.8272950524460877
0.018364416639844533 0.0727088577843663 -0.20575998202072965
-0.014842473722614094 -0.05876469327777549 -0.1662991635510007
0.018280560856100952 0.07237685386754271 -0.20482043872383135
-0.014842473722614094 -0.05876469327777549 -0.1662991635510007
-0.06886733790717983 -0.27266128710110876 -0.21991387470085877
0.2581078378706064 1.0219070087991138 -0.8242150261897733
0.350896677235362 1.3892789029169295 -0.15250131742091555
-0.30998714095809604 -1.2273088434512498 -0.13472184391174563
0.9108792737837089 3.6063760082948773 1.822228041543201
-0.7523220655755849 -2.978612342920515 1.505031900077086
-0.24673490872956338 -0.976879023226532 1.615563449324783
0.27226367817269537 1.0779531658607897 1.7827199616761393
0.0 0.0 1.608
-0.0 -0.0 1.588
0.0 0.0 1.608
-0.0 -0.0 1.588
0.0 0.0 1.609
-0.0 -0.0 1.588
0.19405578176327676 1.086676392302266 1.7699923084514166
-0.17600840800389278 -0.9856144459424195 1.605381326745005
0.6537392852894343 3.660818768652743 1.821788102373345
-0.5383363832013947 -3.014583917195328 1.500192569208671
0.42146460987031215 2.3601236591633685 -0.2551566108964798
-0.04985356361958884 -0.27917071145879274 -0.2217618904546475
0.015925443934035294 0.08917953282711436 -0.07084060389523462
0.007891030203771562 0.07147605742345177 -0.19730409234864488
-0.006463129500231979 -0.058542294651589055 -0.16160144706650914
0.007891030203771562 0.07147605742345177 -0.19730409234864488
-0.006463129500231979 -0.058542294651589055 -0.16160144706650914
-0.03172433536399877 -0.2873554349233421 -0.22607392721348787
0.0090764447226699 0.08221340781185538 -0.06468055138260552
0.15658442599350456 1.4183239874789313 -0.15186633622415946
-0.13988936175865774 -1.2671019874202019 -0.13567431570687974
0.4063972597008996 3.681100327968767 1.8143091364857944
-0.3354452647967676 -3.0384251979645205 1.4975529341895355
0.12235157919488593 1.1082467402296663 1.7878110229660285
-0.1100409314543474 -0.9967382879616598 1.6079268573899494
0.0 0.0 1.61
-0.0 -0.0 1.588
0.0 0.0 1.61
-0.0 -0.0 1.588
0.0 0.0 1.609
-0.0 -0.0 1.588
0.04350383435132006 1.107246522459911 1.7767803901712687
-0.039203312044384764 -0.9977909206694616 1.6011387756700974
0.14687815061407292 3.73829856420094 1.832786581619743
-0.12071790391324773 -3.072475824249644 1.5063517175866539
-0.09740315607187951 -2.479075866422682 -0.2640463476510647
0.0268590666843497 0.683608896231986 -0.07281117722802906
0.0030926607576188194 0.07871347250378094 -0.061600525126290974
-0.011257285157732602 -0.2865170399137626 -0.22422591145969914
-0.0007959432809723012 0.025327325870478312 -0.06952620397047486
0.0009250151643732309 -0.02943445979542074 -0.08080072353325457
-0.0007959432809723012 0.025327325870478312 -0.06952620397047486
0.0009250151643732309 -0.02943445979542074 -0.08080072353325457
-0.0022764089561440877 0.0724365075062969 -0.056672483116187694
0.009080892248966244 -0.2889586766827278 -0.22607392721348787
0.07858565740245005 -2.500636165112434 -0.266268781839711
-0.021270601228564213 0.6768415057398918 -0.07207036583181366
0.09731666100567805 -3.0966663640991388 1.5177901360029076
-0.08405902892664222 2.6748016710189666 1.3110187261706274
-0.035138726426013574 1.118132404834264 1.7937505944708987
0.03139879575153302 -0.9991258811409295 1.6028357961000606
-0.0 0.0 1.61
0.0 -0.0 1.588
-0.0 0.0 1.61
0.0 -0.0 1.588
-0.0 0.0 1.61
0.0 -0.0 1.588
-0.11332012783586376 1.1060149577960905 1.7827199616761393
0.10150808214521523 -0.9907282963218669 1.5968962245951899
0.3202668708472743 -3.1258343633065264 1.5393471553258475
-0.21024664256535683 2.05202673121323 1.0105402731590374
-0.06881805557035019 0.6716706050446339 -0.07185870543289498
0.14969700747777318 -1.4610566769527604 -0.15631120460145195
0.02986794670158491 -0.2915139299741796 -0.2291539534698024
-0.008591049185670866 0.08384943684741189 -0.06591256188513134
-0.004488787465942439 0.026329657263998413 -0.0732843771580681
0.0049491759239878325 -0.029030134932100805 -0.08080072353325457
-0.004488787465942439 0.026329657263998413 -0.0732843771580681
0.005006724481243505 -0.029367694640613607 -0.08174026683015287
0.04911570779753691 -0.28809556308906786 -0.2285379482185395
-0.11313718314000012 0.6636231451125295 -0.07164704503397629
0.25150880446927726 -1.4752626785736438 -0.1592744501863136
0.5365272057666047 -3.1470809317276234 1.5639837488377788
-0.2766397660113033 1.6226721091017535 0.8064084983458927
-0.18853888477396105 1.1059031541812232 1.798841655760788
0.16763952726364043 -0.9833148328450969 1.5994417552401345
-0.0 0.0 1.612
0.0 -0.0 1.588
-0.0 0.0 1.613
0.0 -0.0 1.588
-0.0 0.0 1.613
0.0 -0.0 1.588
-0.26228249450941016 1.07388942729013 1.772537839096361
0.23616724373968484 -0.9669631463536307 1.5960477143802085
-0.3409085699217841 1.395816024993872 0.7039026717694644
0.7742885894348538 -3.1702471467673314 1.5987389432563959
-0.16184772575874234 0.6626693170978287 -0.07259951682911038
0.3623879107367767 -1.4837610365339138 -0.16255518636955327
0.06990108101554408 -0.2862029812517672 -0.23038596397232824
-0.1070944369569697 0.43848745523332244 -0.35297100897364725
-0.007631201871073696 0.023804090733539653 -0.06858666067357655
0.008885646014263877 -0.027717091950011933 -0.07986118023635627
-0.007735738883006211 0.02413017416824567 -0.06952620397047486
0.008990183026196391 -0.028043175384717952 -0.08080072353325457
-0.13899845646995296 0.4335793922808636 -0.3560510352299618
0.06589200185599836 -0.20553763578712228 -0.16878543884603728
-0.20794233012820082 0.6486367648689799 -0.07249368662965104
0.47750844568125445 -1.4894972717356287 -0.166470903749549
-0.37394019981858967 1.1664357195346031 0.6000770276834685
0.616288540463481 -1.922395526036502 0.9889832538360975
-0.3216414229474715 1.0032995778198666 1.689383838028174
0.3043558216137796 -0.9493804141700799 1.598593245025153
-0.0 0.0 1.614
0.0 -0.0 1.589
-0.0 0.0 1.615
0.0 -0.0 1.588
-0.0 0.0 1.613
0.0 -0.0 1.588
-0.3527448274703698 0.8808101875868827 1.5213788154618362
0.3698607226125458 -0.9235488860364415 1.5951992041652268
-0.40230412182437125 1.0045606382162071 0.5301266996763779
1.2399647373076461 -3.0962142824356786 1.6339340768448691
1.0114585213238851 -2.525630145429923 -0.2895514257207668
-12.581494099494082 31.41621737551774 -3.601719178199874
0.07702248698424168 -0.19232653727487153 -0.16200938108214527
-0.1713237828356708 0.42779857150494227 -0.3603630719888022
-0.016898061988556524 0.03519013469358728 -0.10710793584640722
0.01245120357051532 -0.02592957293211695 -0.07892163693945796
-0.01674983337462182 0.03488144930153827 -0.10616839254950891
0.01245120357051532 -0.02592957293211695 -0.07892163693945796
0.08661195094489405 -0.18036898088604766 -0.15646533382077907
-0.2073230951751797 0.43174937156975174 -0.37453119276784913
1.2736768795474684 -2.652426117133219 -0.31315156020020063
-14.65782993552889 30.524861969157644 -3.6038357821890608
-0.4194413046807021 0.8734845462020193 0.47469436427453254
1.4460812357851809 -3.0114573789356007 1.636573711864005
-0.3646747917390417 0.759433540328076 1.3508282622505539
0.43133331208832587 -0.8982495957523665 1.5977447348101714
-0.0 0.0 1.615
0.0 -0.0 1.588
0.0 -0.0 1.588
-0.0 0.0 1.616
-0.0 0.0 1.614
0.0 -0.0 1.588
-0.3783348643560477 0.6632916267872196 1.2244002402183098
0.48819093377058903 -0.8558898191807369 1.57992602029556
-0.43336722268248723 0.7597736217585557 0.42850075143966143
1.5652832540010149 -2.744233676947228 1.5477059995531097
1.405112749227565 -2.4634248890620847 -0.3018277288580507
-0.35078551102735883 0.6149924687981079 -0.07535110201505334
0.1010860488709808 -0.17722270961003903 -0.15954536007709363
-13.102547284354051 22.97121075026493 -20.67991229014714
-0.014078055005938379 0.021069298249009105 -0.06952620397047486
0.04128294508498143 -0.0617842935139862 -0.20388089542693305
-0.013887811019371645 0.020784578002400876 -0.06858666067357655
0.04128294508498143 -0.0617842935139862 -0.20388089542693305
-0.2888463810124293 0.43228915834827314 -0.40656346583352043
0.18293604130787175 -0.27378313362057305 -0.2574901950278963
1.4424476564136701 -2.15877547493203 -0.2763226507883487
-0.47510723267551025 0.7110482223062218 -0.09101397153503633
1.7811350805983712 -2.6656570257091854 1.5705828363856174
-0.4420408071176914 0.6615608192656407 0.3897861044923409
-0.38013695843824263 0.5689151626008052 1.0971237079710843
0.5218430790625522 -0.7809933593321189 1.506105631592169
-0.0 0.0 1.616
0.0 -0.0 1.587
-0.0 0.0 1.616
0.0 -0.0 1.587
-0.0 0.0 1.616
0.0 -0.0 1.588
0.5708439869461606 -0.7419254695100264 1.50101457030228
-0.38271394489437366 0.49741300556183776 1.0063331149680634
1.9894914010054252 -2.5857403695772403 1.5982990040865401
-0.45123614490186387 0.586471253655834 0.36250987596127415
1.4734910130147179 -1.9150950814041887 -0.2571673846862073
-0.4844935470776792 0.6296958724452454 -0.08455832936801633
0.19406731056846366 -0.2522291270515483 -0.24886612151021553
-0.13161990865286902 0.1710662891389213 -0.16878543884603728
-0.017741883744688623 0.01996561107865171 -0.0732843771580681
0.04230756892964211 -0.04761030334140021 -0.17475505322308546
-0.01796934379269745 0.020221580451454935 -0.07422392045496641
0.04230756892964211 -0.04761030334140021 -0.17475505322308546
0.2108736084184882 -0.23730402661982491 -0.24825011625895263
-0.378316672175104 0.4257340229432592 -0.44537179666308374
1.5125956997967147 -1.702181002647091 -0.24235115676189908
-0.4967126490162136 0.5589694820919707 -0.07958430999342712
2.0496324343702406 -2.306528699415989 1.5116309876249248
-0.4593180950131213 0.5168879797876346 0.33875316078905476
0.6225214498762446 -0.7005468717530254 1.502711590732243
-0.37716855771722774 0.4244420064319574 0.9104514606751535
-0.0 0.0 1.616
0.0 -0.0 1.587
-0.0 0.0 1.617
0.0 -0.0 1.587
-0.0 0.0 1.617
0.0 -0.0 1.587
0.6681729915331431 -0.6526121383934361 1.497620529442354
-0.3831110863634791 0.3741889428068882 0.8586923375612817
1.738437453956739 -1.6979515764124877 1.1904753936301067
-0.46512517245553536 0.4542930307918113 0.31851595897568263
-0.5015161745218757 0.4898365352101821 -0.07461029061883792
1.5600354194701755 -1.5237042861218852 -0.23208562741434266
-0.5607234412559117 0.5476649440823674 -0.6129252250065952
0.2282341645313008 -0.22291889683754648 -0.24948212676147846
0.05042264513530742 -0.042723702412792386 -0.18133185630137363
-0.018810520464985134 0.015938376029642768 -0.06764711737667824
0.05042264513530742 -0.042723702412792386 -0.18133185630137363
-0.018810520464985134 0.015938376029642768 -0.06764711737667824
0.242206290816843 -0.20522424921573804 -0.24825011625895263
-0.5703567493428879 0.4832700062177061 -0.5845889834485013
-0.5052714942314965 0.4281225012945133 -0.07048291283992349
1.55450644396447 -1.3171516593880734 -0.21684607869219702
-0.4652172323617405 0.3941840524111715 0.29871869633216647
1.7560408932888687 -1.4879141772162472 1.1275640923407109
-0.3992962577033915 0.33832843245099575 0.8391766026167071
0.7138076679672363 -0.6048176628648735 1.5001660600872986
-0.0 0.0 1.617
0.0 -0.0 1.587
-0.0 0.0 1.617
0.0 -0.0 1.586
-0.0 0.0 1.616
0.0 -0.0 1.587
0.7500106207313182 -0.5539664401036842 1.4950749987974095
-0.40480141902127326 0.29899096738853803 0.80693321444741
-0.4702508276343669 0.34733265068488084 0.28640039957620084
1.781318803297003 -1.3157024832395021 1.0848899928646871
-0.5087099649066861 0.37573901024207157 -0.06730800685614315
1.5693222502310036 -1.1591193995203521 -0.20763885133923404
0.2566244058873348 -0.18954572727851715 -0.24948212676147846
-0.5747119410859572 0.42448882627559303 -0.5587167628954591
0.05695729412982613 -0.03614619799068566 -0.18509002948896688
-0.06563099374350521 0.04165069514662766 -0.21327632839591615
0.05695729412982613 -0.03614619799068566 -0.18509002948896688
-0.061583267257121634 0.03908192980718807 -0.2001227222393398
0.26804038070069747 -0.17010359811374254 -0.24825011625895263
-0.5799781934764471 0.3680653537349469 -0.5371565791012572
-0.5121476809326 0.3250188015123111 -0.06455642167020019
1.5809411199935834 -1.003295743028986 -0.19927826558194583
1.7947298421225308 -1.1389701916893196 1.0413360150489515
-0.4678277619727931 0.2968925256748249 0.2714424678010997
0.7877094721010456 -0.49989563185363695 1.495923509012391
-0.3998865442600316 0.25377571781565816 0.7594166424084459
-0.0 0.0 1.617
0.0 -0.0 1.587
-0.0 0.0 1.617
0.0 -0.0 1.587
-0.0 0.0 1.617
0.0 -0.0 1.587
0.8182542568404525 -0.44150604070636695 1.490832447722502
-0.4047028737588807 0.2183658220682029 0.7373553768189267
-0.47182170283732516 0.2545811771800669 0.2626436844039814
1.8193191958651966 -0.9816513733140948 1.012739969008317
-0.5145711790677518 0.2776475429642742 -0.062228157282094604
1.601471526690452 -0.8641071490214667 -0.19366926501060058
-0.23085653333210523 0.124563426527372 -0.20512974867054895
0.2814647223208249 -0.15187012363397323 -0.2500981320127414
-0.05524027366283669 0.02494193993843369 -0.1662991635510007
0.07989553704907454 -0.036074218216039705 -0.24052308400596709
-0.05524027366283669 0.02494193993843369 -0.1662991635510007
0.07989553704907454 -0.036074218216039705 -0.24052308400596709
-0.2376416755796086 0.10729933083519357 -0.20389773816802312
0.2893341246482848 -0.13063936654556801 -0.24825011625895263
-0.5156761835661028 0.2328367248267169 -0.060217383492367056
1.6131873580802512 -0.728382021426285 -0.18837775503763335
-0.4706175331578959 0.21249196406307763 0.25296502266715126
1.828451424477808 -0.825577474290288 0.9828241054581146
0.8883882657135986 -0.40112268271300955 1.5629558159959298
-0.39982294911866084 0.18052698369657155 0.7034149682196665
-0.0 0.0 1.618
0.0 -0.0 1.586
-0.0 0.0 1.619
0.0 -0.0 1.586
-0.0 0.0 1.618
0.0 -0.0 1.587
0.9245701473947958 -0.34522287440191457 1.5824715509405043
-0.4030431795345679 0.150491258385392 0.6898388047799625
-0.47280756521894773 0.1765404033039346 0.24724581345902438
1.846641647074003 -0.6895127851461511 0.9656664778337339
-0.5160864008677637 0.19270017667056538 -0.0586299305004769
1.6255790063434072 -0.6069707730868901 -0.18467369805655628
-0.24500815434780168 0.09148296593199305 -0.20451374341928605
0.29740447651254237 -0.11104709418853388 -0.24825011625895263
0.08539850571607575 -0.02517464211056438 -0.24428125719356034
-0.04828300130870438 0.014233355347126756 -0.1381128646440514
0.08539850571607575 -0.02517464211056438 -0.24428125719356034
-0.048611457099920055 0.014330180893705849 -0.13905240794094972
0.30601590821713653 -0.09021048910526228 -0.24948212676147846
-0.2501018904194376 0.07372758492306607 -0.20389773816802312
-0.516961811755883 0.15239527303969455 -0.05735996810696476
-0.4685905506563794 0.13813589957167102 0.2393269084016179
3.186243468525637 -0.9392733318301693 1.6273349892970304
0.9476585257434056 -0.279360441129175 1.5841685713704674
-0.3959151848312033 0.11671191434427215 0.6618379676855729
-0.0 0.0 1.619
0.0 -0.0 1.587
-0.0 0.0 1.618
0.0 -0.0 1.586
-0.0 0.0 1.618
0.0 -0.0 1.587
0.9624379954558068 -0.21116551635161138 1.57992602029556
-0.40110197877212994 0.08800453313042463 0.6584439268256469
-0.47103636801419785 0.10334861917520088 0.2362473342126265
3.1858549136453758 -0.6989984820192348 1.5978590649166842
-0.5167212659214621 0.11337220002051995 -0.05630166611237132
3.2625314515605095 -0.7158218418588833 -0.35548363998393845
0.31316189824620033 -0.06870987456546876 -0.25071413726400427
-0.25545393173891523 0.05604834976839229 -0.20451374341928605
0.02846103477953851 -0.004164699517886613 -0.07892163693945796
-0.025750460038630078 0.0037680614685640865 -0.07140529056427147
-0.025411638196016523 0.0037184817123987694 -0.07046574726737317
0.02812221293692496 -0.004115119761721296 -0.07798209364255965
-0.05767866192288725 0.008440111097973544 -0.045584388593455316
0.230714647691549 -0.0337604443918941 -0.18233755437382126
-33.46363032236456 4.896728673072779 -3.5993909138117686
1.5378452322441503 -0.22503269283504557 -0.16541260175495556
-1.2564306224087731 0.183853329576257 0.6220739861762641
2.009045005138781 -0.2939832943224301 0.9947024630442244
-1.0623902579441515 0.15545942827940973 1.721627226197471
0.9869914422004564 -0.14442632937737146 1.5994417552401345
-0.0 0.0 1.615
0.0 -0.0 1.588
-0.0 0.0 1.615
0.0 -0.0 1.588
-0.0 0.0 1.615
0.0 -0.0 1.589
-0.978601018223282 0.07701757043448196 1.5739864487906894
0.9912621634725319 -0.07801402417595202 1.5943506939502454
-1.1163882927882836 0.08786166412145993 0.5486041448103264
2.059096289826024 -0.1620543925255469 1.011860090668605
-0.6889666085667131 0.05422284803936919 -0.07355198862424447
1.5989973231915227 -0.1258438185431686 -0.1707041117279228
0.206537503040994 -0.01625485401262101 -0.16200938108214527
-0.4625497691678534 0.036403456324843396 -0.3628270929938538
0.02944808281857221 -0.00023128945733122145 -0.08080072353325457
-0.03835099157767544 0.0003012141769894931 -0.1052288492526106
-0.03835099157767544 0.0003012141769894931 -0.1052288492526106
0.02944808281857221 -0.00023128945733122145 -0.08080072353325457
0.20008030844580812 -0.0015714593798245124 -0.15646533382077907
-0.47578152087113423 0.003736856163047208 -0.37206717176279747
2.818992305106021 -0.02214076904380538 -0.30002861546724185
-0.7040023111164243 0.005529334914643374 -0.07492778121721595
