0.096 0.0 1.716
-0.096 -3.2930390389303353e-16 1.698
0.096 0.0 1.716
-0.096 -3.2930390389303353e-16 1.699
0.096 0.0 1.716
-0.096 -3.2930390389303353e-16 1.699
-1.6827406217239778 -5.772219333053086e-15 1.6335814662680965
0.096 0.0 1.674421002924799
0.096 0.0 1.7365717156431282
-1.5409931862276351 -5.285990334347132e-15 1.370368034201709
0.096 0.0 1.8447448725456737
-1.1490174063085377 -3.94141580769218e-15 0.8706648306120347
0.096 0.0 2.0108133480925474
-0.8554039981201864 -2.934248708194651e-15 0.3252809175103253
0.096 0.0 0.4413016258784871
-0.8146760092208436 -2.7945415650460497e-15 0.1265554822175456
-0.8166621088308188 -2.8013543812448545e-15 -0.06363032663528381
-0.46893176475901055 -1.6085527166103313e-15 -0.23982684120462153
-0.3648561360317242 -1.2515473953601506e-15 -0.2489015869776654
0.096 0.0 -0.214960461480711
-0.2884951993388623 -0.02270506459867799 -0.23277076486866763
-0.2894358526560292 -0.02277909562026927 -0.23362340503302173
-0.1571244189626867 -0.012365959956190428 -0.08838834764831867
-0.4353368035468445 -0.034261749482711774 -0.22258438856899512
-0.8111746718621176 -0.06384083120845124 -0.06339494934810028
2.665481795965461 0.20977796685243139 0.4179928905874929
-0.8072149906069235 -0.063529197535186 0.12577330989234445
-0.8488047137370037 -0.06680237973188678 0.3237501837808649
3.4586336834510836 0.27220037416871773 2.0384392549502937
-0.9409848795556732 -0.07405711611719273 0.5519303519026315
2.4393410101944717 0.19198030102959415 1.8591925858920744
1.957296067405322 0.15404254126591246 1.7472637939333886
-1.517338639360189 -0.11941714074859629 1.3534389102421303
1.7233387894859393 0.13562970416961542 1.6783104826063897
-1.6805391837013057 -0.13226130214294957 1.6364985760292894
0.09570406403838029 0.007532073189873124 1.716
-0.09570406403838026 -0.007532073189873443 1.699
0.09481808069713321 0.015017708643862182 1.716
-0.09481808069713317 -0.015017708643862532 1.699
0.09481808069713321 0.015017708643862182 1.716
-0.09481808069713317 -0.015017708643862532 1.699
1.7044264427393998 0.2699546282076205 1.6753933728451966
-1.6620232923225848 -0.2632386289608624 1.6335814662680965
1.9283248351958877 0.30541664978640476 1.7374627221673167
-1.5151206750364596 -0.2399715401397893 1.3641309885323907
2.397020302687522 0.37965071908771425 1.8439844665800738
3.3851484436810257 0.5361548416678951 2.01375227435401
-0.956841144919363 -0.15154874921754563 0.5666249832099433
-0.8419282751971703 -0.13334833866050932 0.32413286721323
3.1778205834701665 0.5033173345647143 0.5030932395693777
-0.801703650944067 -0.12697738406091666 0.1260861788224249
3.2617376751796314 0.5166084961687808 -0.2589934749976225
-0.801703650944067 -0.12697738406091666 -0.06323803115664459
-0.3519616469017519 -0.08449851543196801 -0.24678026663410574
0.13620122614091212 0.03269902135710048 -0.07212489168102804
-0.45216874162032483 -0.10855611038302705 -0.23773684694575772
-0.7931320497391673 -0.19041415828805142 -0.06355186753955597
-0.7940976697556212 -0.19064598314334458 0.12686835114762604
2.796149756461002 0.6712961637333268 0.4495926525256193
-0.8356341395377168 -0.20061800726519902 0.3268116512397856
3.2471128417584763 0.779562821642485 1.2773972972346657
3.3929106379583653 0.8145657756307702 2.0501949599961433
-0.3491498626497326 -0.08382346575794218 0.2033736972931954
2.3792763388148175 0.5712137109313438 1.8591925858920744
-1.115332035459908 -0.26776753103551926 0.8691440186808347
1.9071585310194663 0.457868253496211 1.7454817808850118
-1.4935630464681142 -0.35857276280398864 1.3659130015807674
1.6828462112220768 0.4040156301128715 1.6802552224471852
-1.6381879406626092 -0.3932941279342967 1.635526206108892
0.09334751235817695 0.022410754930166945 1.716
-0.09334751235817687 -0.02241075493016728 1.699
0.09130142556433472 0.029665631459994988 1.716
-0.09130142556433464 -0.029665631459995307 1.7
0.09130142556433472 0.029665631459994988 1.715
-0.09130142556433464 -0.029665631459995307 1.701
1.6431110879224067 0.5338791555646694 1.6773381126859919
-1.6003814335251452 -0.5199954492377802 1.6335814662680965
1.8577561730520438 0.6036215714228774 1.738353728691505
-1.4912011180032236 -0.4845206142837841 1.3944252103547952
2.311919801499299 0.7511882796179943 1.847026090442474
-1.1098405758677417 -0.36060906277790516 0.8843521379928353
3.270056083283938 1.062505629245186 2.020217912129227
-0.9185143124313037 -0.2984433913807599 0.5648616274530658
3.2576971868841107 1.05848998038118 1.3103080724180631
-0.8286600779733552 -0.2692479808154426 0.33140385242816667
2.9582439804067944 0.9611917354966005 0.4863547518100732
-0.7870818697719438 -0.2557384020367313 0.12858913026306856
-0.7870818697719438 -0.2557384020367313 -0.06449337668829014
2.479183983680256 0.8055357068828765 -0.2043859443710411
0.47861110092612974 0.15551017352661514 -0.15265439522122504
-0.3469988056832418 -0.1127467465357817 -0.2489015869776654
0.13742684388893767 0.04465268837064072 -0.07636753236814733
-0.13698675590068213 -0.05674177215955576 -0.09634833857201261
-0.13698675590068213 -0.05674177215955576 -0.09634833857201261
-0.33708311639086325 -0.13962439845608562 -0.2489015869776654
0.14342467261004255 0.05940844457400067 -0.08626702730475902
-0.6646701675795433 -0.2753153979162477 -0.22032911698933894
0.4604007910068811 0.19070425176235126 -0.1511093102493503
-0.7801926071858881 -0.32316635915962305 -0.06582718131566352
2.76474666436543 1.1451955649059378 0.4678954849353261
-0.7783568547538108 -0.3224059656050972 0.130935647238672
3.246800423783745 1.3448687698499413 1.3443668978985561
-0.8215112698235872 -0.3402811096032767 0.33829215421073827
3.232947424496811 1.3391306696657483 2.056072812519068
2.264318665078596 0.9379115006100975 1.8622342097544746
-1.0965422605151582 -0.4542026760206351 0.8995602573048359
1.8148201911337223 0.7517231364361213 1.748154800457577
-1.467954744715401 -0.6080467642110603 1.4131363473627507
1.5998480707793015 0.6626787686532188 1.6812275923675826
-1.5555719946707511 -0.6443390174404 1.6345538361884941
0.08869243512108352 0.03673760950704866 1.716
-0.0886924351210834 -0.03673760950704896 1.7
0.08553662632208328 0.043583087974996534 1.716
-0.08553662632208316 -0.043583087974996826 1.7
0.08553662632208328 0.043583087974996534 1.716
-0.08553662632208316 -0.043583087974996826 1.7
1.5384749346191438 0.7838921325977323 1.6763657427655945
-1.4993328724728516 -0.7639482557885101 1.6335814662680965
1.7431266886298098 0.8881674095498402 1.7410267482640702
-1.4637520697595863 -0.7458189312926609 1.4612506996689227
2.1632735638848843 1.1022429350178622 1.8447448725456737
-1.0903881415342966 -0.5555805079386628 0.9276952780320372
3.062693107775759 1.5605200824029348 2.0196301268769346
-0.9030855514081414 -0.46014507151316175 0.5930753195631044
3.6104808044041183 1.8396318547550177 1.5502505845109738
-0.8144291911930095 -0.41497239972400624 0.3478592400198655
2.7572102952933837 1.40486881506003 0.48385180036942954
-0.7727960060357232 -0.3937592323428549 0.13484650886467775
-0.7736815441283758 -0.3942104365375582 -0.06771019961313185
2.506970005493533 1.277365018918145 -0.2206269771867054
2.0101494232669705 1.0242222884410714 -0.6965243053211361
-0.5625293322493321 -0.28662301086814457 -0.19282660448996847
0.3139290507931933 0.15995484071476138 -0.1771270134387074
0.2985297381054324 0.15210849899562473 -0.22698127676088234
-0.32594889276391126 -0.16607925609774482 -0.24960869375885195
-0.12384433288004153 -0.0758919047955542 -0.09293777791459623
0.1357412782021349 0.08318236226539016 -0.10828530087296992
-0.12448546399569718 -0.07628479044852902 -0.09379041807895032
0.13506207761519273 0.08276614761040688 -0.10743266070861583
-0.31191367285488136 -0.19114094455709388 -0.24960869375885195
0.2718197587276627 0.16657136238031808 -0.214960461480711
0.2987710021994438 0.18308710562117678 -0.1760820163092755
-0.4701635998795011 -0.2881166245608684 -0.16779622794559756
1.8988893720038942 1.1636409037545286 -0.6875628124842625
-0.7666425267017968 -0.469799144584454 -0.07014243158069511
2.2865412025343987 1.4011942510275095 -0.2102703765506296
2.7407554093489748 1.679537074947836 0.502623936174257
-0.764947015626037 -0.46876013406092837 0.13953954281588463
2.982805967849317 1.8278658479665566 2.0554850272667755
-0.8930627322861361 -0.54726954620335 0.6130600181410485
2.0931274086152625 1.2826701256767281 1.8652758336168747
-1.075739977335463 -0.65921430594481 0.9565907047248383
1.6757329582061207 1.026890477500772 1.7490458069817654
-1.4339209895984246 -0.8787079125563134 1.495999954112269
1.475634159407386 0.9042697758910535 1.6802552224471852
-1.4364747465637404 -0.8802728568373769 1.635526206108892
0.08185345577799281 0.05015986221273114 1.716
-0.08185345577799266 -0.05015986221273141 1.7
0.07766563145999492 0.056427384220077474 1.716
-0.07766563145999471 -0.05642738422007775 1.7
0.07766563145999492 0.056427384220077474 1.716
-0.07766563145999471 -0.05642738422007775 1.7
1.396906008809023 1.014911623025988 1.6763657427655945
-1.3621734602579219 -0.9896769493976095 1.6345538361884941
1.5843419996975185 1.1510918416853055 1.742808761312447
-1.4171005954818614 -1.029583849079303 1.5583704108054548
1.9674448341319228 1.4294323435012972 1.847786496408074
-1.0707229127134277 -0.777925731796084 1.0037358745920402
2.7752062437031184 2.0163053600363283 2.015515630110887
-0.8868538610730847 -0.6443370461953599 0.6418614955033796
3.589639674226496 2.6080258835408623 1.6975837059715329
-0.800657515417043 -0.5817117353175948 0.3769431808796122
-0.756383731665034 -0.5495449485460473 0.14548405248741333
1.8122450186708015 1.3166730772302084 -0.6915800334111368
-0.4182547442985757 -0.3038798592729257 -0.15698063314247432
0.2850416133047267 0.20709485431714295 -0.1771270134387074
0.26950953506763764 0.1958101389295912 -0.22556706319850925
-0.2967361406091693 -0.21559142574874204 -0.2503158005400385
-0.2781724665418989 -0.23758173090117035 -0.24960869375885195
0.24822334357860748 0.21200276343165098 -0.2206173157302034
1.682841624678736 1.437282528332071 -0.6832365745630132
3.1474065457158633 2.6881391399972103 -0.3246637381218304
-0.7601173367583642 -0.6492015360112541 -0.07806680024920763
-0.7533056023965489 -0.6433837652583196 0.15424438252966619
3.570852245877251 3.0497959338476064 1.796698714954091
-0.7956986271603534 -0.6795908289074599 0.3987561365244222
2.6494998023205465 2.262886607301255 2.047256033734681
-0.8782662568235107 -0.7501102466472636 0.6765408253886355
1.866703721936085 1.594315594388378 1.8652758336168747
-1.0602407212942966 -0.905531121999321 1.0577246981496424
1.4967393412326082 1.2783361625200853 1.7517188265543306
-1.3425817395599073 -1.1466731324140689 1.570844502144092
1.3167669314715758 1.1246252034268707 1.6812275923675826
-1.2810843452915706 -1.0941493957631505 1.635526206108892
0.07299897269760293 0.062347012639697684 1.717
-0.07299897269760271 -0.06234701263969794 1.702
0.0678822509939085 0.06788225099390863 1.717
-0.06788225099390827 -0.06788225099390886 1.702
0.0678822509939085 0.06788225099390863 1.717
-0.06788225099390827 -0.06788225099390886 1.702
1.2223526496064863 1.2223526496064885 1.6783104826063897
-1.190583260423221 -1.1905832604232314 1.6345538361884941
1.3861781992225952 1.3861781992225977 1.7445907743608238
-1.2477700108593677 -1.2477700108593783 1.5699534956199037
1.72102295161918 1.721022951619183 1.8493073083392741
-1.0536567277818665 -1.0536567277818756 1.1307236708472452
2.4213782232439423 2.4213782232439462 2.0119889185971327
-0.8730913468818674 -0.873091346881875 0.7235636455720332
3.2187588446480393 3.218758844648045 0.711933250398084
-0.7497839688870355 -0.749783968887042 -0.08285280508860629
-0.2600394200885693 -0.26003942008857156 -0.25102290732122506
0.23150053995617356 0.23150053995617398 -0.22132442251138995
-0.20456685718435372 -0.2395170159753086 -0.2557920493062281
0.1678744691486347 0.19655574936405218 -0.2046336394449825
-0.20394840323121757 -0.23879289943261858 -0.2549394091418741
0.1678744691486347 0.19655574936405218 -0.2046336394449825
0.2132445631840146 0.24967730427986198 -0.2220315292925765
-0.23758173090116785 -0.2781724665419011 -0.24960869375885195
1.432091852208989 1.6767641237922009 -0.6807644386080136
0.4447178202763157 0.5206976669130395 -0.053195266903480184
3.182906124468188 3.72670425481053 0.7665288786971242
3.2497867031624534 3.8050113513560655 1.914565212122538
2.268080223816301 2.655580745963752 2.0519583157530206
-0.8647175782811004 -1.0124542013403217 0.7805788150444031
1.594315594388375 1.8667037219360876 1.8652758336168747
-1.040985607361402 -1.2188375467085073 1.2166495449600487
1.2802821915408615 1.4990178484672316 1.7543918461268957
-1.1492670904872728 -1.3456188742444566 1.5744085282408453
1.1246252034268682 1.3167669314715775 1.6812275923675826
-1.094149395763139 -1.2810843452915806 1.635526206108892
0.06234701263969756 0.07299897269760304 1.717
-0.06234701263969729 -0.07299897269760328 1.701
0.056427384220077335 0.07766563145999501 1.717
-0.05642738422007709 -0.0776656314599952 1.702
0.056427384220077335 0.07766563145999501 1.717
-0.05642738422007709 -0.0776656314599952 1.702
1.016672255981178 1.3993293121771375 1.6792828525267873
-0.9896769493975979 -1.3621734602579303 1.6345538361884941
1.1546143261897361 1.5891902836845626 1.748154800457577
-1.037213657328036 -1.4276021256121045 1.5699534956199037
1.4311943264917355 1.969869995664147 1.850067714304874
-1.0389744061039519 -1.4300255883937671 1.3421165292840538
2.0186555812422298 2.7784410456800397 2.0178667711200573
-0.8647118190744089 -1.1901737141917674 0.8628687503653493
-0.7726496948134783 -1.0634610707988508 0.5016979798306311
0.3490335940704421 0.48040352851563217 0.09167059651357443
-0.7433420098673764 -1.0231225031081708 -0.0989369197128149
1.1452210919969634 1.5762616059668784 -0.6013470710536516
-0.28138711082788675 -0.38729613199712515 -0.24505182685178103
0.1958101389295907 0.269509535067638 -0.22556706319850925
-0.21502418553243213 -0.2959554014308815 -0.24960869375885195
0.15367143809525738 0.25076899551925375 -0.2370339656904381
-0.16358461299206722 -0.26694582669941785 -0.25408676897752003
0.1541654128917607 0.25157508912432675 -0.2378866058547922
-0.16358461299206722 -0.26694582669941785 -0.25408676897752003
0.17256063892499923 0.28159336976178256 -0.22344574285494959
-0.24655067970702357 -0.40233414264266054 -0.24139433689876938
0.3076877771961526 0.5021008183264499 -0.17953887373184563
-0.7493760684119919 -1.2228706015320612 -0.11227496598654886
-0.7337370157880482 -1.1973499871225826 0.21916468552136137
-0.7785728303234667 -1.2705153867159995 0.5690502639268866
0.28605877855745565 0.466805500406986 0.20626637004478274
1.8309996607503647 2.9879198855277314 2.0590117387805305
-0.8594076977240201 -1.402425901462426 0.9651433842642394
1.285802724876325 2.0982393459042314 1.869838269410475
-1.0274123526780794 -1.6765845810947009 1.4934373164384598
1.0310654965994428 1.6825459701660883 1.7561738591752722
-0.9235730802170568 -1.5071342891389532 1.5726265151924688
0.9058348623684964 1.4781881484161095 1.683172332208378
-0.8807945069474511 -1.4373260021759837 1.6364985760292894
0.050159862212731 0.0818534557779929 1.719
-0.0501598622127307 -0.08185345577799309 1.701
0.04358308797499638 0.08553662632208338 1.718
-0.04358308797499605 -0.08553662632208354 1.702
0.04358308797499638 0.08553662632208338 1.718
-0.04358308797499605 -0.08553662632208354 1.702
0.7866118768264064 1.5438127332146339 1.6821999622879804
-0.7634950051267602 -1.4984433179625074 1.6326090963476987
0.892248424283806 1.7511361310198201 1.7490458069817654
-0.7997577101586764 -1.5696128838161816 1.5672804760473384
1.111315702356937 2.1810798723785667 1.8599529918576743
-0.9870300576638734 -1.9371555604204973 1.651601757283266
1.5691425556443699 3.0796156643428505 2.030798046670492
-0.8523471838177554 -1.672825537298478 1.1020973480483856
-0.7725601834362624 -1.5162347321470142 0.6501791515882854
2.4188000743720237 4.747162436679189 2.0385546442088267
-0.7344888635828031 -1.4415155598441671 0.2526416610399705
-0.7453657170782948 -1.46286258678126 -0.12859445789794102
-0.20622965065545482 -0.40474847892305793 -0.23198936273388227
0.11255057402644264 0.2717211222675158 -0.2370339656904381
-0.12017539382029414 -0.2901290656244858 -0.2549394091418741
0.11255057402644264 0.2717211222675158 -0.2370339656904381
-0.12017539382029414 -0.2901290656244858 -0.2549394091418741
-0.1403629411800182 -0.33886611625138147 -0.2503158005400385
-0.18282498223981983 -0.4413785516639992 -0.24452932828706508
-0.731465821571749 -1.7659147068509184 0.29863339376179787
0.21592028852761805 0.5212776889548892 0.21277198839498926
-0.7666303036427795 -1.850809276380627 0.7657495481625421
-0.8446163200252611 -2.039084174806667 1.2960664813049014
0.9455593431815493 2.2827821903375005 1.8774423290664752
-0.8568507658282879 -2.068620739792453 1.7010281450472682
0.7566921155723775 1.82681636795563 1.7597378852720258
-0.6749061473733057 -1.629367574317631 1.5690624890957152
0.6645892516928182 1.6044603848441943 1.6860894419695711
-0.6405184455179488 -1.546348318119585 1.6248301369845173
0.036737609507048505 0.08869243512108359 1.719
-0.0367376095070482 -0.0886924351210837 1.701
0.029665631459994818 0.09130142556433479 1.719
-0.02966563145999448 -0.0913014255643349 1.702
0.029665631459994818 0.09130142556433479 1.719
-0.02966563145999448 -0.0913014255643349 1.702
0.5363474896746016 1.6507078391768037 1.6851170720491733
-0.5141337978784799 -1.5823411256360147 1.6151064377805406
0.608559917194134 1.8729548385331314 1.752609833078519
-0.5431355867921582 -1.671599453924276 1.563716449950585
0.7576726175084487 2.331876541474247 1.8629946157200745
-0.688511222479479 -2.119019654585538 1.6926636794256678
1.0801128430489713 3.324245515343394 2.053721671509898
-0.8416672226092113 -2.5903853548044347 1.5999514567401094
0.17496475637007416 0.5384861502660591 0.21353735525971942
-0.7712591230435565 -2.373691505887419 0.9544124803185308
0.202428539704536 0.6230109841030808 0.10136953334606866
-0.7342059102152152 -2.25965344276618 0.3713754200055046
0.17039842664382363 0.5244324324422638 -0.16779622794559756
-0.14732853100061982 -0.4534305944168296 -0.24400682972234913
-0.10560969429225102 -0.32503321748937797 -0.2319310242291882
0.06843772453344212 0.28506363826465964 -0.236181325526084
-0.07375432792416069 -0.30720888514568606 -0.2566446894705822
-0.07375432792416069 -0.30720888514568606 -0.2566446894705822
0.06843772453344212 0.28506363826465964 -0.236181325526084
-0.1096984579536568 -0.45692696169364944 -0.24034933976933748
0.12000113549867168 0.4998407021032095 -0.15605358215934947
-0.613670318904012 -2.556120838242247 0.4109533396606826
-0.7769959874720094 -3.2364212079784043 1.2731877794786497
0.8332344936703132 3.470671444916384 2.097217780179541
-0.7060610892084479 -2.9409560925497984 1.7768748176801434
0.5784450150361935 2.4093968881402206 1.8827651708256754
-0.520132406231268 -2.166507392091721 1.6926636794256678
0.46276479254854574 1.9275540840084102 1.7641929178929678
-0.41077529403792645 -1.711002237815034 1.5654984629989617
0.40634651015028267 1.692555025306027 1.6899789216511618
-0.38397185417115 -1.5993578759003153 1.5966314092929847
0.02241075493016678 0.093347512358177 1.719
-0.02241075493016648 -0.09334751235817706 1.701
0.015017708643862022 0.09481808069713325 1.72
-0.015017708643861677 -0.09481808069713331 1.701
0.015017708643862022 0.09481808069713325 1.72
-0.015017708643861677 -0.09481808069713331 1.7
0.27198515052588984 1.7172466561019732 1.6880341818103666
-0.255586198474784 -1.6137077477502575 1.5859353401686105
0.30916659057447204 1.9520010295265104 1.7588468787478375
-0.27432811843516597 -1.7320395732880416 1.5601524238538316
0.3863722279328878 2.4394582393396647 1.8766819231008751
-0.346515052338227 -2.187809936558255 1.6827784018728675
0.5516359478205916 3.4828923011014967 2.0719430143309645
-0.46923090822051017 -2.962607357509691 1.7621801863728317
-0.40106636296313664 -2.5322333566437987 0.40078509943306767
0.0830282462769598 0.5242197156919726 -0.16130687106372363
-0.05767999868516317 -0.3641771790649156 -0.2517300141024116
-0.024713494284627876 -0.3140147181267841 -0.2557920493062281
0.02300136482418861 0.292260050667594 -0.236181325526084
0.02307551232931287 0.2932021840483794 -0.2370339656904381
-0.02478823215575276 -0.3149643528188428 -0.2566446894705822
-0.028929178344792614 -0.3675800628982687 -0.2517300141024116
-0.037637147976493576 -0.4782253078750596 -0.24557432541649699
0.04341851498960014 0.5516845407985418 -0.16841426193434747
-0.1991147786289592 -2.5299931432578115 0.3967178033420218
0.31510330368215167 4.003767089630539 1.5364739809458308
0.28184727411761507 3.581209169271249 2.1107368409822675
-0.23549776951897272 -2.9922828744207304 1.7633557568774167
0.1962923018529523 2.4941301754786718 1.9010149140000763
-0.17402842925727868 -2.211240852058012 1.6850596197696674
0.15608006960196547 1.9831853195990143 1.7704299635622862
0.13688313019384468 1.739265077171486 1.6938684013327525
-0.12677846432103615 -1.6108731238010023 1.5684326816014522
0.007532073189872951 0.09570406403838029 1.721
-0.007532073189872665 -0.09570406403838032 1.702
-1.6465195194651677e-16 0.096 1.721
4.939558558395502e-16 -0.096 1.702
-1.6465195194651677e-16 0.096 1.72
4.939558558395502e-16 -0.096 1.702
-2.9888553005437483e-15 1.7426462635887985 1.6919236614919573
8.283356198339074e-15 -1.6098649011640698 1.5625984620790663
-3.4016488414199013e-15 1.9833247338749143 1.7650839244171561
9.393012851923032e-15 -1.8255259516095628 1.624304893595394
-4.273832838534714e-15 2.4918499152236273 1.8934108543440757
1.1346015254760239e-14 -2.205090701082384 1.675174342216867
-6.102919338758333e-15 3.5582952378913135 2.0907521424043236
1.531031109605836e-14 -2.9755490249700136 1.7480733403178124
-6.857329645598882e-15 3.9981526984346156 1.529585679163259
1.7388089171638203e-14 -3.379363845459675 1.2927046345292692
-6.677294894058571e-15 3.893183787082238 0.6088429379365728
1.6452030639146004e-14 -3.197441477181404 0.4999645502685731
1.3309959433859062e-14 -2.5867819776703254 -0.20281676245648417
-2.5950666853219846e-15 1.5130485782022995 -0.7889728327210861
2.4783400649334323e-15 -0.48166378315169184 -0.2466193225459289
1.867394915674715e-15 -0.36292698990292804 -0.24748737341529228
0.03763714797649808 -0.4782253078750593 -0.24557432541649699
-0.13868499093735626 1.7621598886845384 -0.13848030395964972
0.1280316141190473 -1.626795901699433 -0.12780986694066254
0.25110363821572584 -3.1905742371671635 0.5004338536636939
-0.3127502084137306 3.9738681793860713 1.524993477974878
0.2651418314501547 -3.368946394529788 1.2927046345292692
-0.2827884481270211 3.5931679189269614 2.1177902640097774
0.23447832536687582 -2.979329608306732 1.7557145485976147
-0.19786033728076538 2.5140539546579235 1.9162230333120769
0.1734013467794712 -2.2032730137082566 1.6789763720448672
-0.15623680515406851 1.9851768336133808 1.772211976610663
0.1447177967529207 -1.8388139545106188 1.641234017554973
-0.137039810917675 1.7412558945266052 1.695813141173548
0.1250554552650106 -1.588980217972666 1.5470405433527035
-0.0075320731898733 0.09570406403838028 1.722
0.007532073189873565 -0.09570406403838025 1.701
-0.015017708643862348 0.0948180806971332 1.721
0.015017708643862733 -0.09481808069713313 1.701
-0.015017708643862348 0.0948180806971332 1.721
0.015017708643862733 -0.09481808069713313 1.701
-0.27245373922081834 1.7202052086842992 1.6909512915715594
0.24980835505294904 -1.5772278800939765 1.5499576531138963
-0.3097915912716975 1.9559471286252472 1.762410904844591
0.2866687075048448 -1.8099549862185804 1.6305419392647125
-0.3921559938218689 2.4759754999816908 1.9048169438280762
0.3446396121668864 -2.1759688733356133 1.6736535302856672
-0.5575782777022745 3.5204106953925938 2.0942788539180786
0.4634458352069071 -2.926081844007336 1.7404321320380103
-0.629202229717169 3.97262653091364 1.5387700815400212
0.5331837595186786 -3.3663897692610596 1.3038024540678568
-0.6138761285373808 3.8758613363756913 0.61369240635282
0.5047246196459911 -3.186705831783538 0.5045011497547398
-0.2933863644512363 1.852368602938974 -0.1469538862982572
0.255586198474802 -1.6137077477502544 -0.12796678513211826
-0.23622458897226847 1.4914633564271307 -0.7874053370269382
0.07550211855182051 -0.4767016153677129 -0.24714182111064484
0.05752897391631298 -0.363223646201808 -0.25102290732122506
0.03587471201813071 -0.1494289297211761 -0.10231681972249125
-0.03810240278264566 0.15870792955044508 -0.1125485016947404
0.03587471201813071 -0.1494289297211761 -0.10231681972249125
-0.03810240278264566 0.15870792955044508 -0.1125485016947404
0.08562450083910324 -0.35665171365921466 -0.2503158005400385
-0.034613736909778835 0.14417659039227074 -0.07990306627408007
-0.3511174261341688 1.4625093343513798 -0.7842703456386424
0.11198469243577605 -0.4664498136563726 -0.24557432541649699
0.3839718541711664 -1.5993578759003115 -0.12882983518512456
-0.9135132006064601 3.805056324460617 0.6119716272373774
0.7629951999603908 -3.1781037309750295 0.5110713972864295
-0.9475863347707298 3.9469811423613086 1.5529293685375296
0.8049981818964168 -3.3530587419762665 1.3191097913624603
-0.8437357819913874 3.5144124587457544 2.123668116532702
0.6932281832633508 -2.8875031923669616 1.7445466288040576
-0.5905752471931316 2.459922941354621 1.9223062810368772
0.5159343236946082 -2.1490211198668536 1.6789763720448672
-0.4648633467990764 1.9362951915456383 1.772211976610663
0.4277924350772649 -1.7818837314737075 1.6305419392647125
-0.407745057799168 1.6983803955063639 1.695813141173548
0.37068896574080157 -1.5440306637751775 1.5412063238303173
-0.022410754930167098 0.09334751235817691 1.722
0.02241075493016744 -0.09334751235817683 1.701
-0.029665631459995147 0.09130142556433468 1.722
0.029665631459995505 -0.09130142556433457 1.7
-0.029665631459995147 0.09130142556433468 1.722
0.029665631459995505 -0.09130142556433457 1.701
-0.5385073106329464 1.6573550845835274 1.6919236614919573
0.4950078984950638 -1.5234776599699456 1.5548195027158849
-0.613498358427381 1.8881537978159797 1.7668659374655327
0.5391244071925534 -1.6592543125058552 1.5521333651361362
-0.7749645959956457 2.3850957789894527 1.9055773497936763
0.6795581615203843 -2.0914649662643257 1.670611906423267
-1.0498409313749786 3.2310781511454834 1.9961187167852357
0.9114649939239492 -2.8052008065112233 1.7327909237582082
1.089379885403405 -3.352766539035855 1.348576415654572
-0.9241280702851102 2.8441737481579987 1.1438407793392498
-0.9105384345927094 2.802349150111288 0.46069949954347555
1.030998559435953 -3.1730872932273693 0.5217089409091651
-0.46601576244571963 1.4342490401433545 -0.7863603398975062
0.11423811199365295 -0.3515887566008413 -0.25243712088359815
-0.04442220059408226 0.1367174754535027 -0.07566042558696078
-0.3695891923720213 0.8922672407310475 -0.8193871979442842
-0.3695891923720213 0.8922672407310475 -0.8193871979442842
0.1414712899303982 -0.3415419068363782 -0.25243712088359815
-0.4618316826563476 1.114960311802535 -0.8506494577674187
-0.5748176491164994 1.3877325643884633 -0.7832253485092106
0.18357480211139854 -0.4431887769672884 -0.24557432541649699
1.0197479528668683 -2.461889338013354 -0.2089365719232562
-0.9012032332460118 2.1756970681569925 0.3680902962396597
1.3127356510994936 -3.1692242126950227 0.5364137806229465
1.3861836170437747 -3.3465432882064206 1.3856967085939857
-0.9195570739800797 2.2200071593788144 0.9188229211085776
-1.0446066130421583 2.5219034525509874 1.6034781682538641
1.1371633782654622 -2.7453552504424414 1.7457221993086425
-0.9681210152677492 2.3372508850777964 1.9223062810368772
0.8434693577303702 -2.0363151628787515 1.674413936251267
-0.7643368488803244 1.845272386788383 1.777558015755793
0.6695565860187752 -1.6164525907427294 1.556588397757078
-0.6691744793956598 1.6155301037509475 1.6977578810143432
0.6153046228895608 -1.4854767655708168 1.5606537222382708
-0.0367376095070488 0.08869243512108345 1.722
0.036737609507049115 -0.08869243512108332 1.701
-0.04358308797499667 0.08553662632208323 1.722
0.043583087974997006 -0.08553662632208306 1.699
-0.04358308797499667 0.08553662632208323 1.722
0.043583087974997006 -0.08553662632208306 1.699
-0.792958058789443 1.5562678166051234 1.695813141173548
0.7381144194090027 -1.4486311137969219 1.578156380805429
-0.9049451973523278 1.776054951230101 1.7739939896590398
0.7920514518568998 -1.5544885003149356 1.5521333651361362
-1.127646969261993 2.2131317883746195 1.8873276066192755
0.995647536883584 -1.9540683156680199 1.6660494706296667
-1.0060794135078637 1.9745420263229834 1.3013565485755336
1.33907343485631 -2.6280795908918217 1.7327909237582082
-0.9171889067575428 1.800084583935128 0.7722551665127486
1.4330029440242584 -2.812426632361777 1.2073662291118543
-0.9040382710456275 1.774275008132852 0.31114815096501625
1.251502938786755 -2.4562128153334184 -0.2161548087302181
0.3140226393971791 -0.6163041310473502 -0.2116766411468404
-0.6850973867438368 1.3445793285175722 -0.7868828384622223
0.1682707075519405 -0.3302498584102184 -0.25314422766478467
0.16457958345104975 -0.26856947092154565 -0.2557920493062281
-0.07907701184119752 0.12904195518616068 -0.09975889922942899
0.16457958345104975 -0.26856947092154565 -0.2557920493062281
-0.07867378022538735 0.1283839409935972 -0.09890625906507489
-0.6362934232727311 1.0383364962765533 -0.8584276323604709
0.1931584690779778 -0.31520597364810826 -0.25243712088359815
1.5547200947887871 -2.5370726096940825 -0.23333735069461659
-0.9032263895481364 1.4739315076433632 0.2700058866594359
1.627311273601948 -2.655530647311005 0.4869804896702341
-0.9047914704567354 1.4764854875645537 0.661659654559238
1.7119178090354585 -2.7935959649002995 1.253288240995665
-0.9945354949938041 1.622934425415096 1.1173797646079897
1.5557645482741294 -2.5387770028762655 1.7492489108223974
-1.210101712586807 1.9747065212822075 1.7595794043984705
1.1495467161561443 -1.8758897481927408 1.671372312388867
-1.047765969261471 1.709798664655453 1.7846860679493004
0.9126169993317591 -1.489255590061926 1.553915378184513
-0.91522555440193 1.4935123650541626 1.7006749907755363
0.8521052948118346 -1.3905094629500496 1.5830182304074174
-0.0501598622127313 0.08185345577799272 1.722
0.05015986221273155 -0.08185345577799258 1.7
-0.05642738422007763 0.0776656314599948 1.722
0.05642738422007789 -0.07766563145999461 1.7
-0.05642738422007763 0.0776656314599948 1.722
0.05642738422007789 -0.07766563145999461 1.7
-1.0295838490793008 1.417100595481863 1.7006749907755363
0.9673782825067486 -1.3314819782987273 1.5976037792133824
-1.1739884446498419 1.6158564700581064 1.777558015755793
1.0231279903861383 -1.4082148682954678 1.5485693390393829
-1.2027574306502893 1.6554535822594103 1.5542697936864625
1.2884858735465845 -1.7734486611320033 1.6652890646640668
-1.0248886668933472 1.4106382316077983 1.0233341242411942
1.7342969176415235 -2.3870549221706465 1.7333787090105006
-0.9315867783383914 1.2822191990549416 0.60540519000157
1.8576708102805695 -2.556864517457179 1.2088969628413146
-0.894040497638053 1.2305411771180605 0.23746751793106818
1.4470523239020208 -1.991696656594513 -0.19300937549050332
-0.9092929566090394 1.2515343858884544 -0.12114084380379556
-0.9814614543878559 1.3508658014587809 -0.5151313296230406
0.28426694949611847 -0.39125988987394467 -0.2476643196753608
-0.7181427336598026 0.9884386749270921 -0.8612560594852171
0.21786147584276036 -0.29986059651713887 -0.25314422766478467
0.20580433792884578 -0.24096591976806475 -0.2574973296349363
-0.08863240967226887 0.10377521840828428 -0.08270609594234711
0.205185502659277 -0.24024135676119504 -0.2566446894705822
-0.08817199084850744 0.10323613722825317 -0.08185345577799301
0.24008944566065205 -0.2811086232799713 -0.25243712088359815
-0.3058183210873537 0.35806724855439137 -0.03616964313053741
1.5242313252673285 -1.7846455858443722 -0.1839865794818009
-0.8899820042923999 1.042035043573719 0.2138459137099936
-0.924321330669989 1.0822412289635157 0.5434104739584257
1.8513276152125624 -2.1676261350037658 1.0902650988081373
-1.015055512237704 1.1884773060836507 0.9169449935762566
1.426901211812644 -1.670686664736272 1.6690910944920667
-1.184287169584247 1.3866221186603553 1.3846992633576556
-1.3023376709437955 1.5248414969565496 1.7846860679493004
1.133055140758798 -1.326637119939006 1.5521333651361362
-1.1414852685831447 1.3365075314444232 1.7065092102979222
1.0759948956682412 -1.259828156732453 1.6082998483377569
-0.06234701263969782 0.0729989726976028 1.724
0.06234701263969804 -0.07299897269760262 1.699
-0.06788225099390874 0.06788225099390839 1.724
0.06788225099390897 -0.06788225099390816 1.7
-0.06788225099390874 0.06788225099390839 1.723
0.06788225099390897 -0.06788225099390816 1.7
-1.2414155226997958 1.2414155226997894 1.704564470457127
1.177876266846402 -1.1778762668463876 1.6170511776213359
-1.396065901023304 1.396065901023297 1.7570648656994607
1.230118896692518 -1.2301188966925032 1.5476783325151944
-1.1792881327309312 1.1792881327309253 1.2660759327240507
1.5493445388292524 -1.5493445388292337 1.664528658698467
-1.00850012394645 1.0085001239464446 0.8364184140121879
-0.9175107628796537 0.917510762879649 0.4951923614804245
1.8439701732945792 -1.843970173294557 0.9972730247434207
-0.8843712455750717 0.8843712455750672 0.19507377790516603
1.5168495311005727 -1.5168495311005543 -0.16813784214477584
0.3412806762768754 -0.3412806762768713 -0.24714182111064484
0.2620877715575468 -0.26208777155754365 -0.25314422766478467
0.24096591976806708 -0.20580433792884312 -0.2574973296349363
0.24096591976806708 -0.20580433792884312 -0.2574973296349363
0.28110862327997405 -0.2400894456606489 -0.25243712088359815
0.3640248490107012 -0.3109065925687911 -0.24505182685178103
-0.8797818154987311 0.7514046560394447 0.18036893819138447
-0.9108546275427033 0.7779433446492379 0.4569240182439157
1.8385905515910475 -1.5703046785895174 0.924563172594054
-0.9972862664817985 0.8517629380800706 0.7688231099985536
-1.1626734030547548 0.9930168970511403 1.1603795035056463
1.672206025553705 -1.4281988685410314 1.670611906423267
-1.462562746813681 1.2491465933319514 1.711623532965854
1.3243593641609839 -1.1311097535425612 1.5494603455635712
-1.3380260757731532 1.14278222796432 1.7084539501387177
1.269696954818555 -1.0844236455022953 1.6209406573029266
-0.07299897269760316 0.062347012639697406 1.725
0.07299897269760332 -0.062347012639697226 1.699
-0.07766563145999512 0.05642738422007719 1.725
0.07766563145999529 -0.056427384220076954 1.699
-0.07766563145999512 0.05642738422007719 1.725
0.07766563145999529 -0.056427384220076954 1.699
-1.4211396180682974 1.0325183707599073 1.7055368403775246
1.3492504470726103 -0.9802878307284854 1.6189959174621313
-1.4890001188323287 1.0818219105367162 1.6376699914582196
1.4057915177067544 -1.0213673231231455 1.5458963194668176
-1.1514264562007022 0.8365602883003068 1.0797764711520432
1.764558055096124 -1.2820264701617445 1.6569245990424664
-0.9884386749270963 0.7181427336597971 0.7159224372922312
-0.9029731476939226 0.6560483934464965 0.4255439767899784
1.8284106244944713 -1.328418077352057 0.86409919028037
-0.8715426345672597 0.6332127889829452 0.16785418098816612
0.38808874930715787 -0.2819629810120577 -0.24557432541649699
0.29907926000999613 -0.2172938016416325 -0.25243712088359815
0.26451228675189636 -0.16209333779425542 -0.2515288484844577
0.2653232067411188 -0.16259027020276937 -0.2523814886488118
0.3086239405039552 -0.18912499397967247 -0.24678026663410574
0.40817960554075505 -0.25013278397801764 -0.24505182685178103
-0.8625014749888816 0.5285415836450369 0.157529506295511
-0.8905156093421099 0.5457086672557532 0.39799076965969205
1.8171154241235767 -1.1135297640441384 0.8147330275052735
-0.9737509047981182 0.5967153219122547 0.6688996171088334
-1.13100877845051 0.6930830708276497 1.0060170924888403
1.7660104476051681 -1.0822125941557854 1.573279942826463
-1.4645670322730304 0.8974878316606683 1.5280761889830503
1.4849988519370128 -0.9100084668538824 1.5494603455635712
-1.5011746519447144 0.919921009847403 1.7094263200591153
1.4237061112245675 -0.8724482270380399 1.6209406573029266
-0.08185345577799301 0.05015986221273085 1.726
0.08185345577799318 -0.05015986221273056 1.7
-0.08553662632208345 0.043583087974996236 1.726
0.08553662632208361 -0.0435830879749959 1.699
-0.08553662632208345 0.043583087974996236 1.726
0.08553662632208361 -0.0435830879749959 1.7
1.4842106827001347 -0.7562431152472062 1.6170511776213359
-1.5651644900979214 0.7974911403498558 1.7055368403775246
-1.4601941489926835 0.7440060801146264 1.4576866735721692
1.5473712972210432 -0.7884250557513159 1.5450053129426293
-1.1241451883306979 0.5727805823811939 0.9565907047248383
1.83835548637066 -0.9366889055235438 1.5671966951016627
-0.9678562213960258 0.49314737625278576 0.6359836429804548
-0.8862339856541795 0.4515587698976816 0.3788565980414377
-0.8560861905276552 0.4361977010345735 0.1495513485784593
2.1125268635186827 -1.0763861997033943 0.3705932476803034
1.4895478683221683 -0.7589625471503081 -0.1309482307697764
0.42829248011081433 -0.21822591844354267 -0.24609682398121294
0.3276687849836233 -0.16695558495407115 -0.25102290732122506
0.29188891515240734 -0.12090434736249453 -0.2566446894705822
-0.5404063515767893 0.22384364001566726 -0.4919733748323122
0.29188891515240734 -0.12090434736249453 -0.2566446894705822
-0.5404063515767893 0.22384364001566726 -0.4919733748323122
0.3415419068363799 -0.1414712899303941 -0.25243712088359815
0.44318877696729064 -0.1835748021113932 -0.24557432541649699
1.4836323070413067 -0.614540623151382 -0.12576993045173854
-0.8499897561071916 0.3520772848577951 0.1431375355118099
2.1046194755151424 -0.8717619303929063 0.3560448424315621
-0.8757213295788722 0.3627356515709648 0.36087047672027855
1.8037469655632543 -0.7471364562256024 0.7462326931119226
-0.9548003318479117 0.39549124680973347 0.6048310246089539
2.016009295986306 -0.8350583922677481 1.2813718499975892
-1.1066719430795844 0.45839852792134583 0.9079247229264363
1.9135632766953856 -0.7926238616663139 1.573279942826463
-1.4301467163296997 0.592386166087104 1.3766050798710279
1.6736497845277516 -0.6932484394141903 1.611830802256757
-1.628445065315204 0.6745240316330924 1.7113710598999108
1.5398918523870022 -0.6378440898465129 1.6180235475417337
-0.08869243512108364 0.03673760950704835 1.727
0.08869243512108377 -0.03673760950704805 1.698
-0.09130142556433483 0.02966563145999468 1.728
0.09130142556433495 -0.02966563145999433 1.699
-0.09130142556433483 0.02966563145999468 1.728
0.09130142556433495 -0.02966563145999433 1.699
-1.672549091564597 0.5434441427657868 1.70748158021832
1.5823411256360154 -0.5141337978784772 1.6151064377805406
1.7485251000329847 -0.5681302443583163 1.6358879784098428
-1.4209615071303339 0.4616983812554361 1.3284907275648559
-1.0984669826137443 0.3569135583127313 0.875227266405635
1.9622527076020992 -0.6375745536862572 1.5671966951016627
-0.9459623292729603 0.30736179267513963 0.5819073997695475
2.0097552490303583 -0.6530090650174177 1.2408146675894087
-0.8683724108556505 0.2821512999522516 0.34747655658750043
1.795064944571381 -0.5832519565084584 0.721358270008192
-0.8409496418249478 0.2732411021689306 0.13750589477036165
-0.8645893628466867 0.2809221131423446 -0.07092702253797357
1.4731653612455815 -0.4786604416767429 -0.12129776199525125
0.45622568684675535 -0.14823671158389334 -0.24557432541649699
0.3378326244978657 -0.10976847372940948 -0.2418305191657999
0.2951907529625552 -0.07086902966317334 -0.24556036733397907
0.2951907529625552 -0.07086902966317334 -0.24556036733397907
0.3585290218214265 -0.08607520265309349 -0.2517300141024116
-0.85979552452381 0.20641864259031065 -0.0689655451447774
-0.8337016001128208 0.20015404559819008 0.13328216421427544
-0.856895716710177 0.20572246032884278 0.33523068675181755
1.7847968421749953 -0.4284918110794705 0.7014587315252073
1.9965141436744516 -0.4793206380992493 1.2055475524518604
-1.0785160539658243 0.2589287958840946 0.8402485919880337
2.083935746757808 -0.5003087080842954 1.6280291723496654
1.791594151087109 -0.4301237005681749 1.6394520045065961
-1.7129440845360655 0.4112414901890377 1.710398689979513
1.6197432725929184 -0.388865954912463 1.6170511776213359
-0.09334751235817704 0.022410754930166598 1.728
0.0933475123581771 -0.02241075493016632 1.699
-0.09481808069713327 0.015017708643861838 1.729
0.09481808069713332 -0.015017708643861514 1.699
-0.09481808069713327 0.015017708643861838 1.729
0.09481808069713332 -0.015017708643861514 1.699
-1.7340119911548815 0.2746405187350946 1.704564470457127
1.6442741700597527 -0.2604274441649938 1.6160788077009383
1.8158730053898948 -0.28760602965909937 1.6358879784098428
-1.0709092532658508 0.16961536271687513 0.8212384428480328
2.160180980075909 -0.3421390555290159 1.6614870348360666
2.7158232659621944 -0.43014414799975736 1.6152338732997136
-0.8507615072328505 0.13474738517273097 0.3275770181045158
2.3220166379167173 -0.36777130562068444 0.8989233826255929
-0.8262277155250467 0.1308616143040518 0.12999704044843063
2.1947172792598173 -0.34760906794613977 0.34728451238930924
-0.8497799793707904 0.13459192643163567 -0.06708252684730907
2.197677581456039 -0.3480779337526798 -0.1744145698030036
0.3508449167553401 -0.0555683757810006 -0.2418305191657999
-0.6401691141120626 0.101392826851691 -0.45325544674057816
0.30927100865358925 -0.024340156252406816 -0.2515288484844577
0.3054815641874824 -0.024041920505007128 -0.24811828782704134
0.3608468950398171 -0.028399266541995215 -0.24678026663410574
0.47822530787505974 -0.03763714797649276 -0.24557432541649699
-0.9112375226861043 0.07171594835803023 -0.07131931801661281
1.5491777812070076 -0.1219229355557568 -0.1216900574738905
-0.8854652083332264 0.06968762322963822 0.13813163263052256
-0.9122289325037217 0.0717939740028394 0.3482419234522306
1.886602774458209 -0.14847885844990955 0.7232716871700173
-0.9925697680684565 0.07811693488949976 0.58249518502184
2.1116469428475346 -0.16619021861307487 1.2437535938508713
-1.15044260312803 0.0905417964699291 0.874466860440035
2.064841067046241 -0.16250651629809224 1.573279942826463
1.8358272626068037 -0.14448273900231062 1.6385609979824078
-1.757182679685642 0.13829327609391073 1.7113710598999108
1.660633582726527 -0.13069469737084818 1.6170511776213359
