0.096 0.0 2.038
0.0678822509939085 0.06788225099390863 2.006
0.096 0.0 2.038
0.0678822509939085 0.06788225099390863 2.006
0.096 0.0 2.038
0.0678822509939085 0.06788225099390863 2.0069999999999997
0.096 2.1599999999999997 2.054282075197531
1.4510701223579774 1.45107012235798 1.9506169149213595
0.096 2.614 2.1147704232961115
1.7592295188519305 1.7592295188519336 2.0120252650104935
0.096 1.857 1.091517213507121
2.521999603489261 2.5219996034892653 2.096042209674956
0.096 1.6769999999999998 0.5182214995667844
5.058869636588786 5.058869636588795 2.2107075777583636
0.096 1.676 -2.8745486610662717e-15
4.862303157969478 4.862303157969486 -1.1793196058169264e-14
1.3641466196857275 1.3641466196857297 -0.5957847651549025
0.096 1.527 -0.47186895041054777
0.096 0.121 -0.0711220155273895
0.7842375277937157 0.784237527793717 -0.6506782742877701
0.1368277010183663 0.021671378846686958 -0.08171071643186988
0.07476676857369104 0.10290762851688089 -0.09222793735874421
0.07476676857369104 0.10290762851688089 -0.09222793735874421
0.1368277010183663 0.021671378846686958 -0.08171071643186988
0.9685222052373368 0.15339884741840146 -0.5736784062374558
0.6491749639793912 0.8935126836437614 -0.6483271332786001
1.1284474273093965 1.5531746371508657 -0.5930036122055279
1.5051901956436589 0.23839870671900049 -0.4700148484442981
1.685624488079727 0.2669766911418409 -2.9225721470506724e-15
3.5856434404115625 4.935214804638544 -1.0462259446601586e-14
1.6787213924806945 0.2658833482088814 0.5244018394542833
7.0000131457096755 9.634691536815366 3.6800833860112316
1.8493499457703695 0.2929082561250519 1.099158421786923
2.08748893684942 2.873182031863139 2.0872254308905687
2.581541190928359 0.40887595669992555 2.113152389307362
1.463373406382607 2.01416069944334 2.013643298999243
2.1433552639793625 0.3394741239020205 2.0618905273278925
1.2083539695706984 1.6631565572466878 1.95442114098654
0.09481808069713321 0.015017708643862182 2.0389999999999997
0.056427384220077335 0.07766563145999501 2.0069999999999997
0.09130142556433472 0.029665631459994988 2.038
0.04358308797499638 0.08553662632208338 2.0069999999999997
0.09130142556433472 0.029665631459994988 2.038
0.04358308797499638 0.08553662632208338 2.0069999999999997
2.056116432103366 0.6680727265385137 2.054282075197531
0.931344717567307 1.82786692694433 1.9506169149213595
2.498983468420463 0.8119689494502325 2.1244786272286107
1.1151762130685376 2.188656551257769 1.9869457381848699
1.8698922284599324 0.6075648148594743 1.1544102355024155
1.4429174764943344 2.831884997944771 1.8679815317854769
1.6827587079146489 0.5467614482089064 0.5460330290605295
1.2913005807273383 2.5343200855003842 0.8788443320023464
1.6894072691871442 0.5489216967179514 -3.042630862011674e-15
1.252716058191974 2.458593696222578 -4.732028493962914e-15
0.8764250423440649 1.7200809953922638 -0.5964027991436525
1.452958193362499 0.4720947348264562 -0.4712509164217979
0.9341776294214409 0.30353271157919154 -0.5748539767420408
0.501595916002975 0.984437414265921 -0.6489149185308926
0.11860938304986335 0.060434499212738586 -0.08251973342624483
0.09192725807867005 0.2829230088063851 -0.239469030334985
0.11860938304986335 0.060434499212738586 -0.08251973342624483
0.09223473987077883 0.2838693404559394 -0.24027804732935995
0.8649675073408836 0.44072295797593997 -0.5683883389668235
0.3403511899028506 1.0474932540220172 -0.6471515627740152
1.0799195778126722 0.5502465083028363 -0.37360154619931385
0.5145949559137685 1.583760424129239 -0.5145132956342908
0.9946145491915904 0.5067814252505445 -1.9089335678799286e-15
0.5868948715072164 1.8062766840903548 -3.2570214244420343e-15
1.0097177928466805 0.5144769122627282 0.34918920364368894
0.6051247169435395 1.8623823792749763 0.6050552749861443
1.1403649657929118 0.5810449717833331 0.7506017671774871
0.42036308219143975 1.2937445376968486 0.7993879431177622
1.4712451018693364 0.7496368218464514 1.3340690237242874
0.7271747734642571 2.2380138289400997 1.9036169877642501
1.9323147200097257 0.9845635262776582 2.060939470811597
0.6347871031670764 1.9536738170284902 1.953470084470245
0.08553662632208328 0.043583087974996534 2.038
0.029665631459994818 0.09130142556433479 2.006
0.07766563145999492 0.056427384220077474 2.038
0.015017708643862022 0.09481808069713325 2.0069999999999997
0.07766563145999492 0.056427384220077474 2.038
0.015017708643862022 0.09481808069713325 2.0069999999999997
1.7065649150790116 1.2398919876067611 2.0048271363501833
0.31960424654473024 2.017901795718386 1.9430084627909983
1.0988249627748112 0.798343066289809 1.097027044372428
0.3455717189015965 2.1818539636438343 1.787118540574258
0.855822576714734 0.6217914984103857 0.6201134411685582
0.2651668253873186 1.6741974454307718 0.9962960026357404
0.763067278060992 0.5544008292406035 0.2904759747124493
0.2368534313401178 1.4954337108796645 0.46785172948366827
0.7541986678944307 0.547957406790296 -1.5933506599824382e-15
0.2304399425623675 1.4549405363947918 -2.5263783876793662e-15
0.8203260585805603 0.5960017683897949 -0.31241618131307386
0.2474904741728351 1.5625933561763974 -0.48886488510117
0.12043475529803083 0.08750097157393848 -0.07464872704114436
0.1739709881204165 1.0984095897548043 -0.6536172005492324
0.5515147323508226 0.5515147323508235 -0.6286062046293356
-5.111071008339792e-16 0.29800000000000004 -0.24108706432373492
0.5508103121765237 0.5508103121765247 -0.6277971876349606
-5.111071008339792e-16 0.29800000000000004 -0.24108706432373492
0.10058081327967068 0.10058081327967085 -0.0734731565365594
-1.824892467407227e-15 1.0639999999999998 -0.6254035084391936
0.603659258191241 0.603659258191242 -0.262973462213082
-2.2485282187696194e-15 1.311 -0.4051212796255587
0.5515147323508226 0.5515147323508235 -1.3326517360671201e-15
-2.087306515821988e-15 1.2169999999999999 -2.087306515821988e-15
0.5536280339722687 0.5536280339722696 0.2410332556124579
-2.1439056243036036e-15 1.25 0.38627124296868254
0.6156427535511153 0.6156427535511164 0.5101975989898659
-2.4629187811999797e-15 1.436 0.8440596222919902
0.775768328819886 0.7757683288198873 0.885873608840567
-3.1832710709659905e-15 1.8559999999999999 1.5015355415599014
1.2510859283038864 1.2510859283038884 1.681467920809831
-3.3839406374008076e-15 1.9729999999999999 1.8764345066503376
0.0678822509939085 0.06788225099390863 2.038
-1.6465195194651677e-16 0.096 2.008
0.056427384220077335 0.07766563145999501 2.0389999999999997
-0.015017708643862348 0.0948180806971332 2.008
0.056427384220077335 0.07766563145999501 2.0389999999999997
-0.015017708643862348 0.0948180806971332 2.008
0.882888873777738 1.2151922836528373 1.4275358309590251
-0.30286623598634127 1.9122221562026673 1.841245415547417
0.5546862031943232 0.7634600616114678 0.7620940087012001
-0.18538972693531777 1.1705046692430405 0.958685138334312
0.4403265039778036 0.6060574391793285 0.43907558346247677
-0.13455415052864225 0.8495414717060181 0.5054953169715262
0.39638175654095353 0.5455726833075759 0.20765942021996373
-0.11828778720476078 0.7468396956316082 0.2336168477474592
0.39579603564236787 0.5447665076523205 -1.1508485391261745e-15
-0.10780894635583986 0.6806788983496959 -1.1817207801161464e-15
0.4344655753953089 0.59799056304121 -0.22774552485433774
-0.11625454730168874 0.7340023241138895 -0.22959962682058743
-0.16912197456641195 1.0677941230835042 -0.6353958577281658
-0.09254223189011535 0.28481570358166064 -0.24108706432373492
0.351945278528826 0.6907315010036124 -0.6261791536462107
-0.09254223189011535 0.28481570358166064 -0.24108706432373492
0.351945278528826 0.6907315010036124 -0.6261791536462107
0.3913862829386862 0.7681388306060792 -0.5060831022238211
-0.24645709419183495 0.7585169414142556 -0.4684648460771028
0.3025513698240291 0.5937904968716154 -0.2054963012593414
-0.20446584107814328 0.6292811530008886 -0.2042602332818416
0.2744703883472842 0.5386784676204602 -1.0342200731640584e-15
-0.1896491070050182 0.5836799344693283 -1.0513713181584872e-15
0.27265918254483956 0.5351237760849504 0.18510117963059264
-0.19520509603690922 0.6007795104455055 0.19498972345059093
0.30209835266440094 0.5929014006349551 0.3902894075222016
-0.3394244761714078 1.0446411224270684 0.6453882070171344
0.3777846108244013 0.7414440460221472 0.6722931223255809
-0.34220462284654957 1.0531975340800845 0.8955818127730664
0.5882505559853065 1.154506721046012 1.2316181886022237
-0.5986361128293685 1.8424125092135213 1.842196472063712
0.04358308797499638 0.08553662632208338 2.0389999999999997
-0.029665631459995147 0.09130142556433468 2.008
0.029665631459994818 0.09130142556433479 2.04
-0.04358308797499667 0.08553662632208323 2.009
0.029665631459994818 0.09130142556433479 2.04
-0.04358308797499667 0.08553662632208323 2.009
0.3647552683424881 1.1226012844756235 1.122246689228281
-0.8777866672508744 1.722753334738911 1.8383922459985313
0.23595811062200278 0.7262043925243189 0.6172799667080846
0.18810584297976915 0.5789302561853117 0.3573734333938231
-0.30481649906603075 0.5982360633182897 0.3938161190359564
0.16958926124036516 0.5219420774011878 0.16934131291747043
-0.26450956354235505 0.5191292482148054 0.17953887373184363
0.17051496419031884 0.5247910981305748 -9.450335991930285e-16
-0.25590872468007997 0.5022491515075475 -9.638999686869003e-16
0.18872314501401488 0.5808301164935745 -0.18850036656871916
-0.2744703883472861 0.5386784676204592 -0.1863372476080945
0.23688446443721536 0.7290554164109982 -0.45024350325603607
-0.32973729901514276 0.6471458871040089 -0.42614430791204455
0.04245878405955181 0.2680742121672584 -0.21924360547561125
-0.4884014619109831 0.6722269421059639 -0.670675088336833
0.042614979756436785 0.26906039298505163 -0.2200526224699862
-0.4884014619109831 0.6722269421059639 -0.670675088336833
0.11390851936684233 0.7191900866867992 -0.42790766366892197
-0.3969674835421362 0.5463788673623314 -0.39557947479283584
0.09029325386548614 0.5700891683581569 -0.17830280575434584
-0.33082653671434725 0.45534366394571796 -0.17304951684997172
-0.3080269811677801 0.42396276789664483 -8.93579864209742e-16
0.08106710067124244 0.511837529653376 -8.884344907114134e-16
0.08059799552867736 0.5088757163489639 0.1591437521030972
-0.3179630554836047 0.4376386009454038 0.16625114297372096
0.08904220776864259 0.5621903741692825 0.33444980855441675
-0.3659330482390684 0.5036636316991568 0.36442685642133277
0.11078051434410614 0.6994406402365873 0.5727840320174624
0.16896555520903592 1.0668065301289704 1.0271410375987655
0.015017708643862022 0.09481808069713325 2.04
-0.05642738422007763 0.0776656314599948 2.008
-1.6465195194651677e-16 0.096 2.0389999999999997
-0.06788225099390874 0.06788225099390839 2.008
-1.6465195194651677e-16 0.096 2.0389999999999997
-0.06788225099390874 0.06788225099390839 2.008
-1.780299230421712e-15 1.0379999999999998 0.9871966639143691
-1.1697149086200461e-15 0.682 0.5517495901637139
-9.38173101195257e-16 0.547 0.32151853300398237
-0.4213502106324392 0.421350210632437 0.34796886935714355
-8.507017517236699e-16 0.496 0.15327242920997322
-0.3652067907364274 0.36520679073642554 0.15821670111997235
-8.558471252219986e-16 0.499 -8.558471252219986e-16
-0.35259325007719683 0.352593250077195 -8.472715027247841e-16
-9.53609221690243e-16 0.556 -0.1718134488724719
-0.3771266365559462 0.37712663655594425 -0.16346999002434826
-0.45438364847340296 0.4543836484734006 -0.3755947762148917
-0.1183709651279168 0.08600154024647054 -0.1003181073024937
-0.11905737272892501 0.08650024456014914 -0.10112712429686865
-0.014891321682103604 0.09402010482589375 -0.055251813715492676
-0.4974842455153931 0.361443461379591 -0.3585490038984099
-0.08607102335159074 0.5434310540557302 -0.16995934690622222
-0.41415661327383463 0.3009023927981085 -0.1563625991537244
-0.07700160303654068 0.486168987804359 -8.438412537258984e-16
-0.3869909349971581 0.28116537222799176 -8.095387637370408e-16
-0.07637615885952559 0.4822200886843853 0.15080029325497366
-0.40056795814009694 0.29102965694504973 0.1511093102493486
-0.08388177810267154 0.5296087035493716 0.3150528952287651
-0.4605914650250344 0.3346392873769791 0.3315108822929544
-0.10389904834115721 0.6559927738372686 0.5371872842649649
-0.15692135514214403 0.9907624437135598 0.9539096858440388
-1.5610497994432762 1.1341690676297722 1.8336369634170557
-0.015017708643862348 0.0948180806971332 2.038
-0.07766563145999512 0.05642738422007719 2.008
-0.029665631459995147 0.09130142556433468 2.036
-0.08553662632208345 0.043583087974996236 2.0069999999999997
-0.029665631459995147 0.09130142556433468 2.036
-0.08553662632208345 0.043583087974996236 2.0069999999999997
-0.3134773014003881 0.9647839297980924 0.9643713075232856
-1.718660245196831 0.8757011339621139 1.8326859069007604
-0.20755294983510933 0.6387822967996726 0.5428504032255895
-0.1680464560180045 0.5171938111672539 0.3191673919948125
-0.5338352507625762 0.2720026461007707 0.348556654609436
-0.15292940086130644 0.47066829938091437 0.15265439522122332
-0.4616389967246874 0.23521681731030172 0.15790768412559741
-0.15416326388267168 0.4744657392888995 -8.541320007225556e-16
-0.4458288188949443 0.2271611293450151 -8.455563782253413e-16
-0.17267499398917036 0.5314389862823016 -0.1724314828612218
-0.4757052995626732 0.24238395658655115 -0.16285195603559838
-0.2304001055033684 0.7090986116711533 -0.43790001295789405
-0.5708991864093529 0.29088766457122706 -0.3732436352057218
-0.7979199522241134 0.2592599084948314 -0.6747201733087076
-0.04952344614880918 0.09719523568047098 -0.08090169943749492
-0.04952344614880918 0.09719523568047098 -0.08090169943749492
-0.7988653671546523 0.25956709242687614 -0.6755291903030826
-0.6327327971226667 0.20558734823769192 -0.38735048126074123
-0.2658677386916022 0.5217948170310339 -0.18046592471497047
-0.5274248959070544 0.1713707369637906 -0.16903229592309738
-0.23690278991597893 0.46494790427257743 -8.918647397102991e-16
-0.4936862375858684 0.16040838235076513 -8.764286192153131e-16
-0.23418847478598448 0.4596207608831988 0.15883473510872226
-0.5133590856268037 0.16680047816026186 0.1643970410074713
-0.25636135856047115 0.5031374955163508 0.3309230970406619
-0.5922508878814539 0.19243397858410907 0.3620757154121629
-0.31478389325539796 0.6177981758668527 0.5598397601074634
-0.4693894006453029 0.9212285688792327 0.9824413813328934
-1.8375918042539336 0.5970697708382603 1.835539076449646
-0.04358308797499667 0.08553662632208323 2.036
-0.09130142556433483 0.02966563145999468 2.0069999999999997
-0.05642738422007763 0.0776656314599948 2.037
-0.09481808069713327 0.015017708643861838 2.0069999999999997
-0.05642738422007763 0.0776656314599948 2.037
-0.09481808069713327 0.015017708643861838 2.006
-0.6509360230059377 0.8959365734487756 1.0518685070224396
-1.8740108909019213 0.2968141661175799 1.8022520983793155
-0.43739598291122583 0.6020239229657264 0.6002906098262106
-0.35773870302116056 0.4923850830911291 0.35619786288923816
-0.6605224159468285 0.10461647317154668 0.38911383701761665
-0.32614828680431407 0.44890460535010246 0.1705773808949702
-0.5736415897352145 0.09085590213708719 0.1770667377768441
-0.33199620528963986 0.45695357462569397 -9.638999686869003e-16
-0.5531887728210033 0.08761649417706972 -9.467487236924714e-16
-0.373543447115392 0.5141384471201027 -0.195607757439343
-0.5902133873996588 0.09348061703534162 -0.18232002668122016
-0.4884014619109831 0.6722269421059639 -0.48727397415046203
-0.7065054680174035 0.11189947313815857 -0.41673974387536494
-0.8365267479286003 -2.8694950396232462e-15 -0.6722931223255828
-0.5663091028758073 0.5663091028758044 -0.6455955615112096
-0.5663091028758073 0.5663091028758044 -0.6455955615112096
-0.8365267479286003 -2.8694950396232462e-15 -0.6722931223255828
-0.8057394119689071 -2.7638868112691492e-15 -0.47022820183398023
-0.6508963051055078 0.6508963051055043 -0.5395868616044923
-0.6709038679274402 -2.3013673213066896e-15 -0.20518728426496644
-0.5113746180639017 0.5113746180638991 -0.2224922359499636
-0.45086805165147936 0.45086805165147703 -1.0873889326467878e-15
-0.6254118642942424 -2.1453184213866055e-15 -1.0599469406557015e-15
-0.4417289893135847 0.4417289893135824 0.19189955350684146
-0.6451821448242349 -2.2131354063823028e-15 0.19715284241121556
-0.48040815979748014 0.48040815979747764 0.39734283054971126
-0.7402513086783434 -2.5392463105177656e-15 0.43143437518267463
-0.5846297973931895 0.5846297973931865 0.6666300033649564
-0.971753569584388 -3.3333567092305163e-15 0.7823194335605738
-0.8583565692647804 0.858356569264776 1.1526804977497258
-1.6727570056646004 -5.737973044060147e-15 1.5882643822129061
-0.06788225099390874 0.06788225099390839 2.04
-0.096 -3.2930390389303353e-16 2.0069999999999997
-0.07766563145999512 0.05642738422007719 2.041
-0.09481808069713317 -0.015017708643862532 2.0069999999999997
-0.07766563145999512 0.05642738422007719 2.041
-0.09481808069713317 -0.015017708643862532 2.0069999999999997
-1.1634463102132673 0.8452932234208512 1.3657171573998403
-1.9213621566607333 -0.30431386984346187 1.847902811161483
-0.7888707870997207 0.5731481759290062 0.7863645185324485
-1.071790433281524 -0.1697549279204907 0.8745473709193177
-0.793719568176328 -0.12571282958024352 0.4690526313293929
-0.6534774115839811 0.47477913060662225 0.47257934284314773
-0.6810606857098803 -0.10786941553320702 0.21105860715808814
-0.6035700282304329 0.43851929413880303 0.22929060982620994
-0.6527016933228046 -0.10337779239581212 -1.1216914226356455e-15
-0.6188599018616964 0.4496280375797436 -1.3052097440760339e-15
-0.68986652318705 -0.1092641231736174 -0.21383976010746503
-0.7034205976862571 0.5110649792940118 -0.2676087171287062
-0.818244483982292 -0.12959719464417757 -0.48374726263670714
-0.7920966159184228 0.5754918777538587 -0.5736784062374558
-0.7960291626848227 -0.25864555373209075 -0.6731021393199578
-0.7960291626848227 -0.25864555373209075 -0.6731021393199578
-0.8711804680242512 0.4438886195608201 -0.5725028357328709
-0.9688533534926421 0.4936554404325195 -0.33497442190244514
-0.8376383768818934 -0.27216520696949303 -0.2706988870724557
-0.836569965966828 0.42625368794278384 -1.6036414069790955e-15
-0.7979199522241116 -0.2592599084948369 -1.4304138325353642e-15
-0.829471809887874 0.4226369967760732 0.28645875378557495
-0.8366924500954682 -0.27185785672538926 0.27038987007807774
-0.9120166747968977 0.46469570617230016 0.5995409573383216
-0.9730088825574408 -0.31614975055248745 0.5989531720860292
-1.093251757800696 0.5570395933039698 0.9902368011149352
-1.3238682623999374 -0.4301508736713789 1.1237246051868015
-1.5611228953666334 0.7954318449777221 1.6643489035165184
-1.9506484350051339 -0.6338040969590706 1.9487148018887692
-0.08553662632208345 0.043583087974996236 2.042
-0.09130142556433464 -0.029665631459995307 2.0069999999999997
-0.09130142556433483 0.02966563145999468 2.0429999999999997
-0.08553662632208316 -0.043583087974996826 2.0069999999999997
-0.09130142556433483 0.02966563145999468 2.0429999999999997
-0.08553662632208316 -0.043583087974996826 2.0069999999999997
-2.035212047160056 0.6612804801327901 2.033358831839038
-1.8308233974307364 -0.9328511145208221 1.95251902795395
-1.5232163890941544 0.49492300644145204 1.2936181740055404
-2.079224485185887 -1.0594177904141717 1.8866276308823764
-2.119293343720976 -1.0798338935699916 1.3971655446992064
-1.2916037130003282 0.4196674860813563 0.7964490168562999
-1.234675382593913 0.4011703502586575 0.40017700771555503
-1.8423965048360453 -0.9387479072735595 0.6384291103786384
-1.303939740834742 0.4236757044980346 -2.3462903152378637e-15
-1.7872028468392545 -0.9106253338735026 -3.437109496883537e-15
-1.4567556375249981 0.4733285992301914 -0.4724869843992977
-1.7284517301390334 -0.8806901447285226 -0.598874935098652
-0.9332306945227764 0.30322503377956156 -0.5742661914897483
-0.9892843128662858 -0.5040655341909863 -0.6506782742877701
-0.6768339599469547 -0.49174865629974407 -0.6739111563143326
-0.2835740235127758 0.04491371300464689 -0.21924360547561125
-0.6768339599469547 -0.49174865629974407 -0.6739111563143326
-0.2835740235127758 0.04491371300464689 -0.21924360547561125
-0.9665561038196486 0.15308744754573606 -0.5725028357328709
-0.8969762086020849 -0.6516913621584286 -0.6500904890354775
-1.5570080010162188 -1.1312325291829073 -0.5942396801830278
-1.5002613533854117 0.23761805479647455 -0.46846976347242336
-1.5497328070655105 -1.1259467913782304 -3.2827482919336778e-15
-3.1017678069293897 0.49127175811716484 -5.383775803751209e-15
-1.598235125230027 -1.1611857882315988 0.6099995468961434
-2.751318666237279 0.43576606710643145 0.8603033123398496
-2.7394733039689334 0.4338899460331182 1.629340719354733
-1.8367345980900824 -1.334465798171291 1.3336847374516194
-2.7266408958300468 0.4318574922520247 2.2320778874804788
-2.0097716290287804 -1.4601845600680354 2.0087891970329936
-2.1532227580366925 0.34103698142568845 2.071401092490844
-1.663716835602643 -1.2087610356238345 1.95442114098654
