0.02445132285988361 0.008911637887262652 -0.07140529056427147
-0.026381690454084946 -0.009615188246783386 -0.07704255034566133
-0.4605762446351003 -0.16786366673017086 -0.674720173308706
0.04638897427979428 0.016907131900880522 -0.06795742752749558
-0.4766358365607288 -0.17371681703531103 -0.3967073818133139
0.4647939524225741 0.16940087127045864 -0.3868512977931073
0.42650595084607296 0.15544625591357222 -0.18179696206300971
-0.47360476750392155 -0.17261210012488692 -0.2018727002049372
0.4000303235205186 0.14579683101678856 -0.043623667080281335
-0.471998395742668 -0.17202663472775281 -0.05147185017650017
0.3810634899350354 0.1388840944850931 0.07242806733295404
-0.46615533720208213 -0.16989704762254104 0.08860132508691465
0.36196265358212587 0.13192251870874663 0.18873390386818764
-0.46658589144735585 -0.17005396933784822 0.24328636093032116
0.33963049081081903 0.1237832393332404 0.32634006706466784
-0.4665560541117822 -0.17004309468981071 0.4482987779594719
0.30974724134895354 0.11289185731579525 0.5286218639334768
-0.45989758948279624 -0.16761632105475216 0.7848719488578909
-0.4512205874002399 -0.16445386228105396 1.6776113699802548
0.2448744391220786 0.08924802726656626 0.9104286345967342
0.0 0.0 1.921
-0.0 -0.0 1.891
0.0 0.0 1.921
-0.0 -0.0 1.891
0.0 0.0 1.921
-0.0 -0.0 1.891
-0.4503203925259625 -0.19908456292202684 1.7199121724324788
0.24441649029776946 0.10805539999848417 0.9335017995706746
0.3078182143754619 0.13608500899688777 0.5396524967282363
-0.45640342162902614 -0.20177384195607717 0.8001451327275579
0.3374052987365714 0.1491653221604295 0.3330410951358109
-0.4636777042999564 -0.20498976868324606 0.4576802172590722
0.35892665086292863 0.15867981240488327 0.19225341722703496
-0.4624157996243223 -0.20443188646212634 0.24768575262888026
0.3772523431503457 0.1667815162136302 0.07365864129249451
-0.4618865203726191 -0.2041978945527261 0.09018349160632384
0.3948723026691358 0.17457121882919602 -0.04423521381505163
-0.4676598238984697 -0.2067502453414901 -0.05238917027865562
0.4211295447215042 0.18617942410769062 -0.1843993725628892
-0.4695254803044192 -0.20757504341038885 -0.20559042949047932
-0.47119033280099487 -0.20831106699961882 -0.40286743432594296
0.4611036895911876 0.20385180868464242 -0.3942433608082622
0.046232963614682814 0.020439379398720984 -0.06957546151624547
-0.44835222854238926 -0.1982144467271313 -0.674720173308706
-0.026026006170386508 -0.013780060933158603 -0.08080072353325457
0.021789214468230567 0.011536795199853707 -0.06764711737667824
-0.026026006170386508 -0.013780060933158603 -0.08080072353325457
0.021789214468230567 0.011536795199853707 -0.06764711737667824
-0.4327138484062996 -0.2291101891939577 -0.6739111563143311
0.043115545519475246 0.022828506246216664 -0.06714841053312064
-0.46783252003010906 -0.24770456866576182 -0.41395552884867537
0.46295926461312886 0.24512431274216 -0.40964349208983497
0.42087575678093025 0.22284224232335703 -0.19071951234831083
-0.46681930917806874 -0.2471681011344838 -0.21153879634734668
0.39386507057915726 0.20854082015085432 -0.04566215619618233
-0.46419811889686385 -0.24578025232064984 -0.05381611265978632
0.3749710198425497 0.19853693523973445 0.07576819665170677
-0.459361249366279 -0.24321926173220382 0.09282043580533916
0.35555336603543786 0.18825581677348893 0.19709274809545002
-0.45872733385822106 -0.24288362074793893 0.254284840176719
0.3319315528054562 0.17574871047643373 0.3390720203998397
-0.4591938477545836 -0.2431306271413116 0.46907196498001535
0.3011796173173256 0.159466398773873 0.5464405784480884
-0.45036641533631133 -0.23845674226590025 0.8171153370271881
-0.44437777679567003 -0.23528592137788407 1.756444683641218
0.2378771021927561 0.12594944231394117 0.9402314726880739
0.0 0.0 1.922
-0.0 -0.0 1.891
0.0 0.0 1.923
-0.0 -0.0 1.891
0.0 0.0 1.923
-0.0 -0.0 1.892
-0.4411291019314619 -0.275113078592485 1.8160503598238975
0.2372616027328561 0.1479697659343382 0.9767639838968131
0.30039022409192595 0.18734034768319638 0.5676533338226261
-0.4499118154560685 -0.28059047590218644 0.8502072354114667
0.3300268506532782 0.20582342562271583 0.3511338709278973
-0.45725094193564886 -0.28516757061467873 0.4864946379649874
0.3535613051147327 0.22050084362016042 0.20413177481314468
-0.4556673716780392 -0.28417996656218947 0.2630836235738373
0.37254201551986227 0.23233828905407994 0.07840514085072209
-0.4552363194132847 -0.2839111379696716 0.09580897256422319
0.3908142691535548 0.24373390074230838 -0.04719102303310808
-0.46002975526714346 -0.2869005959061729 -0.05554882840830217
0.4166891426780437 0.2598709365496157 -0.19666787920517823
-0.4631629790069749 -0.28885465159012097 -0.21860248198987672
-0.4632061705200827 -0.2888815882626011 -0.4268916391251964
0.4578589131403416 0.28554673587284535 -0.4219635971150932
0.038901859681280224 0.024261401782448497 -0.0631033255612459
-0.4154519117244414 -0.25909932929204604 -0.6739111563143311
-0.02271660708788402 -0.01650458114133575 -0.07704255034566133
0.020777384531601235 0.015095653482929043 -0.07046574726737317
-0.022993638881638703 -0.016705856521108137 -0.07798209364255965
0.02105441632535592 0.01529692886270143 -0.07140529056427147
-0.3951639825206364 -0.28710343883720935 -0.6722931223255812
0.3770939087110285 0.2739747617303334 -0.6415504765393333
-0.4588536254972035 -0.33337667305316326 -0.443523780909295
0.06181778010170658 0.0449132462307734 -0.05975250937250225
0.41456836599447433 0.30120154866067705 -0.20521865656192512
-0.4588791152583765 -0.33339519244868415 -0.22715325934662361
0.3887202105524942 0.2824217644615853 -0.04922951214900907
-0.4539093141855211 -0.32978442061352803 -0.05748539306840811
0.3679450343641051 0.2673277154339163 0.08121788132967177
-0.4507724879871936 -0.3275053829774817 0.09950069444284461
0.34800287412947567 0.2528388879231606 0.2107308623609834
-0.4511686530989653 -0.3277932137792959 0.2732022244805234
0.3236736332591032 0.23516265975674888 0.3611854130346119
-0.4509812589565612 -0.3276570639653402 0.5032472081428451
0.2936867561301713 0.21337591824050856 0.5820780074773115
-0.44309882302438375 -0.3219301390363357 0.8782080725058563
-0.4259408482251653 -0.3094641406502593 1.839123524797838
0.23022626088072184 0.16726916959350138 0.9940688576272684
0.0 0.0 1.923
-0.0 -0.0 1.891
0.0 0.0 1.926
-0.0 -0.0 1.891
0.0 0.0 1.926
-0.0 -0.0 1.891
-0.41026623787281535 -0.34212433037906165 1.8660422172674351
0.2289120739908598 0.19089162792402053 1.0411765694490636
0.2930228132044213 0.24435409131674551 0.6117758650016641
-0.4421758956538287 -0.36873405180668384 0.9231791138998761
0.3226568658944604 0.26906616727396937 0.3792781888266981
-0.4480711953940742 -0.373650189889293 0.5267008063918459
0.34622383027389014 0.2887188492718458 0.22084946326766947
-0.44829778820324434 -0.3738391474635453 0.28596046040634493
0.3659251457596168 0.30514793542597 0.08508539948822755
-0.4475778642349033 -0.3732387970499466 0.10407139772113783
-0.44999864648435767 -0.3752575069257148 -0.06003350446328436
2.1246964955398955 1.771801573447221 -0.2834519115660336
-0.4534403041607081 -0.37812753306781316 -0.2364475825604789
0.9653430374742115 0.8050073581349357 -0.5033805452624033
-0.453741870070139 -0.37837901131609447 -0.4620039384471823
0.5571950164461306 0.4646494258961642 -0.5673408364131399
0.34217750687162835 0.2853445874957035 -0.6132348817362101
-0.37603412034837264 -0.31357789100781125 -0.6739111563143311
0.019006833238927025 0.018274717612793895 -0.07234483386116979
-0.1789604428340532 -0.17206714635422818 -0.6811688902512739
0.019006833238927025 0.018274717612793895 -0.07234483386116979
-0.17920728482416914 -0.1723044803491995 -0.6821084335481723
0.32625447716705064 0.3136876282960508 -0.6229430856687095
-0.3525243181856964 -0.3389455931718366 -0.6731021393199561
-0.45370950279287414 -0.4362332713478871 -0.4921881957590649
0.5246903386490809 0.5044800284423627 -0.5691888521669286
0.8645876364424183 0.8312849757180305 -0.4803306236920421
-0.4510310115806425 -0.4336579517290653 -0.25057495384553896
-0.4474700838571022 -0.4302341857724097 -0.0636008604161111
1.9447738259943281 1.8698639612416275 -0.2764191241161752
4.1988655169043625 4.037131312246776 1.0401865883715753
-0.44564602748283594 -0.4284803894018885 0.1104000637987746
4.040736278270613 3.8850929823455336 2.746100298240623
-0.4453743286527046 -0.42821915601629706 0.3026781488608697
1.8641726376491967 1.792367413671242 2.334638179986248
-0.4446404884863613 -0.4275135823079223 0.5568554327119897
0.9608992165166429 0.9238867735332356 2.137397231538408
-0.439442595246992 -0.4225159043708959 0.9774837676586922
0.22457953246292323 0.2159290548710516 1.0882842812708584
-0.3882527782950008 -0.3732978448609964 1.8814243272500621
0.0 0.0 1.927
-0.0 -0.0 1.891
0.0 0.0 1.929
-0.0 -0.0 1.891
0.0 0.0 1.928
-0.0 -0.0 1.891
0.3655289376133472 0.40489390571945816 1.9054588740979168
-0.36350027045202177 -0.40264676497126756 1.8948836734848609
0.5755228341124313 0.6375027095146332 1.3771320789149806
-0.44183700018736244 -0.4894198250494351 1.0572437278669535
1.7085555034757651 1.892555252827998 2.301803142437647
-0.4446720873674916 -0.49256023174038743 0.5990719095601911
3.5341999047777986 3.9148090774484503 2.5837627445637903
-0.4459121623429845 -0.49393385431454156 0.32599492486323317
3.660492220039245 4.054702211826365 0.975493557355733
-0.4446155624989099 -0.49249761952982 0.11848669267575491
-0.4479639404955369 -0.49620659494974556 -0.0684932342942735
1.8531841585976083 2.052759425536149 -0.28334998711023857
-0.4491362124545571 -0.4975051125860022 -0.26842005441614114
0.8149147345089613 0.9026754812848515 -0.4870225364060179
-0.45238300972882545 -0.5011015677340989 -0.5279165003323136
0.4898616488078765 0.5426164000667953 -0.5716528731719802
0.05041619808532197 0.055845678012734434 -0.10355417527999326
-0.32770528755459266 -0.36299690708277393 -0.6731021393199561
0.014976651793894189 0.019152009331532754 -0.06670757407977992
-0.15145402800022578 -0.1936780661977537 -0.6745920871729858
0.014976651793894189 0.019152009331532754 -0.06670757407977992
-0.15166496675788627 -0.193947812808057 -0.6755316304698841
-0.3008874844844851 -0.3847722434821927 -0.6722931223255812
0.29255967203786276 0.3741227108707723 -0.6536857314549575
-0.45080025692613807 -0.5764793657569464 -0.5722688784232431
0.44740348426899806 0.5721356030440309 -0.5679568416644027
-0.4477603299779991 -0.5725919341681536 -0.2910982030579481
0.7639946371016688 0.976989558171971 -0.49668863254842743
-0.44611634939893885 -0.5704896264010826 -0.07420100381879628
1.666195541230377 2.1307160634403077 -0.2771325953067405
3.188513956470422 4.077443335695368 0.9243368398948357
-0.4444999486673297 -0.5684225874980419 0.12885867319188182
3.0657773309637113 3.9204888288152855 2.4381428793414823
-0.44421133106529426 -0.5680535058712872 0.3532711533943
1.59714340720053 2.0424128075790047 2.3406691052502766
-0.44123772915789056 -0.5642508901556653 0.6466492088653069
0.5372101676190507 0.6869795922897067 1.398344834289518
-0.44006900866851867 -0.562756340771301 1.1454887902250301
0.3373759866309094 0.43143341603391605 1.9131499290892302
-0.3353415585708236 -0.428831807495018 1.90161334660226
0.0 0.0 1.93
-0.0 -0.0 1.891
0.0 0.0 1.93
-0.0 -0.0 1.891
0.0 0.0 1.929
-0.0 -0.0 1.891
0.30707038271003434 0.4518403469695523 1.9083430197196594
-0.30645160108240677 -0.4509298374542486 1.9044974922240028
0.5437252928107479 0.8000674724521442 1.551076672986189
-0.44497430965255913 -0.6547598133415798 1.2693712816123295
1.4352253546010054 2.1118699774272494 2.3051536564732182
-0.4409980232015294 -0.6489088855059892 0.7082986671198231
2.684852338986371 3.9506402463931725 2.340036444463613
-0.4431848756589643 -0.6521267411793958 0.3862665911334936
0.8189281197462334 1.205016135075047 0.26017849430284457
-0.44432383794339514 -0.65380267328734 0.14116441278728664
0.840970815462489 1.2374509768617334 -0.15329438151575497
-0.44396996507793596 -0.6532819651783357 -0.08092801790126958
0.7070326590246628 1.0403669645801674 -0.5037523181909574
-0.4456132035476468 -0.6556999171597515 -0.31749408098529713
0.411339563469901 0.6052677872748513 -0.5722688784232431
-0.43923449619175603 -0.6463139343128661 -0.6110772092528064
-0.2742189856499825 -0.40350098413342705 -0.6714841053312063
0.2534047734861889 0.37287380100040773 -0.6205160346855846
0.03371020685701585 0.05803637125873711 -0.18415048619206856
-0.1236614220928286 -0.2128987292603672 -0.6755316304698841
0.03405418855963846 0.05862857912872423 -0.18602957278586518
-0.1236614220928286 -0.2128987292603672 -0.6755316304698841
-0.24474092241357098 -0.4213523546635735 -0.6706750883368313
0.22377999902230003 0.38526548230999863 -0.6132348817362101
0.36439887991329617 0.627358614873482 -0.5673408364131399
-0.4265168214403186 -0.7343024829898083 -0.6640536608614167
0.6233963016097214 1.0732553304998675 -0.4970604054769816
-0.44295174759105127 -0.7625972804598907 -0.3531842821265015
0.7479757587568401 1.287734572851279 -0.1525809103251896
-0.442689727627629 -0.7621461800576037 -0.09030506783441417
0.6996376021129704 1.2045143417549293 0.24875173610711157
-0.44203252034558016 -0.7610147148614181 0.1571618742613129
0.666649386094713 1.1477209687531094 0.6502300930470427
-0.4415762848354021 -0.7602292479088592 0.430700447288941
0.6285674101369354 1.0821580457984583 1.1297933327947227
-0.4376857292412589 -0.7535311659355811 0.7867006955521972
0.5371583019392623 0.9247857412530733 1.714839144477619
-0.4420060643864392 -0.760969167592212 1.4110724875142406
0.27522083841312395 0.47382737293884797 1.9141113109631445
-0.27397674622542034 -0.47168551138362447 1.9054588740979168
0.0 0.0 1.931
-0.0 -0.0 1.891
0.0 0.0 1.93
-0.0 -0.0 1.891
0.0 0.0 1.929
-0.0 -0.0 1.891
0.2402210028054181 0.4903520749625134 1.907381637845745
-0.23997884453646112 -0.48985776843533346 1.9054588740979168
-0.44675580858564085 -0.9119420666101031 1.6282911025495057
0.5294021410754284 1.0806442206729414 1.9295122288679394
0.577998631815611 1.179842000184532 1.1860819685923247
-0.4457447075866153 -0.9098781526846815 0.91469033171103
0.6088144370354694 1.242744884839618 0.6779462607479654
-0.4436720394489503 -0.905647310626146 0.4940516877481928
0.6327412862455285 1.2915856607103737 0.25683836498409185
-0.4447811779426132 -0.9079113439764228 0.18054277949258202
0.659097931712918 1.3453862678307027 -0.15349823042734506
-0.4446503974902555 -0.9076443878592256 -0.10355524708777064
0.5525732603214116 1.1279423597564546 -0.503008772333849
-0.44557089949051015 -0.909523366218989 -0.4056042650526454
0.3177942193315848 0.6486987109389419 -0.5648768154080882
-0.3753229438779787 -0.76612944814272 -0.6671336871177312
-0.21462949743609336 -0.43811331310276275 -0.6714841053312063
0.08119718336738953 0.16574407266779217 -0.2540313362337335
-0.09319566091309876 -0.227517218492503 -0.6745920871729858
0.024402206478638656 0.05957275358856626 -0.17663413981688209
-0.09319566091309876 -0.227517218492503 -0.6745920871729858
0.024661804419900773 0.06020650628631698 -0.1785132264106787
-0.18470238130909644 -0.45091125093873247 -0.6706750883368313
0.16910628156043922 0.4128367182901062 -0.6140438987305851
0.272617720977628 0.6655376975804841 -0.5624127944030366
-0.32188598380491035 -0.7858155947335834 -0.6640536608614167
-0.4500588030391163 -1.098722043733402 -0.4754975756208373
0.47081992061480626 1.1494058596679377 -0.49743217840553583
0.5512885816652434 1.3458528375490535 -0.14901355437236286
-0.4475920290264326 -1.0926999440292244 -0.12098432902872416
0.5283793767986141 1.2899249271928985 0.2489275323870459
-0.44740598360278167 -1.09224575402845 0.21077973964129101
0.5058337014036459 1.2348844960758196 0.6537496064058901
-0.445582984614652 -1.0877952929766135 0.5758803733413931
0.47802825873847776 1.1670034712282062 1.1385046692872087
-0.448485605902963 -1.0948814203282873 1.0681438745402065
0.43948520406807134 1.0729088695600846 1.8590858810244744
-0.43587464556819716 -1.064094465337318 1.8438126971548077
0.20853970256214757 0.5091049583996793 1.921802365954458
-0.20697487237783943 -0.5052847611130382 1.907381637845745
0.0 0.0 1.93
-0.0 -0.0 1.891
0.0 0.0 1.929
-0.0 -0.0 1.892
0.0 0.0 1.928
-0.0 -0.0 1.891
0.17929262313775682 0.5445207399199241 2.0025584433632497
-0.17051305157748275 -0.5178567382531778 1.9044974922240028
0.3559913839673733 1.0811637891766144 1.8251454724252143
-0.37303792629589044 -1.1329349980493209 1.9125420245683094
0.3855911166542951 1.171059670345863 1.113040762616865
-0.43573421189651573 -1.3233467797948129 1.2577829689535556
0.4069626313340313 1.2359660383991553 0.6374718571212212
-0.4384186801327975 -1.33149964523194 0.6867450441450836
0.4239491226149301 1.2875548692112944 0.24207147746960608
-0.4411903360255595 -1.3399173039795094 0.25191606914592996
0.44179130563408153 1.3417424789932668 -0.14473272722897076
-0.4442802707362458 -1.3493015915509754 -0.14554812287533117
0.3922394406856165 1.1912509657678785 -0.5022652264767405
-0.44856397917045016 -1.3623114301342503 -0.5743891746162577
0.22542474911619365 0.6846263334030261 -0.5636448049055625
-0.2665678454029746 -0.8095799920678407 -0.6665176818664683
0.1398942346144298 0.42486584673510297 -0.6156619327193349
-0.1527622982451922 -0.46394680504187974 -0.6722931223255812
0.011907521291588693 0.04714455618894984 -0.13341514815955985
-0.019286830261023968 -0.07636090086942579 -0.21609495828661107
0.011907521291588693 0.04714455618894984 -0.13341514815955985
-0.019538397612254715 -0.07735691261989656 -0.218913588177306
-0.11932577638080609 -0.47243759902816934 -0.6706750883368313
0.10939395663379071 0.4331152898207584 -0.61485291572496
0.1757371003737836 0.6957827242271992 -0.5611807839005107
-0.2081452593889273 -0.8240939181571327 -0.6646696661126795
-0.4016955678121915 -1.5904031413281046 -0.6569227647552928
0.30394282635251807 1.2033780418538065 -0.4970604054769816
0.3388601734794801 1.341623676128587 -0.14177691801091433
-0.4075579225242063 -1.6136135227628507 -0.17051961454511838
0.3249632662174497 1.2866026932368564 0.23697338535150983
-0.40427551739366757 -1.6006177422538632 0.2948103614499124
0.3105170291121673 1.2294067898870995 0.6211941078365523
-0.40332027718960034 -1.5968357313406094 0.8068484375157486
0.29264953742378735 1.158665369802178 1.0788655194540355
-0.4413373148229544 -1.7473537378134705 1.627009615673539
0.26863522363255476 1.0635872978721643 1.758961675656657
-0.2948119313864268 -1.1672267740758193 1.930360739082921
0.14200455175731483 0.5622279738553512 2.02563160833719
-0.13371477488681202 -0.5294068818837286 1.907381637845745
0.0 0.0 1.929
-0.0 -0.0 1.891
0.0 0.0 1.93
-0.0 -0.0 1.892
0.0 0.0 1.929
-0.0 -0.0 1.891
0.10194147028217025 0.5708533296232919 2.02563160833719
-0.09589368490710098 -0.5369868530201064 1.9054588740979168
0.19061375687102305 1.0674016911923985 1.738597430497101
-0.21117287852475508 -1.1825289599837698 1.9261181880080134
0.20721495305279072 1.1603653112957772 1.0641232576975206
-0.3793286325720805 -2.1241699999602166 1.9479888602812925
0.21912343105088983 1.227050579785078 0.6106355677600103
-0.46508474630830166 -2.604388334327694 1.2960607943955265
0.22895643325676154 1.2821135687127234 0.23257847835315093
-0.4712383732110075 -2.6388475038584622 0.47869327026124714
0.23871223443745926 1.3367442462155 -0.13912688216024302
-0.4748012575074748 -2.6587989952198403 -0.27672489748356033
-0.28901985532445446 -1.618457594171695 -0.6584098564695097
0.22031440129193267 1.233719792282207 -0.5018934535481864
0.12588024813946158 0.7049060464334518 -0.559948773397985
-0.1498376551010976 -0.8390630827733715 -0.6665176818664683
0.008576428242523302 0.048026407751114844 -0.06714841053312064
-0.08607427380749305 -0.4819999717672127 -0.6739111563143311
-0.009243778238703877 -0.08372909583890062 -0.231127651036984
0.008642556889845044 0.07828330098759004 -0.21609495828661107
-0.009243778238703877 -0.08372909583890062 -0.231127651036984
0.008642556889845044 0.07828330098759004 -0.21609495828661107
0.0031605102767597454 0.02862754395758344 -0.03964183272437242
-0.015673550964339224 -0.141969248605975 -0.1965911296331122
0.007520482770212204 0.06811968075839445 -0.05359245685987314
-0.01694269681565057 -0.15346502791546335 -0.12073702924753031
-0.018234544117071073 -0.16516643438765377 -0.06654735421120397
0.13599506366642325 1.231827876578312 -0.49631685961987315
0.1474789838096163 1.3358479239491716 -0.13769993977911232
-0.4544448627679023 -4.116310072095042 -0.4243115094747925
0.14097310950613126 1.2769184517132903 0.22941414531433255
-0.49356792132836563 -4.470682303354807 0.8032132030200655
0.13441461256838683 1.2175123296191561 0.6000770276834685
-0.44768737895761324 -4.05510154945735 1.998643648655423
0.125843804195345 1.1398789185666753 1.0353088369916053
-0.23824797881643106 -2.158023195344676 1.96005071080935
0.11584784076592188 1.0493366145031724 1.6927778788881
-0.13210718683833264 -1.1966119288194068 1.930360739082921
0.06381438899717218 0.5780235044879585 2.0313998995806752
-0.05988827893108996 -0.5424612443916808 1.906420255971831
0.0 0.0 1.93
-0.0 -0.0 1.891
0.0 0.0 1.93
-0.0 -0.0 1.892
0.0 0.0 1.929
-0.0 -0.0 1.891
0.022766143532622383 0.5794370457728271 2.02563160833719
-0.021415518026415736 -0.5450613311446336 1.9054588740979168
0.04140551187305678 1.0538406491225423 1.691080858458137
-0.047201868025883505 -1.201367764579235 1.9278152084379763
-0.0850343620365001 -2.1642690364752646 1.95535999115955
0.044848486351669804 1.1414702012115943 1.0312882201489195
0.04780767456377409 1.2167865705848473 0.5965575143246211
-0.16069865830507685 -4.090053973986529 2.0052427362032614
0.050011036964854594 1.272865888481599 0.22748038623505468
-0.28963115225241387 -7.3716050759513925 1.3174173218280523
0.05229512195733636 1.3309997335239632 -0.13647684630957174
-0.21304696809355667 -5.422407428210022 -0.5559979063619969
-0.006268680588722397 -0.15954857510310808 -0.06394494371132448
0.04916540764061883 1.2513431849656558 -0.5015216806196321
0.0023813487833664907 0.06060937382791132 -0.04743240434724405
-0.005752349009171055 -0.14640705885703253 -0.1145769767349012
0.01767647698454955 0.4498963818321742 -0.6197070176912097
-0.005330634704217991 -0.1356737130590499 -0.18688292570061285
-0.0021081740955482572 0.06708318744072635 -0.18415048619206856
0.002635217619435367 -0.08385398430090792 -0.2301881077400857
-0.0021081740955482572 0.06708318744072635 -0.18415048619206856
0.002635217619435367 -0.08385398430090792 -0.2301881077400857
-0.0023263103996289014 0.07402439718482176 -0.10193614129124337
0.004080274589825366 -0.12983644268131436 -0.17879275575686338
-0.0017320502927183276 0.05511473397218243 -0.04312036758840369
0.004478587185457466 -0.14251095498521452 -0.11149695047858665
0.0047821337356794644 -0.1521699628292665 -0.06097076028289079
-0.03892773498251204 1.2387006120553097 -0.49631685961987315
-0.041808721886313 1.330375101790322 -0.1363749218537767
0.14770540235919652 -4.700062112229336 -0.4817969025432006
-0.0398888456308905 1.2692836487753785 0.22677720111531724
0.2316335989310123 -7.370700630214231 1.316889932988249
-0.03799580938395539 1.2090462586787072 0.5925980617959178
0.12941705527363795 -4.118117472025173 2.018440911298939
-0.0354857507088281 1.1291748965619106 1.0198964724279764
0.06605199195670941 -2.1018084638369854 1.898401252554834
-0.03256232973914882 1.0361501329566336 1.6622315111487658
0.03781485459753182 -1.2032881840103835 1.930360739082921
-0.01825782425815193 0.580973388087725 2.030438517706761
0.01714264465147533 -0.5454877976221394 1.906420255971831
-0.0 0.0 1.928
0.0 -0.0 1.892
-0.0 0.0 1.929
0.0 -0.0 1.892
-0.0 0.0 1.929
0.0 -0.0 1.892
-0.05902021858333408 0.5760428073299722 2.0227474627154476
0.05559794355141113 -0.5426410856121695 1.9054588740979168
-0.10673990146938334 1.041791338162048 1.6792017154483958
0.12248929572358332 -1.1955068867943464 1.9269666982229947
-0.1159039080227214 1.1312328920580506 1.0265975004991195
0.2203082115941039 -2.150228578115563 1.9513393743168639
-0.12393293601806404 1.2095969499619996 0.5956776359849093
0.412438559599262 -4.025438594186683 1.9823658993707542
-0.12983626203623952 1.2672139594160126 0.22748038623505468
0.4497110714423725 -4.389221766694411 0.7879189266657767
-0.1356647005935066 1.3241000603059614 -0.1363749218537767
0.4564742018475121 -4.455230546709593 -0.45886389998931437
0.015044403159100203 -0.14683477015822258 -0.059111895640119726
-0.12764087963286805 1.245786823543662 -0.5015216806196321
0.013970491199128425 -0.1363532898266324 -0.10718491371974628
-0.006102053627205474 0.059556609349563576 -0.04681639909598114
-0.004732865665177046 0.04619320785189491 -0.06391234255562084
0.00647024673214082 -0.0631502082025905 -0.08737383539249431
-0.004431238908686766 0.02599209755548561 -0.07234483386116979
0.00558221005380023 -0.032743291725741606 -0.09113569979913597
-0.004488787465942439 0.026329657263998413 -0.0732843771580681
0.00558221005380023 -0.032743291725741606 -0.09113569979913597
0.010075841518474838 -0.05910136219205191 -0.08251973342624462
-0.005926965599102827 0.034765507171795246 -0.04854101966249684
-0.011782474377306663 0.06911187362514028 -0.05482446736239896
0.022241075229073322 -0.13045836819127604 -0.10348888221216884
0.023870050574440263 -0.14001336781209453 -0.05688125806879445
-0.20858991907206884 1.2235155082664733 -0.4970604054769816
-0.22603282264120375 1.325829479722877 -0.1378018642349074
-0.21573638062049003 1.2654341521425578 0.22923834903439821
0.6046905453741515 -3.5469032408597 0.6425354031600655
-0.20480096152609853 1.201290808538505 0.596997453494477
0.6551517862820904 -3.8428912305568534 1.9097759363445281
-0.19073520889688642 1.1187860232936584 1.0245871920777765
0.3642555984165533 -2.136595937225299 1.9567001967737785
-0.1750210024694129 1.0266119846361543 1.6698681030835993
0.2022346339509381 -1.186237628588727 1.9295122288679394
-0.09759365945179528 0.5724502717050894 2.0285157539589322
0.09181204455536221 -0.5385373409168732 1.9083430197196594
-0.0 0.0 1.929
0.0 -0.0 1.892
-0.0 0.0 1.928
0.0 -0.0 1.892
-0.0 0.0 1.929
0.0 -0.0 1.892
-0.1373885929362633 0.562523845369433 2.0227474627154476
0.1294874428672104 -0.5301733770758484 1.906420255971831
-0.25211261320004574 1.032249865963897 1.7038085116828594
0.28475667666220367 -1.165907717134521 1.9244211675780503
-0.2757915363883062 1.1292008474201745 1.0493809959410059
0.4853649261086676 -1.9872781197254152 1.8468033364070318
-0.29424670941373987 1.2047637065728356 0.607555993571019
0.45745668726379496 -1.8730106285386516 0.9445493976806499
-0.3083085159383185 1.2623383662297445 0.23205108951334788
0.7740412286512043 -3.169234352791949 0.5825888717024507
-0.32312016172792224 1.3229831677212567 -0.13953457998342322
0.4881026256050728 -1.9984873563532204 -0.21077977458416308
-0.2977860798103995 1.219255304478925 -0.5026369994052948
0.03281814045247753 -0.13437059198769216 -0.055394166354577605
0.03027800835432658 -0.1239702753015676 -0.09979285070459137
-6.243250562147673 25.56236466773806 -20.577039413186238
0.013945912908800637 -0.05710014484452217 -0.08090169943749474
-0.012272403359744532 0.05024812746317951 -0.07119349550499536
0.009408331073926456 -0.029347509123542042 -0.0845588967208478
-0.007422127847208662 0.023151923864127608 -0.06670757407977992
0.009408331073926456 -0.029347509123542042 -0.0845588967208478
-0.007526664859141179 0.023478007298833627 -0.06764711737667824
-0.014893435548917663 0.04645725498160358 -0.06714841053312064
0.02530089653490827 -0.07892136087236272 -0.11407139620686757
0.03775563609996986 -0.11777156503130728 -0.09671282444827682
-0.37975399255774067 1.1845707462586799 -0.4981757242626443
0.04109278277677037 -0.12818116284142433 -0.05390707464036076
-0.42486227778508673 1.3252775094300562 -0.14259231365727473
0.5372275692650587 -1.675779781402266 -0.18030436230144317
-0.4045074258257359 1.2617843990269917 0.2366217927916411
0.9992475415085955 -3.116963690018387 0.5845226307817286
-0.38298714013678126 1.1946559385556015 0.6145950202887136
0.5935341148146958 -1.8514173994079297 0.9524683027380565
0.6247349344198906 -1.9487424542801006 1.8474734392141463
-0.35893367287671685 1.1196256973448235 1.0614428464690635
-0.32600321019989825 1.016905348086635 1.7122936138326743
0.36655167687986523 -1.1433886198258554 1.925269677793032
-0.17719496173263008 0.5527261652712843 2.027554372085018
0.1666926524786806 -0.5199661981499422 1.907381637845745
-0.0 0.0 1.929
0.0 -0.0 1.892
-0.0 0.0 1.927
0.0 -0.0 1.892
-0.0 0.0 1.927
0.0 -0.0 1.893
-0.21497130442003087 0.5367872190497517 2.019863317093705
0.20259075809217555 -0.5058727718793472 1.9035361103500883
-0.4086174047160948 1.0203250193072813 1.762355716516583
0.4416687884389178 -1.1028549197616018 1.9049054326334758
-0.4484272964300371 1.1197310359449495 1.08891706156075
0.7489425738529967 -1.8701230963412878 1.818659018508231
-0.47875859808808985 1.19546884249132 0.6308727695733825
0.7208087958662378 -1.7998725459823988 0.9498286677189209
-0.5035928118755237 1.2574803216150494 0.24189568118967172
0.8124825889270799 -2.0287836584196297 0.3902677414542669
-0.5281269330433368 1.3187424640625272 -0.14554812287533117
0.5580837128588199 -1.3935450828223768 -0.1538040037947302
-0.4669549640185967 1.165994955620986 -0.503008772333849
0.04900783805664499 -0.12237345432237991 -0.052791755854698114
-9.7803915411625 24.42181383586163 -20.572111371176135
0.04539348092227172 -0.11334833945857448 -0.095480813945751
-0.018137379502277184 0.04528936329499312 -0.06714841053312064
0.03845998545061183 -0.09603527638456373 -0.14238699100999072
-0.011413603272972389 0.023768775187773865 -0.07234483386116979
0.012599432184450027 -0.026238258324165965 -0.07986118023635627
-0.011413603272972389 0.023768775187773865 -0.07234483386116979
0.012599432184450027 -0.026238258324165965 -0.07986118023635627
-0.02111819792177607 0.04397854794569948 -0.06714841053312064
0.04579850151710468 -0.09537516421958925 -0.1456230589874905
-0.02386943529977398 0.04970798685835959 -0.04312036758840369
0.05217176572664878 -0.10864745699041453 -0.09424880344322518
-0.5300347103766662 1.1037947939274135 -0.49036849276300576
0.05625842263285307 -0.11715790079593477 -0.0520482099975897
-0.5132969450368993 1.0689384762517573 -0.12149395130769941
0.6480804549333326 -1.3496245023145093 -0.15339630597155
-0.49985197952977206 1.0409393987559565 0.20620903636299778
0.8173197755653041 -1.702064592339237 0.33717726491409183
-0.485525662230025 1.0111049102931624 0.5494840231500382
0.6060324318787894 -1.2620596918711293 0.6858651658053718
-0.4809974694551048 1.0016749701156509 1.0031439022501187
0.7894527604884376 -1.644031664378193 1.646442597079854
-0.47142005112999236 0.981730041454259 1.7462340224319344
0.49203608835142004 -1.024662842100947 1.82259994178027
-0.25113506830325305 0.5229875997531263 2.026592990211104
0.2361241486608382 -0.49172743012841386 1.9054588740979168
-0.0 0.0 1.928
0.0 -0.0 1.893
-0.0 0.0 1.928
0.0 -0.0 1.892
-0.0 0.0 1.928
0.0 -0.0 1.893
-0.28676317528918094 0.5027493656022849 2.0217860808415336
0.2701273657859567 -0.4735836867608782 1.9044974922240028
-0.4721975680563006 0.8278504642022055 1.5281668971816882
0.5610787316160368 -0.9836757320337148 1.815811860060418
-0.4681626339363993 0.8207764716402883 0.8530408734565137
0.5784916128687787 -1.0142037626788485 1.054071715590806
-0.4863145527638178 0.8526001730822396 0.48085351265251536
0.5815307598008319 -1.019531954454243 0.5750004950016812
-0.5009117288633758 0.8781917470918278 0.18054277949258202
0.5355414589016417 -0.9389041268810394 0.1930243153679212
-0.5150579174708808 0.9029926558589367 -0.10651105630582708
0.5411804721368676 -0.9487903695053713 -0.11191305246296473
-0.5321575493504791 0.9329715018904445 -0.43014127833722343
0.06393249728583969 -0.11208559962210186 -0.05167643706903549
-0.03122348999875858 0.05474060528495412 -0.04928042010103278
0.058544043747672275 -0.10263863490928901 -0.09240078768943645
-0.025045203664553057 0.0439089162722391 -0.06957546151624547
0.053002640313356414 -0.09292352048311069 -0.1472410929762404
0.01655122683130592 -0.024770661454916125 -0.08174026683015287
-0.015029274938772054 0.022492899482050265 -0.07422392045496641
0.01655122683130592 -0.024770661454916125 -0.08174026683015287
-0.01521951892533879 0.022777619728658497 -0.07516346375186472
0.05845352213510905 -0.08748187807549901 -0.14481404199311557
-0.027430703124855668 0.04105294837062522 -0.06795742752749558
-0.3921308445259646 0.5868652816364434 -0.5519407051315671
0.06520925874371504 -0.09759255241498895 -0.09178478243817355
-0.535863225143087 0.8019759907496583 -0.3862720727678264
0.07168911289209727 -0.10729033947468967 -0.05167643706903549
-0.5156475495703213 0.7717210941912811 -0.0950955172567815
0.5377546256505061 -0.804806671648571 -0.09917249548858349
-0.5009769776071399 0.7497650316495851 0.1610293924198687
0.5332451453787783 -0.7980577574872769 0.17140137293599558
-0.4814552808900363 0.7205487478457598 0.4245412989109582
0.6800244019203305 -1.0177284386671201 0.5996370885136125
-0.4593937395102832 0.6875313178835382 0.7464945271253388
0.5670254863793885 -0.8486136104935955 0.9213913597821731
-0.4283523189826137 0.6410745490405053 1.236279383228051
0.6300336441865068 -0.9429119825626652 1.8183573907053623
-0.32170764450432593 0.48146951465871457 2.0227474627154476
0.3036651055064594 -0.4544669468213914 1.9093044015935734
-0.0 0.0 1.928
0.0 -0.0 1.892
-0.0 0.0 1.927
0.0 -0.0 1.892
-0.0 0.0 1.927
0.0 -0.0 1.893
-0.3495851230401407 0.4543555025127009 2.0025584433632497
0.3329701796023229 -0.4327610739247234 1.907381637845745
-0.4311179008253653 0.5603235880527954 1.133609647215289
0.6892723324573201 -0.8958466946712362 1.812417819200492
-0.46168746194306237 0.6000548219864235 0.6835048632565939
0.5236984249687479 -0.6806504206257767 0.775308947831254
-0.4824502957021143 0.6270402602800847 0.3875864086430613
0.527902480200724 -0.6861144278206605 0.4241013597411023
-0.500052178052611 0.6499174125770121 0.14643830118531725
0.5318682229947336 -0.6912687005320924 0.15575550402183805
-0.5174499780620977 0.672529319219899 -0.08694156079317751
0.5362553113797117 -0.6969705957683364 -0.09010121892282406
-0.5366544940359145 0.6974894131447048 -0.3524407362693931
0.0786866821423967 -0.10226901732817935 -0.05167643706903549
-0.43184780247784393 0.5612722406419353 -0.5537887208853559
0.07157432988787396 -0.09302509883831855 -0.09178478243817355
-0.028674487734370542 0.03726820858549016 -0.06472135954999579
0.06415916630565403 -0.08338761671003427 -0.14481404199311557
0.018879183984732772 -0.021245457942667842 -0.07798209364255965
-0.01751442369667979 0.019709641705848484 -0.07234483386116979
0.018879183984732772 -0.021245457942667842 -0.07798209364255965
-0.017741883744688623 0.01996561107865171 -0.0732843771580681
-0.030454147370678707 0.03427120089866117 -0.0631033255612459
0.06910748826423246 -0.07776926357773108 -0.14319600800436566
-0.47616621255787644 0.5358478020447661 -0.5605647786492479
0.07901219571015314 -0.0889154045151205 -0.09301679294069937
-0.539561120036451 0.6071884829610891 -0.3253013124849356
0.08571313792579054 -0.09645622757896156 -0.05167643706903549
-0.5174010015127062 0.5822508656105997 -0.07980684888752403
0.52863448430417 -0.5948923275714937 -0.08153956463603988
-0.4989316115701387 0.5614665643627879 0.13413256158991246
0.5250879214820728 -0.5909012466360662 0.14116441278728664
-0.4790031562279694 0.5390403217785331 0.3532711533943
0.5201628296771973 -0.5853588550322301 0.3836269561143581
-0.4550884056824251 0.5121281508215878 0.6185048909665061
0.5157339895382631 -0.5803749141488415 0.7009275362415659
-0.4207556044618095 0.4734921544259581 1.01566672733286
0.5075781895094845 -0.5711968847043302 1.2252487504332914
-0.37147837528738104 0.4180386294853067 1.9535279677936261
0.36252048139511656 -0.4079579735577573 1.906420255971831
-0.0 0.0 1.927
0.0 -0.0 1.892
-0.0 0.0 1.927
0.0 -0.0 1.892
-0.0 0.0 1.927
0.0 -0.0 1.892
-0.3786147822717441 0.36979735160916344 1.8487373435369798
0.3894435981973532 -0.3803739789302783 1.90161334660226
-0.41907507174345 0.4093153751850051 0.9393008079845245
0.4947887251749677 -0.4832657591389354 1.1090028509808252
-0.45295134053592045 0.4424027110959005 0.5715976944685045
0.5002112107676872 -0.488561962312237 0.6312368443016778
-0.47604661987507146 0.46496013234355277 0.32599492486323317
0.5049563336326671 -0.4931965776275741 0.3457921875067494
-0.4943813092666317 0.4828678314008741 0.12340898851391682
0.5070577530939814 -0.49524905784705014 0.1265733215527352
-0.5152434947250168 0.5032441645302892 -0.07379330599561608
0.5102618587262945 -0.49837854415499616 -0.07307983480505073
-0.5352739206001328 0.5228081086419725 -0.299648980414695
0.0956320652188823 -0.09340492263578659 -0.053535301711806545
-0.5178943140846058 0.5058332498610008 -0.5661088259106141
0.08509471319562079 -0.08311297141350497 -0.09301679294069937
-0.3229397542246315 0.31541892032062724 -0.6213250516799596
0.07652999383969135 -0.07474771288848195 -0.1472410929762404
-0.019855549379706534 0.016823841364622925 -0.07140529056427147
0.06426927825536592 -0.05445611810127941 -0.231127651036984
-0.019855549379706534 0.016823841364622925 -0.07140529056427147
0.06426927825536592 -0.05445611810127941 -0.231127651036984
-0.3471011017762815 0.29410286072156544 -0.6261791536462092
0.08251499060314708 -0.06991592554621189 -0.14885912696499032
-0.5493214635399364 0.46544656025604153 -0.5630287996542995
0.09315626569878578 -0.07893240354451463 -0.095480813945751
-0.5340318133500512 0.45249145917089556 -0.2803167881298759
0.10482322065756981 -0.08881795219800065 -0.05502239342602339
-0.5107916114940697 0.4327997618106372 -0.06859515875006855
0.5198993371076345 -0.4405168452307373 -0.06981825221960915
-0.4896968022676432 0.41492588094964694 0.11461917451719911
0.5159842072973484 -0.4371995095282319 0.12077204431490152
-0.4700132863036141 0.39824780552881245 0.3017982705211579
0.5152332234698515 -0.43656319206656957 0.33083425573164826
-0.44455645031522123 0.3766779279029799 0.5260307035847316
0.5130804381982048 -0.4347391116943943 0.6071131432455628
-0.4089859545536254 0.3465386269695234 0.8595408477762632
0.5066903977934849 -0.429324755031344 1.064880319801787
-0.36599100359731573 0.31010849751120734 1.6756886062324263
0.4130259920114289 -0.34996179839618147 1.891038145989204
-0.0 0.0 1.927
0.0 -0.0 1.893
-0.0 0.0 1.928
0.0 -0.0 1.892
-0.0 0.0 1.928
0.0 -0.0 1.893
-0.4569253750689919 0.33749031870135054 1.9842921877588802
0.43921508921360464 -0.3244092985966468 1.907381637845745
-0.540586542751858 0.3992834159657658 1.0776079730265098
0.6427446295711069 -0.4747385496915795 1.2812504246220706
-0.5785535960814747 0.4273263166832599 0.6493296200937642
0.6531864129134505 -0.4824509705381694 0.7330924709830526
-0.6046082069584717 0.4465705508805611 0.36822908516940106
0.6587845695891592 -0.4865858332175287 0.4012245229085947
-0.6287279043907402 0.4643856358321626 0.13958224626787744
0.6627774004723547 -0.4895349838684129 0.14714148630505466
-0.6497514875249167 0.4799138952796188 -0.08276265810558048
0.6689559649887074 -0.4940985424307402 -0.08520884504466167
-0.675782473224932 0.4991406796504408 -0.336454500341562
0.1052876560494093 -0.07776666942620122 -0.0524199829261439
-0.05195852168583075 0.038377159597131894 -0.0505124306035586
0.09504607625456844 -0.07020212121426561 -0.09240078768943645
-0.03735121072149646 0.027588032309161622 -0.06391234255562084
0.08321282388586554 -0.06146194539762585 -0.14238699100999072
-0.02110600239328582 0.013394276412792156 -0.06858666067357655
0.02862320872514105 -0.018164840614608532 -0.09301478639293259
-0.02110600239328582 0.013394276412792156 -0.06858666067357655
0.02862320872514105 -0.018164840614608532 -0.09301478639293259
-0.12258202516906928 0.07779291870433383 -0.199827197610612
0.08833846348216329 -0.05606129364117981 -0.14400502499874063
-0.6045873599427642 0.3836828056709481 -0.559948773397985
0.10043200368686182 -0.0637360876307075 -0.09301679294069937
-0.6638867504519989 0.4213153432207147 -0.31489167048541766
0.11208477605033747 -0.07113116184245827 -0.05316352878325233
-0.6366675353024138 0.40404150402278205 -0.07725873749264778
0.647586635512086 -0.41097097572765795 -0.07858375541798343
-0.613409985428772 0.38928181405937345 0.1297376545915536
0.6408388872162375 -0.40668872444414195 0.13553893182938728
-0.5883862938263978 0.37340129647271336 0.34139279580819026
0.6391876877521306 -0.4056408414001252 0.37086872018853656
-0.5590323250300666 0.3547727014150528 0.5977317039459624
0.6317315959981024 -0.400909061688759 0.6754636295712222
-0.516054702369091 0.32749827271182697 0.9800292983036368
0.6214996458834682 -0.3944156686945031 1.1802777090392718
-0.4624245756383907 0.2934635593587863 1.9131499290892302
0.46056558236949274 -0.29228380635633877 1.9054588740979168
-0.0 0.0 1.927
0.0 -0.0 1.892
-0.0 0.0 1.927
0.0 -0.0 1.892
-0.0 0.0 1.927
0.0 -0.0 1.893
-0.44954022484461675 0.2425587439969727 1.7843247579847294
0.4781209072431429 -0.25798004345367703 1.8977678191066032
-0.5001736322405499 0.26987904821777897 0.911299970890135
0.606821455129829 -0.3274230910873057 1.1056088101208992
-0.5415385195804218 0.2921983303736831 0.555515227097761
0.6101290437733581 -0.329207769082051 0.6258760218447634
-0.5690311994017992 0.307032575493548 0.31675620229625895
0.6132891815774946 -0.3309128869208243 0.34139279580819026
-0.592588661628009 0.31974349241165173 0.12024465547509845
0.6151139616314126 -0.3318974848132645 0.12481535875339166
-0.6145869974818329 0.33161315038624434 -0.07155096796812499
0.6172134376420114 -0.3330303006015705 -0.07185674133551014
-0.6405151550789678 0.34560322511891245 -0.2914699759865023
0.11764564072878994 -0.06347814338918806 -0.053535301711806545
-0.6378018338304409 0.34413919641195867 -0.566724831161877
0.10329616656601702 -0.05573558724498032 -0.09178478243817355
-0.3946909178262015 0.2129636637700815 -0.6172799667080848
0.09414645746313062 -0.0507986720919461 -0.1472410929762404
-0.02403107950304195 0.01085044844779319 -0.07234483386116979
0.07708670957469302 -0.03480598398188206 -0.23206719433388232
-0.02403107950304195 0.01085044844779319 -0.07234483386116979
0.07708670957469302 -0.03480598398188206 -0.23206719433388232
-0.4076748571268848 0.184072256103051 -0.6156619327193349
0.09803482109621539 -0.044264419010326336 -0.14805010997061535
-0.6576428242626027 0.29693712098198577 -0.5642608101568253
0.11271825699697448 -0.050894244535122035 -0.09671282444827682
-0.6235589411995512 0.28154765768178586 -0.2739966483444543
0.12944982090031387 -0.05844883531250101 -0.05688125806879445
-0.596580185962922 0.2693662826069116 -0.0670662919131428
0.6056467541386503 -0.2734599951085365 -0.0680855364710933
-0.5715225150497403 0.25805231036397397 0.11198223031818379
0.6029248510414843 -0.27223100873562095 0.1181351001158862
-0.5459163384631593 0.24649067831317012 0.29343942629389547
0.6015719771670497 -0.27162016275889067 0.3233552898440977
-0.5188799178987296 0.23428326634442911 0.5139688530566741
0.5980310918154849 -0.2700213917190031 0.592370881489048
-0.4769902251849887 0.2153693448442814 0.8391766026167071
0.5922588438090658 -0.267415121808673 1.0419705439972866
-0.4256661395363199 0.19219563159554826 1.6314650400323738
0.49163561195709304 -0.22198199052874168 1.8843084728718047
-0.0 0.0 1.927
0.0 -0.0 1.893
-0.0 0.0 1.928
0.0 -0.0 1.893
-0.0 0.0 1.927
0.0 -0.0 1.892
-0.4166548694767484 0.15557369235813917 1.5535931082453247
0.49916078422461924 -0.18638036411222642 1.861235307897864
-0.46649893227801775 0.1741848390413947 0.7984481122975949
0.5780422476473629 -0.2158337112882747 0.9893629106684333
-0.5055379377640199 0.18876151310516906 0.4871647407721017
0.5855061122383832 -0.21862062453170916 0.564226563590247
-0.5342220710214087 0.199471808003556 0.2793613728585062
0.5855410416234652 -0.21863366672515772 0.306197662219717
-0.556107902769974 0.20764370254958456 0.10600515680041574
0.5846971979372528 -0.21831858609691013 0.11145484147838072
-0.5787385005068395 0.21609368335652288 -0.06329508704872595
0.5871260150069384 -0.2192254758689365 -0.0642124071508814
-0.6079040570562152 0.22698373566231908 -0.2598692770593943
0.13740892849053218 -0.05130676714541699 -0.058740122711565514
-0.66344075529721 0.2477204408821137 -0.5537887208853559
0.12250407717390081 -0.04574148296599659 -0.10225687170964302
-0.4438254025788774 0.1657188279792486 -0.6520676974662076
0.10352255047745526 -0.03865401942940296 -0.1520951949424901
0.08145703622148764 -0.024012735551615257 -0.2330067376307806
-0.024305728549960028 0.007165090446852924 -0.06952620397047486
0.08112858043027198 -0.023915910005036164 -0.23206719433388232
-0.024305728549960028 0.007165090446852924 -0.06952620397047486
-0.023679521915706617 0.006980490871340409 -0.03397871376374779
0.11050443560663085 -0.03257562406625531 -0.15856733089748967
-0.04835806944665862 0.014255484698115493 -0.039424336080826225
0.12845112196768696 -0.037866131229369354 -0.10472089271469466
-0.611731900598694 0.18033256596301836 -0.25540800191674373
0.14781294832515746 -0.04357380778727963 -0.06171430613999922
-0.583967559949022 0.17214791058257053 -0.062377766946570504
0.5696546295581144 -0.16792859904868432 -0.060848900109644756
-0.5599419090044352 0.16506538426748235 0.10424719400107219
0.5656074257903146 -0.16673552306276918 0.10530197168067831
-0.5340554069980794 0.15743429730594857 0.27276228531066743
0.5659264554802228 -0.16682956988711037 0.28904003459533634
-0.5076394875717514 0.1496471432802063 0.47778330147250136
0.5653096116857931 -0.16664773038497063 0.5320616288487603
-0.4735754710865548 0.13960540523487938 0.791660030577743
0.5568191766151666 -0.16414483337906 0.9308157058347095
-0.3584935950873037 0.105680396624944 1.3055565847754647
0.49708647978600345 -0.14653622006242262 1.8102820685804124
-0.0 0.0 1.928
0.0 -0.0 1.892
-0.0 0.0 1.928
0.0 -0.0 1.893
-0.0 0.0 1.928
0.0 -0.0 1.893
-0.3685569563936369 0.08086393135900921 1.3180545491363491
0.502431036834214 -0.1102368254631568 1.7968227223456137
-0.4564085660512767 0.1001391788069136 0.7492345198286677
0.5442788449059959 -0.11941852240507345 0.8934812563755233
-0.49374021992710637 0.1083300004537832 0.45634001164484356
0.5524670302268063 -0.1212150665870524 0.5106183390211024
-0.5306834313753998 0.11643559516014251 0.2661631977628287
0.5517353360911182 -0.12105452786070998 0.2767217378393707
-0.5644323649287148 0.12384034332444048 0.10319241632146606
0.5500090506630747 -0.12067576896350911 0.10055547212245074
-0.5898091670089354 0.12940818825567116 -0.06186814466759525
0.5519136851088555 -0.12109365886197876 -0.057893090891588304
-0.6193136074405361 0.13588166543323593 -0.2539209102025269
0.16593614957777175 -0.03640753261241894 -0.06803444592542082
-0.6586402577364804 0.14451020301730064 -0.5273004950810507
0.14157687783120607 -0.031062940835494483 -0.11334496623237539
-0.13721673061590567 0.03010629454509958 -0.19335506165561242
0.11827048747647102 -0.025949358478202948 -0.16665750084123915
-0.026428103723857184 0.0038672209808947207 -0.0732843771580681
0.08368899512554777 -0.012246199772833253 -0.23206719433388232
-0.026428103723857184 0.0038672209808947207 -0.0732843771580681
0.08402781696816132 -0.01229577952899857 -0.2330067376307806
-0.4425911978749303 0.06476431242534299 -0.6156619327193349
0.10992080998470674 -0.016084697829684358 -0.15290421193686504
-0.6937028258293196 0.10150944428643857 -0.5482446736239897
0.1262695031284829 -0.01847699997123934 -0.09979285070459137
-0.6567573015281248 0.09610321052026947 -0.26581764391626167
0.14329250215159087 -0.02096797320442238 -0.05799657685445709
-0.6260209857911916 0.09160556943579122 -0.0648239538856517
0.6348797733259727 -0.09290187466365599 -0.06574127398780714
-0.6000168805373007 0.087800392095865 0.10829050843956234
0.6331346953721518 -0.09264651763362357 0.1142675819573304
-0.5749014234076918 0.08412525052039482 0.28464064289677715
0.6326581351874445 -0.09257678264377275 0.31323668893741163
-0.5464284199630594 0.07995879962930154 0.4985564884930449
0.6286864616779285 -0.09199560817564781 0.5736080028898474
-0.4995171543019815 0.07309428022600141 0.8094787450923545
0.6220402298854866 -0.09102306594181288 1.0080301353980263
