0.30546810611141956 0.33716169967668147 0.5687252871736108
0.31438444805708854 0.34607804162235045 0.4890724173990592
0.3216475430647564 0.3533411366300183 0.41931672877109155
0.3259120061997919 0.3576055997650538 0.35474083295453446
0.3305312227189474 0.3622248162842093 0.2979720663714571
0.3350268786782807 0.3667204722435426 0.24613108230106107
0.34012225153655434 0.37181584510181626 0.19817628038101479
0.3446357062119353 0.3763292997771972 0.15197513181202513
0.34884275026164174 0.38053634382690366 0.10694026737945964
0.35232029164542084 0.38401388521068275 0.06229061708145833
-0.14606874208619935 -0.036232952745203814 0.10452791679262827
0.35698132859139914 0.38867492215666105 0.01770311549868737
0.36221606420480795 0.39390965777006987 -0.02802459175534827
0.366064839807011 0.3977584333722729 -0.07543452159670973
0.37073741304052354 0.40243100660578546 -0.12559360575447812
0.3764215868142068 0.4081151803794687 -0.17995220983455038
0.38027786335854585 0.41197145692380777 -0.23815837776643187
0.3850585897910393 0.4167521833563012 -0.30324449932724107
-0.1771925845595411 -0.06735679521854555 -0.5681588939395188
0.4069721441632877 0.4386657377285496 -0.3957066980079013
0.10700403202006172 0.13869762558532361 -0.07612719409963768
0.14721644635108933 0.1789100399163512 -0.1869228657298196
-0.04170177095722585 0.06813401838376969 -0.23971786720553237
0.0902060793353657 0.12859485122595063 -0.14126870309818515
-0.04912525052393983 0.06463955324415421 -0.2409368065110152
0.0902060793353657 0.12859485122595063 -0.14126870309818515
-0.04912525052393983 0.06463955324415421 -0.2409368065110152
0.3506074190355926 0.38899619092617754 -0.5507021692301233
0.09475613484960571 0.13314490674019064 -0.0735896209629831
0.33452388559712953 0.37291265748771446 -0.2940258665476929
-0.23127823877834505 -0.11751343501025102 -0.5555439227675055
0.32936068130296015 0.3677494531935451 -0.23007150585585698
0.3250606118532361 0.363449383743821 -0.17322801694037676
0.321311209594385 0.35969998148496996 -0.12139158920507179
0.3164517830254802 0.35484055491606514 -0.07268355055959363
0.31239378866002576 0.3507825605506107 -0.02692558815709932
0.30882017067339723 0.34720894256398216 0.01706707542089022
-0.1880489505333828 -0.07428414676528877 0.028162441222462743
0.3047486661714599 0.34313743806204483 0.060034618877300897
0.3007443399898756 0.3391331118804605 0.10265408431815866
-0.1858936120247088 -0.07212880825661477 0.17251886821736476
0.2962204915278548 0.3346092634184397 0.14534129669324625
0.29207906925542915 0.3304678411460141 0.18929118398966324
0.28803393978300085 0.3264227116735858 0.2353686965730679
0.28369929728492893 0.32208806917551386 0.2843286567390644
0.27945509247813005 0.317843864368715 0.33802529632316897
0.2745552916651671 0.31294406355575205 0.3973197856224442
0.2692321483202779 0.30762092021086285 0.46506886317088453
0.2612461120152847 0.2996348839058696 0.5396839959136818
0.2535202633194847 0.2919090352100696 0.6331142464412715
0.2417750845146871 0.280163856405272 0.7413925860590304
-0.16876319670697118 -0.05499839293887715 1.866210841505585
0.23035247603237483 0.2687412479229597 0.8961553815350127
0.21210781038781584 0.25049658227840077 1.0984056826867334
-0.13418978744166157 -0.020424983673567543 1.94918832989058
0.19005444250376288 0.22844321439434778 1.4490322704426661
-0.09484859092893415 0.018916212839159896 1.9448314994332323
0.13984754685036713 0.17823631874095203 1.9042064006969532
-0.05677224010198366 0.05699256366611038 1.9310963446398495
0.04591763712405441 0.08430640901463933 2.04
-0.01983658760089536 0.09392821616719868 2.013
0.04155576782595962 0.08653969124277563 2.0389999999999997
-0.024603779820767866 0.09279360979362306 2.013
0.04155576782595962 0.08653969124277563 2.0389999999999997
-0.024603779820767866 0.09279360979362306 2.013
0.123286416634319 0.168270340051135 1.8793083044535308
-0.07095216542117898 0.04644522419321195 1.9301004207901127
-0.11878051624216056 -0.0013831266277696402 1.9448314994332323
0.1643206283655088 0.20930455178232482 1.3998458389951893
0.18357913228493128 0.2285630557017473 1.0646827012007372
-0.16732132980495235 -0.04992394019056143 1.9376261648096675
-0.21120459361068003 -0.09380720399628911 1.8624690653822653
0.19805254635343006 0.24303646977024607 0.8624793964251376
0.20878523231821805 0.25376915573503406 0.7179991306736726
0.21814936937389096 0.26313329279070696 0.6108395909507801
0.22544122417164308 0.2704251475884591 0.5227432426787232
0.2317726711085149 0.2767565945253309 0.44931653070864486
0.23685699592333456 0.28184091934015054 0.38494650510133
0.24028948035823403 0.28527340377505006 0.3262625112862821
0.24395350186986375 0.28893742528667976 0.2745054018037416
0.24695482187404952 0.2919387452908655 0.22647803010211703
0.2506119225171967 0.2955958459340127 0.1823376302920838
0.253994535713201 0.2989784591300171 0.13991361341424535
0.2577814999995942 0.3027654234164102 0.09879651956298777
0.2607028469585563 0.3056867703753723 0.05765328743957914
-0.22636654032833842 -0.1089691507139475 0.09613059014382
0.2642262504907991 0.3092101739076151 0.01639569978321545
0.26690555636612934 0.31188947978294534 -0.02582658455885037
-0.229251345622236 -0.11185395600784509 -0.04247648907232199
0.2710451152709421 0.3160290386877581 -0.06993257952247754
-0.23054953710345158 -0.11315214748906066 -0.11365854021769124
0.2745515349506382 0.31953545836745423 -0.11648923656409774
0.2781095031415349 0.3230934265583509 -0.16650382404620317
0.28179165987260735 0.32677558328942335 -0.22117594675422453
0.2850889414276777 0.3300728648444937 -0.2814108953756797
0.3026575285741146 0.34764145199093066 -0.5352684778631643
-0.07376691934848366 0.0469571623696706 -0.2409368065110152
-0.07376691934848366 0.0469571623696706 -0.2409368065110152
0.2588477703726766 0.3103096340154298 -0.5212378493477472
0.24473304098911888 0.2961949046318721 -0.2751034097896731
0.24087218396667476 0.29233404760942794 -0.21511079282129333
0.237454925323918 0.28891678896667117 -0.16170082912179345
0.23419450217856133 0.28565636582131454 -0.11298755610625913
0.23102883969778695 0.28249070334054016 -0.06776076028264905
-0.27006587534537146 -0.14934179362721722 -0.10989405353532185
0.22777982145047657 0.2792416850932298 -0.025057282040076102
0.22501918784097663 0.2764810514837298 0.015865666385051155
-0.26842101225450465 -0.1476969305363504 -0.04104778439459835
-0.26671098477635263 -0.14598690305819836 0.02618364986931605
0.221991709367062 0.2734535730098152 0.05577328893611461
-0.26466810739314606 -0.14394402567499182 0.09274659283758384
0.21913106202260935 0.2705929256653625 0.09536757311394697
-0.2625925536196661 -0.14186847190151186 0.15966031903346178
0.21598430780939448 0.26744617145214766 0.13508900605513344
-0.2613041713462864 -0.14058008962813215 0.22886731159787116
0.21324231339243696 0.26470417703519017 0.17615669367201314
0.2099411610385888 0.261403024681342 0.2185232232596873
0.20694767360330538 0.2584095372460586 0.2641364104831232
0.20384191503121615 0.25530377867396936 0.31388063230008545
0.20043014435690526 0.2518920079996585 0.3691362022132396
0.19606746210046969 0.2475293257432229 0.4305637539678835
0.19053933722858776 0.24200120087134097 0.5001555716987783
0.18441289506382855 0.23587475870658176 0.5842813478659636
0.1763622425431289 0.2278241061858821 0.6856081924477926
-0.25526345297962594 -0.1345393712614717 1.8652753974747551
0.1666232304670439 0.2180850941097971 0.8185135269761338
0.1549041451781373 0.2063660088208905 1.0126529583366288
-0.20023447695170934 -0.07951039523355508 1.9193194034315553
0.13829128113496686 0.1897531447777201 1.3231150059371257
-0.14328993231193052 -0.02256585059377625 1.9467989566911312
0.10538626722849355 0.15684813087124677 1.8006303203243155
-0.08534609833229836 0.035377983385855905 1.9301004207901127
0.03708561972042382 0.08854748336317703 2.037
-0.02930686378138036 0.0914172179367739 2.013
0.03251884034354786 0.09032455381960569 2.0349999999999997
-0.033933585002808894 0.08980262695966719 2.013
0.03251884034354786 0.09032455381960569 2.0349999999999997
-0.033933585002808894 0.08980262695966719 2.013
0.08970430540786184 0.14751001888391968 1.7538218993866812
-0.09995235070703759 0.023783861255438493 1.9291044969403757
0.11679929028806538 0.1746050037641232 1.281798403521245
-0.16814843718069405 -0.044412225218217985 1.9448314994332323
-0.23358362444085368 -0.10984741247837758 1.9019761558101858
0.1308092048060461 0.18861491828210394 0.9827840318776034
-0.29973194120923785 -0.17599572924676177 1.8615336213514357
0.1405615397434301 0.19836725321948795 0.7941919821745572
0.1489425332370002 0.20674824671305805 0.666713478482696
0.15526280545361223 0.21306851892967005 0.5662902799697976
0.16081183515256114 0.21861754862861899 0.4864416286038118
0.16465708184353114 0.22246279531958899 0.41631164364490475
0.16874732494823608 0.22655303842429392 0.3581377306389159
0.17105727157948367 0.2288629850555415 0.30335603516181825
0.1737065096659849 0.23151222314204273 0.25540462831839184
0.17601585778797565 0.2338215712640335 0.21103634623151812
0.17863117856347996 0.2364368920395378 0.1699757570519425
-0.29324320464232995 -0.16950699267985386 0.2874135528332846
0.18080915791000052 0.23861487138605836 0.13026439869602152
-0.29477652882062566 -0.17104031685814958 0.21831348299981385
0.18337984592323803 0.24118555939929587 0.09193862666490618
-0.29672500279162956 -0.17298879082915347 0.15258811698231514
0.18610764682417974 0.24391336030023758 0.053893290432650065
-0.2986051524246209 -0.1748689404621448 0.08848526289639755
0.18867087754452574 0.24647659102058359 0.015335632986886862
-0.3005421543188181 -0.176805942356342 0.024946905273599367
0.19068924601453102 0.24849495949058886 -0.02417807916147694
-0.30219217097948115 -0.17845595901700506 -0.03906957791775024
0.1935341198114955 0.2513398332875533 -0.06544415309349866
-0.30387985516488286 -0.18014364320240678 -0.10453689941041155
0.19635380572199979 0.2541595191980576 -0.10925243028456462
-0.30546285831811465 -0.18172664635563857 -0.17251612388951548
0.19861847715232409 0.25642419062838195 -0.1559372352125018
0.2014388847030902 0.259244598179148 -0.20742826450624713
0.20408826388576562 0.26189397736182346 -0.26442920341335424
0.2167329798885668 0.27453869336462466 -0.5036995637034757
0.06736428432759829 0.13136322754146212 -0.2262032607891186
-0.09913383472490644 0.027292097136240243 -0.2409368065110152
0.17940707747652052 0.24340602069038433 -0.49177352946537123
0.05553716759215262 0.11953611080601645 -0.0748584075313104
-0.3789604482110681 -0.2525345163499214 -0.6388340371527929
0.16924493565477014 0.23324387886863396 -0.2586069090262712
0.16686629642937595 0.23086523964323977 -0.20257614135990215
0.16494544509330517 0.22894438830716898 -0.15273523859622867
0.16266642111704957 0.2266653643309134 -0.10668453128214964
0.15993343061401472 0.22393237382787853 -0.06370669770163585
0.15780643388187285 0.22180537709573667 -0.023573627182440018
-0.3485630321240281 -0.22213710026288142 -0.03901462773783779
0.15579968634275837 0.2197986295566222 0.01491160626835543
-0.34621550002818136 -0.21978956816703465 0.024876234153844132
0.15396735016079693 0.21796629337466075 0.052514624863442744
-0.3435456781916812 -0.2171197463305345 0.08810926319570465
0.15172018175389437 0.2157191249677582 0.08958122598119066
-0.34138941591143956 -0.21496348405029286 0.15194518952312
0.14905350953599528 0.2130524527498591 0.12634440521674312
-0.3399986114152853 -0.2135726795541386 0.21801194503986937
0.14734097458245188 0.21133991779631572 0.16495374604813512
0.14502151100587282 0.20902045421973664 0.20448532883187012
0.14276186546675446 0.20676080868061827 0.24667284615366047
0.14054694356090205 0.20454588677476587 0.2928314380235511
0.1380238555057308 0.2020227987195946 0.343702236697616
0.1349913394844734 0.19899028269833724 0.4005593111826651
0.13166180035963795 0.19566074357350177 0.4670807677638592
0.12722066199351692 0.19121960520738074 0.5440156244793063
0.12199185236852007 0.1859907955823839 0.6397210299611293
-0.346615733070357 -0.22018980120921028 1.8643399534439251
0.1151488221980637 0.17914776541192753 0.7614514410955119
-0.2656000394576208 -0.1391741075964741 1.8692166880809322
0.10670613350875248 0.1707050767226163 0.9355718577972089
0.09517420195772254 0.15917314517158637 1.2149048567526766
-0.1939920452306183 -0.0675661133694716 1.9467989566911312
0.07353329665352794 0.13753223986739177 1.6621969052108865
-0.11493263501722843 0.011493296843918255 1.9301004207901127
0.02786732901642826 0.09186627223029209 2.033
-0.03847188797790173 0.08795404388324496 2.013
0.02314320583997159 0.0931686214529801 2.03
-0.042909947584427816 0.08587628542445032 2.013
0.02314320583997159 0.0931686214529801 2.03
-0.042909947584427816 0.08587628542445032 2.013
0.059820695593338594 0.1298461112063471 1.6303273420193058
-0.1301643126915767 -0.0013780796826985547 1.9281085730906389
0.07727692359311956 0.14730233920612806 1.1932628269157868
-0.22038798088404862 -0.09160174787517049 1.9448314994332323
-0.30062987284923515 -0.171843639840357 1.8566910092432765
0.08623917415302687 0.15626458976603538 0.9143745551488686
-0.3942098487346155 -0.2654236157257374 1.8605981773206057
0.09312268101286605 0.16314809662587457 0.7455488925714041
0.09848441586596622 0.16850983147897475 0.6253250574162939
0.1027068951582799 0.17273231077128842 0.5320215792151957
0.10622898288160898 0.1762543984946175 0.45659363480888476
0.10889252221846467 0.1789179378314732 0.3915579783470996
0.11118211400241026 0.18120752961541878 0.3354533830168732
0.11326727343985558 0.1832926890528641 0.28602140458114295
0.11493717077235817 0.18496258638536667 0.24066974591540768
0.11644282826968354 0.18646824388269206 0.19887017106074323
0.11822709445265 0.18825251006565852 0.16031804358308216
0.1197736187035834 0.1897990343165919 0.12302748765735368
-0.37925826376322713 -0.25047203075434904 0.21288579972081295
0.12140831769861227 0.19143373331162078 0.086795206991345
-0.38113708428306936 -0.2523508512741912 0.14851624307407923
0.12344533285722101 0.19347074847022952 0.05101062606067111
-0.38248610519535364 -0.2536998721864755 0.0858532649915472
0.12492413361725183 0.19494954923026034 0.014487579549823996
-0.38547065682426906 -0.25668442381539097 0.02424019407604698
0.12657003981390486 0.19659545542691337 -0.022914225023490647
-0.387661402596842 -0.2588751695879639 -0.03797057431950129
0.1283386781728361 0.19836409378584463 -0.06196924230977306
-0.389488897637033 -0.26070266462815483 -0.10149635247465168
0.13014451479086944 0.20016993040387795 -0.10341629618816693
-0.39273325817259686 -0.26394702516371876 -0.16808066197625324
0.1320977470366336 0.2021231626496421 -0.14825244333344628
-0.39509276672524385 -0.26630653371636576 -0.23822854825072146
0.13355735103036886 0.20358276664337738 -0.19651098742697096
0.13522052003619234 0.20524593564920085 -0.25035865864457024
0.13798857205978904 0.20801398767279755 -0.3142046082193421
-0.46485732894843024 -0.33607109593955214 -0.5738871287870272
-0.4314788860206632 -0.3026926530117851 -0.6381996438686293
-0.27678341235591575 -0.1479971793470376 -0.6659738699839705
-0.1256203838417614 0.005190581500828725 -0.2409368065110152
0.043726840066942954 0.1195962680046032 -0.2262032607891186
-0.12590234133796585 0.004908624004624301 -0.24180348567112678
-0.3111290515317499 -0.1803180861891598 -0.6643375705491203
0.11408173209822195 0.1899511600358822 -0.5798423589986241
-0.44394423851711506 -0.31313327317452494 -0.5760291020205919
0.10682613720359929 0.18269556514125954 -0.30858377444082075
-0.4889891052969597 -0.3581781399543696 -0.5311687920702652
0.10473317391117132 0.18060260184883156 -0.24599193785425796
0.10335818087263361 0.17922760881029387 -0.19287189506721225
0.10215592808675908 0.17802535602441932 -0.14537064637880046
-0.43810692303755505 -0.3072959576949649 -0.23374575298793906
0.10058004116287853 0.17644946910053877 -0.10131528791346375
-0.4341408597050756 -0.3033298943624855 -0.16434553615455874
0.09913366384376962 0.17500309178142986 -0.06066615076587597
0.09773060733694602 0.17360003527460627 -0.02241967340427862
-0.42929638453921826 -0.29848541919662813 -0.03720127180072702
0.09643808905898495 0.1723075169966452 0.01416955951092542
-0.4262464939551759 -0.29543552861258576 0.023710160677882685
0.0952909257898223 0.17116035372748256 0.04988262695859239
-0.4240535954898621 -0.293242630147272 0.08422393295521127
0.09352980386216621 0.16939923179982647 0.08465211546069451
-0.4220883798805462 -0.2912774145379561 0.14551591493116856
0.0922930491888338 0.16816247712649404 0.12001210805790873
-0.4196087477648846 -0.2887977824222945 0.20836273032164557
0.09096089012570086 0.1668303180633611 0.15606864965678358
0.08964413843030336 0.1655135663679636 0.19372294310387697
0.08823483033392046 0.1641042582715807 0.23357517290656346
0.08675236559213076 0.162621793529791 0.2767349953414954
0.08528942450041355 0.1611588524380738 0.3251423159159448
0.083425749800374 0.15929517773803425 0.37880609016338174
0.08110907868851382 0.15697850662617407 0.4396528815739261
0.07865409988221794 0.1545235278198782 0.5140305113190295
0.07524183916259436 0.1511112671002546 0.6019316020309361
-0.4446043730448919 -0.3137934077023018 1.8605981773206057
0.07138761979684691 0.14725704773450715 0.7202919037389978
-0.3378449583711509 -0.2070339930285608 1.85090992670282
0.06565775452508392 0.14152718246274415 0.873906977365673
0.05896327219054134 0.1348327001282016 1.1411252095814615
-0.2480896414363054 -0.11727867609371527 1.9458152280621819
0.045826268065326484 0.12169569600298673 1.5566289771387751
-0.14598378478025564 -0.015172819437665491 1.9291044969403757
0.018358780114438908 0.09422820805209915 2.026
-0.047236199896927795 0.08357476544566235 2.013
0.013526518266007781 0.09504227114078954 2.021
-0.05143937231798388 0.08105548084819332 2.013
0.013526518266007781 0.09504227114078954 2.021
-0.05143937231798388 0.08105548084819332 2.013
0.033308460662273456 0.11482421353705521 1.5347186524445633
-0.16231599053380777 -0.029821137367630562 1.9291044969403757
0.04272689982958254 0.1242426527043643 1.1234180942603698
-0.27673534018127804 -0.14424048701510084 1.9438477708042827
-0.3770637688068149 -0.2445689156406377 1.847055871675849
0.0475440050962815 0.12905975797106325 0.8604177847712745
-0.4967184570795455 -0.3642236039133683 1.8568564011972861
0.051608856706456735 0.1331246095812385 0.7081311313382095
0.054395051303209464 0.13591080417799123 0.5920343709063617
0.0569835829607986 0.13849933583558036 0.5071767711681092
0.05869129934998513 0.1402070522247669 0.43319926129394193
0.060209351825806286 0.14172510470058805 0.3720550905367076
0.06169424071609361 0.14320999359087538 0.32033048460217817
0.06270406442910702 0.14421981730388878 0.27240133769632663
0.06349600996797868 0.14501176284276043 0.2286635454389021
0.0645925791742731 0.14610833204905485 0.18997950458979238
0.06551048223352984 0.1470262351083116 0.15297818134674826
0.06644820140678795 0.14796395428156972 0.11759980437835277
-0.4622889755136915 -0.3297941223475143 0.20474427480231164
0.06732507981960129 0.14884083269438303 0.08293764223617411
-0.46489564878977113 -0.3324007956235939 0.14294420509438796
0.06845286372408975 0.1499686165988715 0.04875462785651367
-0.46698536130672097 -0.33449050814054376 0.08271993415243964
0.06942377159882146 0.1509395244736032 0.013886875031904463
-0.4693923164008616 -0.3368974632346844 0.023286133959351252
0.07022682919430877 0.15174258206909053 -0.02192512178506659
-0.4734572317712671 -0.3409623786050899 -0.0365968198216901
0.07112246960366177 0.15263822247844352 -0.05921827127265697
-0.4752935590171829 -0.3427987058510057 -0.09773186579228228
0.07220334108013238 0.15371909395491415 -0.09898083427490469
0.07339009816238601 0.15490585103716775 -0.14216864976252733
0.07431491581075407 0.15583066868553583 -0.18882845911192478
0.07512763445531838 0.15664338733010014 -0.24016964346717493
0.0765019016737204 0.15801765454850214 -0.3007146071508909
-0.545877550379124 -0.4133826972129468 -0.5294825419367089
0.07766565927004203 0.1591814121448238 -0.3698512846674064
-0.4801952370110037 -0.3477003838448265 -0.5544597303590278
-0.348475647634608 -0.21598079446843077 -0.6659738699839705
-0.3864011112608569 -0.2525676023638551 -0.6643375705491203
0.05180873660236548 0.13875841481318563 -0.562294498134192
-0.5244496621678704 -0.3906161532708686 -0.5430406512440822
0.04820957591138363 0.13515925412220375 -0.29678002350592597
0.04738423798466803 0.13433391619548818 -0.2372584962736334
0.046762379998147474 0.13371205820896762 -0.18599805394322355
0.04615310655039603 0.13310278476121618 -0.13992725213113613
0.04529397714887068 0.13224365535969082 -0.09711327136405744
0.04468338409293435 0.1316330623037545 -0.058204755627403675
-0.5211232543965766 -0.38728974549957484 -0.09613919834974138
0.04410771340317114 0.13105739161399127 -0.021540470525679457
-0.5182945927930253 -0.3844610838960235 -0.03593741766274073
0.04359611906568486 0.130545797276505 0.013639526112761128
-0.5158724215216272 -0.3820389126246254 0.022968113920452678
0.042893023845109124 0.12984270205592927 0.04775196198799925
-0.511824614743062 -0.3779911058460602 0.08134126858323232
0.04227493292366813 0.12922461113448827 0.08143747816471877
-0.509610636058178 -0.3757771271611763 0.1405868044106724
0.04155899963358713 0.12850867784440728 0.11488596273885232
-0.5068814306030306 -0.37304792170602885 0.20142735724292218
0.04098761140564845 0.12793728961646858 0.14950140449795854
-0.5045856428298758 -0.3707521339328741 0.26539396612428295
0.04035492227469603 0.12730460048551617 0.18530020644718664
0.03977449041714943 0.12672416862796956 0.22375191797124072
0.03910006452406736 0.1260497427348875 0.2649722103046086
0.03839006881403061 0.12533974702485076 0.3107068219746449
0.037587409739647595 0.12453708795046774 0.3623036466315117
0.03659717476625273 0.12354685297707287 0.42109872326897146
0.03547243689400381 0.12242211510482395 0.49175585582853837
0.03391507946531744 0.12086475767613758 0.5749391535093694
-0.5532634658575581 -0.4194299569605564 1.858727289258946
0.032124706805648745 0.11907438501646889 0.6856804745982926
-0.41952054194450766 -0.28568703304750587 1.8489828991893345
0.02955484772236925 0.11650452593318938 0.8305488583122493
0.026394805808927814 0.11334448401974795 1.072264205554994
-0.30710197833151215 -0.17326846943451038 1.9438477708042827
0.020732769020664128 0.10768244723148426 1.4719754499111386
-0.1794549643793148 -0.04562145548231303 1.9310963446398495
0.008659011363922308 0.09560868957474244 2.013
-0.05550851295039792 0.07832499594660383 2.013
0.0037689423128704222 0.09592598747910941 2.004
-0.05943301913374424 0.07539042536455137 2.014
0.0037689423128704222 0.09592598747910941 2.004
-0.05943301913374424 0.07539042536455137 2.014
0.00892530291563688 0.10108234808187587 1.4490692013671898
-0.197166110802036 -0.062342666303740385 1.9291044969403757
0.01136430799300983 0.10352135315924882 1.0584920047497004
-0.33901678613193575 -0.20419334163364017 1.9418803135463838
-0.46371897256476524 -0.32889552806646966 1.8460923579191064
0.01271835057435879 0.10487539574059777 0.8199502069880791
-0.6120100445876437 -0.47718660008934816 1.8549855131356265
0.013796124836099766 0.10595317000233875 0.675390590259164
0.014571278744940585 0.10672832391117958 0.5668414189528994
0.015218827285086521 0.10737587245132552 0.4840453981587529
0.01570340131336807 0.10786044647960706 0.4146451029889872
0.01608489092706964 0.10824193609330862 0.3555526470048376
0.016495737286875683 0.10865278245311467 0.3065823951342735
0.016758975723799557 0.10891602089003855 0.2606385526594398
0.017037079366875974 0.10919412453311496 0.21993176327417074
0.017276285075289242 0.10943333024152822 0.18202469774736266
0.01750390269423491 0.1096609478604739 0.1464109361879232
-0.5524322958736907 -0.4176088513753951 0.26191718927549323
0.01777947466790849 0.10993651983414747 0.11277519701924087
-0.5555171765462665 -0.42069373204797095 0.19901505356336624
0.018045274104325874 0.11020231927056486 0.07972300494019836
-0.5576360447349926 -0.42281260023669703 0.13865802203308697
0.018308591519260748 0.11046563668549973 0.04674929611948483
-0.5607720457536546 -0.425948601255359 0.08033860271471789
0.018572062390309823 0.11072910755654881 0.013321506073862552
-0.5628654129121897 -0.42804196841389414 0.022579422761798862
0.01879431706755702 0.11095136223379601 -0.02104591890646743
-0.567141760245024 -0.43231831574672847 -0.0354428660435287
0.019086124003580833 0.11124316916981983 -0.057046452032828474
-0.5695723141378056 -0.43474886963951004 -0.09469131885652239
0.019356385748043017 0.11151343091428201 -0.09524570845321018
-0.573791179986434 -0.43896773548813844 -0.1566418391473138
0.019662516865275637 0.11181956203151462 -0.13672525551486298
0.01993969824318045 0.11209674340941944 -0.18195461798793608
0.02019091302261653 0.11234795818885551 -0.231921393085474
0.020536921794751258 0.11269396696099024 -0.29003502297170036
-0.568275593559069 -0.4334521490607734 -0.5297183922766455
0.02152071639734091 0.1136777615635799 -0.4447709239387237
-0.581906004650218 -0.44708256015192244 -0.6524242259668976
0.022310476859214414 0.1144675220254534 -0.5569538448276258
-0.4284172576082341 -0.29359381310993854 -0.6659738699839705
-0.40180233354624395 -0.2663402529785632 -0.6725430282465747
-0.40180233354624395 -0.2663402529785632 -0.6725430282465747
-0.4730955385312822 -0.33763345796360145 -0.6667920197013955
-0.0066679564172068785 0.09045632887080222 -0.5546649934105259
-0.006420404004549495 0.0907038812834596 -0.4419647982356403
-0.6416425303772417 -0.506180449809561 -0.6510211631153558
-0.006303857352323442 0.09082042793568566 -0.36033538540495175
-0.6243855361033601 -0.4889234555356794 -0.5265464258558273
-0.006110266236324259 0.09101401905168484 -0.2872246060824397
-0.006024327927797616 0.09109995736021148 -0.23046581948870323
-0.005936802474828163 0.09118748281318094 -0.1803372436058211
-0.005852143920215453 0.09127214136779364 -0.13544445686835374
-0.6332880172285666 -0.4978259366608859 -0.2202973671995919
-0.0057477124723475295 0.09137657281566157 -0.09407848163393064
-0.6287827495164514 -0.4933206689487707 -0.15524116696417836
-0.005677322359133767 0.09144696292887533 -0.056467300235540877
-0.624012193238549 -0.48855011267086823 -0.093822591160591
-0.005601159573589648 0.09152312571441945 -0.020881068366730086
-0.6212681106990634 -0.4858060301313827 -0.03511316496405401
-0.005522708875466479 0.09160157641254263 0.013180163834352073
-0.6173929463436268 -0.4819308657759461 0.022402744962410764
-0.005432358150151702 0.0916919271378574 0.046122629951663316
-0.6142343319483029 -0.4787722513806222 0.07958660331333207
-0.005354304045718422 0.09176998124229067 0.07865145917487312
-0.6108354727641849 -0.4753733921965042 0.13737216711469666
-0.0052647416207582615 0.09185954366725084 0.11096596925957389
-0.6077729653903134 -0.4723108848226327 0.19690428784375477
-0.005195172959855592 0.09192911232815351 0.14447939349415112
-0.6045405938402111 -0.46907851327253036 0.2592130295042123
-0.005118781589164101 0.092005503698845 0.1792171188617992
-0.005040419223206584 0.09208386606480251 0.21611160857710077
-0.004942863965931306 0.0921814213220778 0.25506670711565127
-0.004861633215281077 0.09226265207272803 0.2997083504003212
-0.004753881849192878 0.09237040343881622 0.34880164737816344
-0.004626061281295832 0.09249822400671327 0.40496467256901086
-0.004479231261126124 0.09264505402688297 0.47205135289464223
-0.004287866944705877 0.09283641834330322 0.5524454464080638
-0.6762897573683715 -0.5408276768006908 1.8549855131356265
-0.004058569647895449 0.09306571564011365 0.6576171536733967
-0.5122282621172718 -0.3767661815495911 1.848019385432592
-0.0037451381782435474 0.09337914710976555 0.7987529043397387
-0.003342873881476044 0.09378141140653305 1.0279964172522649
-0.37371659838112425 -0.23825451781344348 1.9438477708042827
-0.0026197474849728765 0.09450453780303622 1.395289313481397
-0.21625492752750103 -0.08079284695982025 1.9320922684895865
-0.0011309471939280839 0.09599333809408102 1.9969999999999999
-0.06320266507094201 0.07225941549673875 2.014
-0.006027889874814257 0.09581056592911406 1.988
-0.06680762847286235 0.06894012458526595 2.013
-0.006027889874814257 0.09581056592911406 1.988
-0.06680762847286235 0.06894012458526595 2.013
-0.01390448362861635 0.08793397217531197 1.3823423034348175
-0.23620428761397905 -0.10045653455585073 1.9301004207901127
-0.01777201464353194 0.08406644116039638 1.0220940454785676
-0.4104876958756132 -0.2747399428174849 1.9418803135463838
-0.563259867657566 -0.42751211459943766 1.844165330405621
-0.019870094671963608 0.0819683611319647 0.7920083080425394
-0.7446961762491681 -0.6089484231910397 1.851243737012307
-0.021506061391334548 0.08033239441259377 0.6510690454575876
-0.02274892405231394 0.07908953175161437 0.5479467049878027
-0.023810762869086063 0.07802769293484225 0.4694812003380471
-0.024543484035315276 0.07729497176861305 0.4017378624290187
-0.025208355431327437 0.07663010037260089 0.3458012030996416
-0.025767411712138977 0.07607104409178934 0.2969587325067402
-0.026235742813377847 0.07560271299055048 0.2532094252677218
-0.02664132413601422 0.0751971316679141 0.21338292665062222
-0.027045378041672452 0.07479307776225587 0.17687746979049634
-0.027441173018218357 0.07439728278570996 0.14254785080037904
-0.02786288560028655 0.07397557020364177 0.10975981741979592
-0.6599908294135944 -0.5242430763554661 0.19358737028436535
-0.02821238692211035 0.07362606888181797 0.07736560425648283
-0.6621888300662724 -0.526441077008144 0.13480045727791606
-0.028623410879271834 0.07321504492465648 0.0453706305502775
-0.6676988979496236 -0.5319511448914952 0.07833327097768905
-0.029103153344762465 0.07273530245916586 0.012968150475086357
-0.671128065341318 -0.5353803122831896 0.02204938936363457
-0.029522423761429058 0.07231603204249926 -0.020551367287255397
-0.6763976764532749 -0.5406499233951465 -0.03461861334484198
-0.02993254920609833 0.07190590659783 -0.055598572539609474
-0.030314892880558202 0.07152356292337012 -0.09267780945079519
-0.0308224113742374 0.07101604442969092 -0.13320305923696255
-0.03128891792536402 0.0705495378785643 -0.17750683843711987
-0.03171900466124715 0.07011945114268117 -0.22658428989731452
-0.01137759637507445 0.09046085942885387 -0.06978326125800122
-0.03378101193951878 0.06805744386440954 -0.43424795255216087
-0.4852017566814709 -0.3495220390676273 -0.6716763490864632
-0.4852017566814709 -0.3495220390676273 -0.6716763490864632
-0.5726045643175747 -0.43692484670373105 -0.6659738699839705
-0.020723202352745426 0.0855640709939055 -0.07041765454216486
-0.02216646820293973 0.0841208051437112 -0.06688792196440375
-0.05751505443686237 0.048772218909788556 -0.22609909869839095
-1.1025979104248558 -0.9669181928110122 -0.5337103188159442
-0.05662395674488011 0.04966331660177081 -0.17669815124606236
-1.0921408485034316 -0.9564611308895881 -0.4209216829454254
-0.05576836690133188 0.05051890644531905 -0.13256265991370791
-1.0839858361565544 -0.9483061185427109 -0.31923906264243185
-0.05461755012141679 0.05166972322523414 -0.09174402799537157
-1.0773623948983169 -0.9416826772844733 -0.2252747761209505
-0.05402780911304265 0.05225946423360828 -0.055164208691643776
-1.0695781639270205 -0.9338984463131769 -0.1362454603119076
-0.053279111875528105 0.05300816147112282 -0.020386516747518055
-1.0658344292471893 -0.9301547116333457 -0.05104871713866382
-0.05251658235479242 0.05377069099185851 0.012862143795453498
-1.0602824456245963 -0.9246027280107526 0.032614721767042804
-0.051646911414943514 0.05464036193170741 0.0449946308495846
-1.0530894398947066 -0.917409722280863 0.11568257457985119
-0.05090494463536584 0.05538232871128509 0.07672267679728768
-1.0452225273939422 -0.9095428097800985 0.19930751235049593
-0.050168503299511176 0.05611877004713975 0.10855366558001796
-1.038326933346121 -0.9026472157322774 0.2852549101074916
-0.049416059635454236 0.05687121371119669 0.1410026166453614
-1.0344848811408491 -0.8988051635270056 0.3762645167468
-0.048613090872934896 0.05767418247371603 0.1745378207191935
-1.0254304409905044 -0.8897507233766608 0.4712053229603963
-0.04780888275968628 0.05847839058696464 0.21010850833884798
-1.0181905573778458 -0.8825108397640022 0.5752061501016772
-0.04701784623226284 0.05926942711438808 0.24887576762255295
-1.0066852593810436 -0.8710055417672 0.6878133776832247
-0.04613063160845569 0.06015664173819524 0.2914594967195784
-0.9963035405855808 -0.8606238229717371 0.8166365143935356
-0.04517372074665241 0.06111355259999852 0.3398003145425979
-0.9823197215408948 -0.8466400039270511 0.9638927244751396
-0.0438941884795302 0.062393084867120724 0.39367083707903844
-0.9658407475538949 -0.8301610299400513 1.1390639794172177
-0.042589101192794944 0.06369817215385598 0.4600573076305315
-0.9482429544247544 -0.8125632368109107 1.3587539849199681
-0.04075856717381512 0.06552870617283581 0.5380494738632283
-0.9269443166904188 -0.7912645990765751 1.6456396115315126
-0.03852255232497046 0.06776472102168046 0.6389082730567993
-0.8180105167757353 -0.6823307991618917 1.843760184765668
-0.6198054354726311 -0.4841257178587875 1.843201816648878
-0.03555354094859955 0.07073373239805138 0.7756285741779128
-0.45088727431784775 -0.31520755670400413 1.9418803135463838
-0.031684337048014044 0.07460293629863689 0.9945496438679806
-0.02479531978270262 0.08149195356394831 1.3405135017458676
-0.25795350400339206 -0.12227378638954843 1.9310963446398495
-0.010909126126456595 0.09537814722019433 1.98
-0.07023851615154496 0.06544120146229866 2.013
-0.01576193727061104 0.09469720868894353 1.969
-0.07348638849533662 0.06177176301444259 2.013
-0.01576193727061104 0.09469720868894353 1.968
-0.07348638849533662 0.06177176301444259 2.013
-0.035924489534560136 0.07453465642499443 1.337525730196657
-0.2815479211981664 -0.14628976968838722 1.9310963446398495
-0.49518017117927 -0.3599220196694908 1.940896584917434
-0.0459348188361728 0.06452432712338177 0.9925821866100816
-0.6778449303600892 -0.54258677885031 1.828749110297737
-0.05158065334727055 0.05887849261228403 0.77466506042117
-0.055769292357794015 0.054689853601760555 0.6361019409643097
-0.8821254258580814 -0.7468672743483022 1.7988588712858344
-0.05912707059514771 0.051332075364406864 0.5371497255791761
-1.0209743801676758 -0.8857162286578968 1.6420406183953038
-0.06177770485557649 0.04868144110397808 0.4592005901116665
-1.0509534866650336 -0.9156953351552544 1.3647510075520235
-0.06366439367976326 0.04679475227979131 0.3928641345440404
-1.0696786510894258 -0.9344204995796466 1.1430974920922077
-0.06540462350303428 0.04505452245652029 0.33830009240333697
-1.0875755477356068 -0.9523173962258276 0.9668931687536615
-0.06701729287332205 0.04344185308623253 0.2914594967195784
-1.1016561961814682 -0.9663980446716889 0.8180113233403261
-0.06804696815362299 0.04241217780593159 0.2476375797239333
-1.1151721688284972 -0.979914017318718 0.690289753480464
-0.06918058404225516 0.04127856191729941 0.20901703556825654
-1.1251844140856795 -0.9899262625759004 0.575751886486973
-0.07033564167671975 0.04012350428283482 0.17360196109067233
-1.1374689940967881 -1.002210842587009 0.4735449720316992
-0.07149129416151234 0.03896785179804223 0.14022999956785256
-1.1444426020232812 -1.009184450513502 0.3770371338243088
-0.07241722592518504 0.038041920034369535 0.10764905170018448
-1.15104359724773 -1.015785445737951 0.2864610619472696
-0.07347727630460982 0.03698186965494475 0.07607974933809254
-1.1576355361809436 -1.0223773846711643 0.1999504398096911
-0.07454934363429655 0.03590980232525802 0.04461863114889169
-1.162869138123137 -1.0276109866133578 0.11568257457985119
-0.07581128840479906 0.03464785755475551 0.012756137115820639
-1.1696528974706055 -1.0343947459608263 0.03257938620716518
-0.07708758023371005 0.03337156572584452 -0.02027661638769316
-1.1746198723151466 -1.0393617208053674 -0.05093881677883892
-0.07801541920850971 0.032443726751044864 -0.05472984484367808
-1.1811450852584016 -1.0458869337486225 -0.1362454603119076
-0.07920585593854594 0.03125329002100863 -0.09151058263151565
-1.1874595063966042 -1.052201354886825 -0.2248078853932387
-0.080411675449149 0.03004747051040557 -0.13128186126719865
-1.194860395979875 -1.0596022444700959 -0.3185986633191772
-0.08167855425287808 0.02878059170667649 -0.17508077686394738
-1.2061533533172293 -1.0708952018074502 -0.4209216829454254
-0.08285652787166901 0.027602618087885555 -0.223673142703773
-1.2187840967832226 -1.0835259452734436 -0.5341955100148679
-0.03081565074286205 0.07964349521669252 -0.07422401424714675
-0.7387176012005362 -0.603459449690757 -0.6599521585971182
-0.6309882579633461 -0.4957301064535669 -0.6667920197013955
-0.04041732453857914 0.07392587876246964 -0.07422401424714675
-0.10920890937262122 0.005134293928427555 -0.2241583339026966
-0.10746426586158093 0.006878937439467839 -0.17508077686394738
-0.10558642450072553 0.008756778800323245 -0.13096166160557135
-1.0864919508901938 -0.9520077977004711 -0.25840112693324224
-0.10377809180455715 0.010565111496491628 -0.09104369190380385
-0.10241846507469186 0.01192473822635691 -0.05458505689435618
-1.0372747772315811 -0.9027906240418584 -0.10641914275159625
-0.10097434172568627 0.013368861575362503 -0.020166716027868264
-1.0222963044435767 -0.8878121512538539 -0.039399278997224924
-0.0992915583714037 0.015051644929645072 0.012685465996065402
-1.015214613924286 -0.8807304607345633 0.025123583072987465
-0.09763126226532345 0.01671194103572532 0.044367964681763086
-1.005773600462048 -0.8712894472723253 0.08886126259709046
-0.09622480972620874 0.018118393574840033 0.07565113103196244
-0.9965590266600333 -0.8620748734703105 0.1528024261353802
-0.09462849762528339 0.019714705675765387 0.10674443782035099
-0.9871972139393917 -0.852713060749669 0.21801194503986937
-0.09342840466479639 0.020914798636252382 0.13907107395158935
-0.0917365414685682 0.02260666183248057 0.17173024183363006
-0.9708389339449238 -0.8363547807552011 0.3584342377235984
-0.09043801321159022 0.02390519008945856 0.20737982641236943
-0.08880603752968538 0.02553716577136339 0.24516120392669397
-0.08718184808876597 0.0271613552122828 0.28733506987920704
-0.08514156427813664 0.029201639022912132 0.33379942598555423
-0.08268090846840367 0.03166229483264509 0.3864105142640562
-0.07998634000599733 0.03435686329505145 0.44977669740415094
-0.07658812440739299 0.03775507889365579 0.5263527461705494
-0.8502237942457799 -0.7157396410560571 1.2074621971980808
-0.8003213086833876 -0.6658371554936648 1.4499382477862939
-0.07222518355871124 0.04211801974233753 0.6230057245326915
-0.7260832142201658 -0.591599061030443 1.7699747711364293
-0.06673245996968794 0.04761074333136084 0.7573218127998005
-0.5450495168228386 -0.4105653636331159 1.9418803135463838
-0.05924352545878583 0.05509967784226295 0.9650377849994947
-0.046280978736918985 0.06806222456412979 1.2937050808082333
-0.3074653269025911 -0.17298117371286842 1.9301004207901127
-0.020573678694245062 0.09376952460680371 1.948
-0.07654278276218006 0.05794137042754263 2.013
-0.025331812796676 0.09259751217194856 1.938
-0.07939973513035808 0.05396000427380431 2.013
-0.025331812796676 0.09259751217194856 1.938
-0.07939973513035808 0.05396000427380431 2.013
-0.05745917075117815 0.060470154217446406 1.296692852357444
-0.33661570396061846 -0.20325596455645606 1.9301004207901127
-0.07379333720174545 0.04413598776687911 0.9699564281442423
-0.6012518304010548 -0.46789209099689233 1.9418803135463838
-0.779267603212658 -0.6459078638084955 1.7121639457318643
-0.08325133674253937 0.03467798822608519 0.7621393815835142
-0.08992726234058816 0.028002062628036395 0.6248766125943513
-0.8169333520550102 -0.6835736126508478 1.3264596357167515
-0.09541260305590553 0.02251672191271903 0.5281522427386539
-0.8409975778455931 -0.7076378384414308 1.0671014648859345
-0.09983422564086929 0.01809509932775527 0.4523468499607461
-0.8558116227295742 -0.7224518833254118 0.8764220217989453
-0.10325566173595864 0.014673663232665918 0.38883062186905026
-0.866358657528518 -0.7329989181243556 0.7300657941732168
-0.10601965935895906 0.011909665609665498 0.3345495370551847
-0.8792804217588062 -0.7459206823546437 0.6165912992362372
-0.10858137373797175 0.00934795123065281 0.28802247435260225
-0.8851851488935134 -0.7518254094893511 0.5183029729400049
-0.11040781971041744 0.00752150525820712 0.24516120392669397
-0.8963797873217254 -0.7630200479175631 0.43769942216205204
-0.1124426603163482 0.00548666465227636 0.20737982641236943
-0.9030545317445022 -0.7696947923403398 0.3645519053775336
-0.11406173960444352 0.0038675853641810393 0.17173024183363006
-0.9090687378348128 -0.7757089984306503 0.29853922149824513
-0.11591891961407964 0.002010405354544914 0.13868476541283492
-0.911379075803282 -0.7780193363991196 0.23680713425645625
-0.11766759591927965 0.0002617290493449054 0.10674443782035099
-0.9169699656493289 -0.7836102262451665 0.18001816208686308
-0.11939075622552872 -0.0014614312569041638 0.07543682187889739
-0.9202011339333507 -0.7868413945291882 0.12537085454305388
-0.12114020271832358 -0.003210877749699026 0.04424263144819878
-0.9261141567987143 -0.7927544173945519 0.07269327546729544
-0.9308403095826587 -0.7974805701784963 0.020459289169141692
-0.12320836851776878 -0.005279043549144227 0.012650130436187783
-0.12503364582159734 -0.007104320852972773 -0.02005681566804337
-0.9359620437355474 -0.802602304331385 -0.03203595488895694
-0.12710988644414678 -0.009180561475522209 -0.05444026894503428
-0.93986628022443 -0.8065065408202676 -0.0855696780492427
-0.12907583316828286 -0.01114650819965829 -0.09104369190380385
-0.9436022636711741 -0.8102425242670116 -0.141000999768968
-0.1310714001294758 -0.013142075160851224 -0.13064146194394402
-0.9492453225618334 -0.815885583157671 -0.1998045888554438
-0.1334217575736573 -0.015492432605032733 -0.1746764332684186
-0.9595552680612913 -0.826195528657129 -0.26444071147580045
-0.1351296541275741 -0.01720032915894955 -0.22270276030592584
-0.9697632139397074 -0.8364034745355451 -0.3357523096551213
-0.9824227189901427 -0.8490629795859803 -0.4170658663662823
-0.04838223136874828 0.06954709359987629 -0.06914886797383757
-0.04513908075543799 0.07279024421318657 -0.0854504529050604
-0.1935476354246179 -0.06018789602045551 -0.09155405668399327
-0.046778463073224544 0.07442970379561817 -0.08840127433137968
-0.046778463073224544 0.07442970379561817 -0.08840127433137968
-0.04990360867856279 0.07130455819027992 -0.08590572032962764
-0.2086992075094644 -0.0768113675540753 -0.09079110621162666
-0.05630454374421649 0.06490362312462622 -0.07857151968633605
-1.0899723049271037 -0.9580844649717146 -0.5024394810576087
-0.0580218796442888 0.06318628722455391 -0.06978326125800122
-1.0801367771805068 -0.9482489372251178 -0.41200711596561307
-0.16304001882397065 -0.04183185195512795 -0.2241583339026966
-1.0739088964424952 -0.9420210564871062 -0.3342967360583506
-0.1607229587618376 -0.039514791892994894 -0.17548512045947612
-1.063794999512877 -0.9319071595574879 -0.2636320242847429
-0.15791563825279084 -0.03670747138394814 -0.13128186126719865
-1.0552712677818166 -0.9233834278264276 -0.1998045888554438
-0.15521008737230638 -0.03400192050346368 -0.09127713726765975
-1.0505584061943214 -0.9186705662389323 -0.1412344451328239
-0.15284950816796572 -0.03164134129912301 -0.05458505689435618
-1.0464065640949582 -0.9145187241395691 -0.0857144659985646
-0.15035352357731283 -0.029145356708470113 -0.020111765847955817
-1.0404093517316406 -0.9085215117762515 -0.03203595488895694
-0.1481569174210086 -0.026948750552165876 0.012685465996065402
-1.0346789305000301 -0.902791090544641 0.020459289169141692
-0.1456652888295932 -0.02445712196075049 0.044367964681763086
-1.0293911030867946 -0.8975032631314055 0.07269327546729544
-0.14323299006233303 -0.02202482319349032 0.07543682187889739
-1.024383431138896 -0.892495591183507 0.12558516369611894
-0.14115899973874033 -0.019950832869897628 0.10674443782035099
-1.0207298793379402 -0.8888420393825511 0.18031970004680759
-0.13905429843908285 -0.017846131570240134 0.13868476541283492
-1.0174604181593636 -0.8855725782039745 0.23796605987271952
-0.13652800770613646 -0.01531984083729375 0.17126231201936948
-1.010319939333138 -0.8784320993777488 0.29853922149824513
-0.13459437225815088 -0.013386205389308181 0.2068340900270737
-1.0035909812805692 -0.8717031413251801 0.3645519053775336
-0.1319039982849307 -0.010695831416088014 0.24392301602807429
-0.9948300939832215 -0.8629422540278324 0.43708032821274223
-0.12950543667873607 -0.00829726980989337 0.28596026093241655
-0.9847936176969156 -0.8529057777415265 0.5189903774134002
-0.12648633573510115 -0.00527816886625844 0.3322992038462933
-0.9759027255230758 -0.8440148855676867 0.6158411881666068
-0.1230345099795292 -0.0018263431106864958 0.38560381172905817
-0.9644798461903101 -0.832592006234921 0.7316791992432129
-0.11884565541164438 0.0023625114571983324 0.4480632623664208
-0.9498843854938867 -0.8179965455384975 0.8755653042800803
-0.11365448488462379 0.007553681984218921 0.5236535013183927
-0.9355958805873338 -0.8037080406319447 1.0689009614540388
-0.10683972115609922 0.014368445712743497 0.6173930603477124
-0.9049070777157249 -0.7730192377603358 1.3227178595934321
-0.85760160080806 -0.7257137608526709 1.6957842118672377
-0.09867812440579429 0.02253004246304842 0.7505772165026012
-0.6662166377551166 -0.5343287977997275 1.9428640421753332
-0.08705064078174504 0.03415752608709767 0.9483143983073525
-0.06792014884987546 0.05328801801896725 1.2707988322642845
-0.36983433006692373 -0.23794649011153463 1.9301004207901127
-0.030023941657874677 0.09118422521096803 1.926
-0.08204980144923833 0.04983803850615077 2.013
-0.0346378393428138 0.08953334622173696 1.912
-0.0844860766359488 0.045586213427576815 2.013
-0.0346378393428138 0.08953334622173696 1.911
-0.0844860766359488 0.045586213427576815 2.013
-0.0795127939794052 0.044658391585145576 1.2807580707616535
-0.40845434355411947 -0.27838205349059386 1.9301004207901127
-0.7424343757045877 -0.6123620856410621 1.9438477708042827
-0.10240570347808822 0.021765482086462534 0.9591354132257974
-0.9783840626842184 -0.8483117726206928 1.7362517896504328
-0.11602765639546966 0.008143529169081107 0.7573218127998005
-1.0271804794454562 -0.8971081893819306 1.3461039603641787
-0.12571274243280947 -0.0015415568682587005 0.6230057245326915
-0.1335745645874322 -0.009403379022881422 0.5272524944546017
-1.0599088008890452 -0.9298365108255195 1.0850964305669788
-0.13979674473978076 -0.015625559175230008 0.451490132441881
-1.0767299844451221 -0.9466576943815965 0.889272784581921
-0.14460612634203712 -0.020434940777486366 0.3880239193340523
-1.0899134633840832 -0.9598411733205576 0.7405529271281912
-0.14874348981266208 -0.024572304248111312 0.3345495370551847
-1.1054324709654353 -0.9753601809019097 0.6248425210021723
-0.15264714233028212 -0.02847595676573135 0.28870987882599747
-1.111501909114474 -0.9814296190509484 0.5244896132005621
-0.15525287368114427 -0.03108168811659351 0.24578029787600378
-1.1236756862110704 -0.9936033961475448 0.4420330798072209
-0.15815083190967838 -0.03397964634512762 0.20792556279766514
-1.1327655632832394 -1.0026932732197138 0.3683720600746036
-0.16080009678203858 -0.036628911217487806 0.1726661014621512
-1.1409348560784673 -1.0108625660149417 0.30181473019806915
-0.16274264307682737 -0.0385714575122766 0.13868476541283492
-1.146055040480946 -1.0159827504174204 0.2398976025664916
-0.16558441747811875 -0.04141323191356798 0.10704597578029548
-1.150023626641694 -1.0199513365781685 0.18182738984653005
-0.16840814537478238 -0.04423695981023161 0.07586544018502749
-1.15435256787972 -1.0242802778161944 0.12665670946144417
-0.17127784159767892 -0.04710665603312815 0.04461863114889169
-1.1601320964516102 -1.0300598063880846 0.07331994163511694
-0.17382435991265507 -0.049653174348104304 0.012720801555943021
-1.1642998886066753 -1.0342275985431497 0.02060063140865217
-0.17640491105106582 -0.052233725486515045 -0.020166716027868264
-1.1725947612130347 -1.0425224711495091 -0.03231070578851918
-0.1793340666222375 -0.05516288105768673 -0.05472984484367808
