-0.495 6.062001655779399e-17 3.031000827889699e-17
3.134 0.0 1.9190215342639023e-16
-0.495 6.062001655779399e-17 3.031000827889699e-17
3.135 0.0 1.919633857663476e-16
0.0 0.0 1.61
-0.0 0.0 1.585
1.0943421740146262 0.0 1.7547191245817497
-0.4868446808962553 5.962127801415136e-17 0.7806293977829835
3.2948631754656983 0.0 1.614136814201353
-0.49660924939562046 6.081709276993162e-17 0.24328636093032116
3.5897270194921873 0.0 -0.38204702004823393
-0.49619772374698107 6.07666954130943e-17 -0.05280926953021294
-0.3135213341514391 3.839528983329677e-17 -0.2451700900026381
0.2142658364050036 0.0 -0.16755342834351145
0.025618125844811282 0.0018138605927970632 -0.07046574726737317
-0.028009150923660336 -0.0019831542481247998 -0.07704255034566133
-0.028009150923660336 -0.0019831542481247998 -0.07704255034566133
0.025618125844811282 0.0018138605927970632 -0.07046574726737317
-0.311952632658873 -0.022087431009861963 -0.24455408475137516
0.12100933357548223 0.008567920341356988 -0.0948648086944881
-0.4949586170130015 -0.035044949654155146 -0.05280926953021294
2.958840790680928 0.2094971639646177 -0.3156914849872249
3.322466632059231 0.2352432543770968 1.6317343809955898
-0.49626490001639634 -0.03513743945131095 0.24372630010017707
1.1011108144148272 0.07796282704943706 1.7699923084514166
-0.4851010730811248 -0.034346998110466466 0.7797808875680019
0.0 0.0 1.611
-0.0 -0.0 1.586
0.0 0.0 1.609
-0.0 -0.0 1.586
0.0 0.0 1.61
-0.0 -0.0 1.586
1.0829734285453154 0.14979337575489485 1.7530221041517866
-0.48697111089961187 -0.0673562662518379 0.788265989717817
3.37854349983424 0.46730919026768303 1.670888967112766
-0.4963736895491064 -0.06865680046586801 0.24548605677960073
-0.4944732714924028 -0.06839394079770278 -0.05312676012859098
2.933349407379234 0.40573138584772755 -0.31516233398992816
0.26140489471633865 0.03615667807381923 -0.20636175917307478
-0.3105646211853814 -0.04295629215934338 -0.2451700900026381
0.024457928501279733 0.005165240659829469 -0.06858666067357655
-0.02948353024811803 -0.0062265914803423805 -0.08267981012705118
0.024457928501279733 0.005165240659829469 -0.06858666067357655
-0.02948353024811803 -0.0062265914803423805 -0.08267981012705118
0.25665699284231674 0.054203083265589314 -0.20512974867054895
-0.30521372121789014 -0.06445772064016034 -0.24393807950011226
-0.4952184834754759 -0.10458459906826448 -0.05386757152480639
2.840939040763045 0.5999745172481963 -0.30902418242128615
3.7676390622866345 0.7956831861319096 1.8864591603421648
-0.4964356506977491 -0.10484165115777272 0.24856563096859208
1.0795269849462188 0.22798401245369432 1.769143798236435
-0.4841044273020213 -0.10223743484134507 0.793357051007706
0.0 0.0 1.61
-0.0 -0.0 1.586
0.0 0.0 1.609
-0.0 -0.0 1.585
0.0 0.0 1.609
-0.0 -0.0 1.586
1.0505545006587278 0.3007456364708744 1.752173593936805
-0.4863584032105296 -0.13923139393034178 0.8111757655223175
3.826355825765522 1.095383264230776 1.9498104008014165
-0.49728812176014 -0.1423602798278264 0.25340496183700717
-0.49519917374487776 -0.14176226991971533 -0.05482004331994049
2.720727506714135 0.7788714675511775 -0.30119274766129467
0.25370250952870954 0.07262823837756878 -0.20636175917307478
-0.3006564068146199 -0.08606988249520833 -0.24455408475137516
0.023807866995149828 0.008677121100755738 -0.06952620397047486
-0.02670341838645184 -0.009732446640036842 -0.07798209364255965
0.023807866995149828 0.008677121100755738 -0.06952620397047486
-0.02670341838645184 -0.009732446640036842 -0.07798209364255965
0.24645921362534584 0.08982562123099161 -0.20512974867054895
-0.2923465146606955 -0.10654991106979482 -0.24332207424884936
2.8233549483852576 1.0290125025710088 -0.3198188627661393
-0.49796432411957064 -0.18149029247860612 -0.05640749631183066
-0.49864785143831325 -0.18173941388547607 0.2600040493848459
3.619626535821259 1.3192251870874663 1.8873390386818765
1.0356396528569347 0.3774538343319447 1.7674467778064724
-0.4837625454775791 -0.17631424906624196 0.8256004391770031
0.0 0.0 1.609
-0.0 -0.0 1.587
0.0 0.0 1.608
-0.0 -0.0 1.585
0.0 0.0 1.609
-0.0 -0.0 1.585
0.998957224010933 0.4416343688200886 1.7513250837218237
-0.4873788394278148 -0.21546793091173883 0.8544497864863742
3.6484031650643685 1.6129421663672574 1.9542097924999755
-0.5010188947972231 -0.2214981363088758 0.2683628936121083
-0.4992995369885875 -0.2207380161732569 -0.058100779503180176
3.069464366733119 1.3569960010651045 -0.35717692317528793
0.24207943703537346 0.10702219955943726 -0.20697776442433768
-0.28674885696451985 -0.12677034352576194 -0.2451700900026381
-0.026631262127837355 -0.014100527466487872 -0.08267981012705118
0.04357842893646113 0.023073590399707414 -0.13529423475335647
-0.026631262127837355 -0.014100527466487872 -0.08267981012705118
0.04357842893646113 0.023073590399707414 -0.13529423475335647
0.23043536328864006 0.12200924438745107 -0.20389773816802312
-0.2172079557282649 -0.11500569259481798 -0.19219363839402784
-0.5026750832748949 -0.2661527562761565 -0.060534874090745094
3.587272185189023 1.8993628516071162 -0.43199887419304456
3.9856897415847516 2.110314088920673 2.2093745110164065
-0.504758796425309 -0.26725602559807815 0.2798013120283621
0.9736893839358257 0.5155419910670862 1.7665982675914906
-0.4868446919679128 -0.2577709955335432 0.8832991337957453
0.0 0.0 1.608
-0.0 -0.0 1.586
0.0 0.0 1.609
-0.0 -0.0 1.586
0.0 0.0 1.609
-0.0 -0.0 1.586
0.9258664306091946 0.5774227158785513 1.7496280632918604
-0.4925681253046977 -0.3071933653340304 0.9308157058347095
-0.5074823905310605 -0.3164947453685923 0.29299948712403956
3.93032157711593 2.4511710159327316 2.269206238116811
-0.5079345892273146 -0.3167767620728117 -0.06370978007452544
3.4753863339324065 2.1674476461427106 -0.4359145915730403
-0.2152271095345839 -0.13422780868767323 -0.19835369090665694
0.2098798521548427 0.13089295629791742 -0.19342564889655364
0.019946289150337183 0.014491827343611879 -0.06764711737667824
-0.022993638881638703 -0.016705856521108137 -0.07798209364255965
0.019946289150337183 0.014491827343611879 -0.06764711737667824
-0.022993638881638703 -0.016705856521108137 -0.07798209364255965
0.21221980179245664 0.15418671128708805 -0.20512974867054895
-0.17207010956145133 -0.12501625239493624 -0.16632141784098564
-0.514863186958202 -0.37407000142950875 -0.06773132765398053
3.2669678159957156 2.37359105594568 -0.4297764400043983
-0.5121962969964098 -0.37213239245475616 0.3101571147484202
3.9326504335341372 2.8572377877412705 2.3813907264300695
0.8917631385118758 0.6479038450364131 1.7674467778064724
-0.49404448480206653 -0.3589443289351994 0.9791807880886552
0.0 0.0 1.608
-0.0 -0.0 1.586
0.0 0.0 1.608
-0.0 -0.0 1.587
0.0 0.0 1.608
-0.0 -0.0 1.587
0.8388336844021159 0.699510186515621 1.7513250837218237
-0.502324822636151 -0.4188927279715636 1.0487586257171386
-0.5214048121256195 -0.43480368535760033 0.33259401241107195
3.570519460812607 2.9774850252596528 2.277565082344073
-0.5238921662509369 -0.4368779100584972 -0.07259951682911038
2.706521628561691 2.256990252547106 -0.37506222688391716
0.2020663794712352 0.16850478637276747 -0.20574575392181185
-0.1808917588679621 -0.15084709917801634 -0.18418557012761
0.01875999124881109 0.018037383617822547 -0.07140529056427147
-0.043197348270288705 -0.04153344911998611 -0.16442007695720406
0.01875999124881109 0.018037383617822547 -0.07140529056427147
-0.043197348270288705 -0.04153344911998611 -0.16442007695720406
0.157861378944204 0.15178078777811346 -0.17124945985108891
-0.13514751147021783 -0.12994182550788125 -0.1466092498005725
-0.31897842015685707 -0.3066918344399993 -0.04709443875940834
1.6257147346421381 1.563094562943637 -0.24002289237379348
3.294993216340503 3.1680748606438267 2.2392903745666084
-0.5198191655641307 -0.49979648587367237 0.3532711533943
0.796108243299021 0.7654433093941496 1.7708408186663984
-0.5069611189958787 -0.4874337125945492 1.1276700757104183
0.0 0.0 1.607
-0.0 -0.0 1.587
0.0 0.0 1.607
-0.0 -0.0 1.587
0.0 0.0 1.607
-0.0 -0.0 1.587
0.7333217627507752 0.8122955041751457 1.7547191245817497
-0.5219775796755999 -0.578190997169156 1.2490070364527734
2.9432609797834517 3.2602300694364668 2.1517424797652813
-0.24732779854651366 -0.27396331190725587 0.18081499881078117
-0.547731195951363 -0.6067181018858939 -0.08699242395558124
0.7682896215716809 0.8510291623776588 -0.1220222199766243
0.08393103681083229 0.09296983578730653 -0.09794483495080265
-0.15097029262828945 -0.1672287612274822 -0.17617750186119216
-0.03839085389420765 -0.049093883075196625 -0.17099688003549224
0.014976651793894189 0.019152009331532754 -0.06670757407977992
-0.03839085389420765 -0.049093883075196625 -0.17099688003549224
0.014976651793894189 0.019152009331532754 -0.06670757407977992
0.6444162983831122 0.8240738403931377 -0.8180549736771442
-0.12762160126111335 -0.16320137049954456 -0.16200938108214527
0.6701252132688782 0.856950172471347 -0.11577823820852297
-0.5598669514878929 -0.7159528863243244 -0.09672880230584095
2.585608669239334 3.3064534077738448 2.0562756799065482
-0.2262545883010029 -0.2893323585321998 0.17993512047106933
0.6809660437841001 0.8708133302749983 1.772537839096361
-0.5248230399676408 -0.6711390434383663 1.366101446120221
0.0 0.0 1.607
-0.0 -0.0 1.586
0.0 0.0 1.608
-0.0 -0.0 1.587
0.0 0.0 1.608
-0.0 -0.0 1.587
0.6160038738572533 0.9064221747529488 1.7572646552266944
-0.5342071257593558 -0.7860619149475117 1.5239243461067806
2.2754868103309946 3.348277163139767 1.983245777710466
-0.5754336654341906 -0.8467249259049103 0.5015306536357433
0.5829606930461521 0.8578006106968535 -0.11038089803609638
-0.5812839125292403 -0.8553333030917817 -0.11006340743771836
-0.12973357599212149 -0.1908971600339413 -0.18048953862003253
0.5911069076774143 0.8697874015198347 -0.8223670104359845
-0.03147432578996889 -0.054187020103820864 -0.17193642333239054
0.02941043557423322 0.0506337728838982 -0.16066190376961084
-0.03147432578996889 -0.054187020103820864 -0.17193642333239054
0.02941043557423322 0.0506337728838982 -0.16066190376961084
-0.10840965591340196 -0.1866408908526971 -0.16878543884603728
0.526222052426367 0.90595760888353 -0.8192869841796699
0.4919532445859133 0.8469595356038649 -0.1042427464674544
-0.6208100335231376 -1.0688027439143186 -0.13154693792796532
-0.6089152038077559 -1.0483242948692135 0.5939178793054857
2.020696380043515 3.478883585936354 1.9709274809545005
0.5581555834104162 0.9609352086251628 1.7818714514611578
-0.5028716018154799 -0.8657568641518131 1.605381326745005
0.0 0.0 1.608
-0.0 -0.0 1.587
0.0 0.0 1.608
-0.0 -0.0 1.587
0.0 0.0 1.608
-0.0 -0.0 1.588
0.48470327955982484 0.989402492278392 1.7665982675914906
-0.4455917757336719 -0.9095659799331616 1.624048551474598
1.7095003692748063 3.489524410578214 1.9036167879665453
-0.6542483502470718 -1.3354870404246642 0.7285392652813956
-0.6811385579972586 -1.3903767836714598 -0.1647776205581995
0.4225946352121719 0.8626229756111946 -0.10223197267772685
-0.125454206540931 -0.2560838967937808 -0.2229939009571733
0.030113361186405153 0.07351531293908177 -0.2179740448804077
-0.023104216772328108 -0.05640399009981273 -0.167238706847899
0.030113361186405153 0.07351531293908177 -0.2179740448804077
-0.023104216772328108 -0.05640399009981273 -0.167238706847899
-0.10331405417114932 -0.2522191055452874 -0.21313781693696676
1.486210338186218 3.6282637938930598 -0.41728847646819567
-0.472285456187505 -1.1529836504559985 -0.13260523992255874
1.4654199761390951 3.577508583853569 1.893938126229715
-0.7386669798424712 -1.803297009747327 0.9546679985873361
0.4216329981520247 1.029326537569739 1.7835684718911207
-0.3837221339033415 -0.9367752932306899 1.6232000412596166
0.0 0.0 1.608
-0.0 -0.0 1.587
0.0 0.0 1.608
-0.0 -0.0 1.587
0.0 0.0 1.609
-0.0 -0.0 1.586
0.3445718556113766 1.0464821055628597 1.7665982675914906
-0.3151127824611248 -0.9570134145012895 1.615563449324783
1.1770741117466703 3.5748334485375155 1.8437850608661408
-0.8577390449234872 -2.6049967434582606 1.3435742247399651
0.4468970260893788 1.3572488095465696 -0.15207799662307817
-0.3909182754310019 -1.187238520250548 -0.13302856072039612
-0.08672077780207675 -0.2633753763473936 -0.2168338484445442
0.01786128193738304 0.07071683428342475 -0.2001227222393398
-0.01475861793887051 -0.0584326893609519 -0.16535962025410236
0.01786128193738304 0.07071683428342475 -0.2001227222393398
-0.01475861793887051 -0.0584326893609519 -0.16535962025410236
-0.06867443219875637 -0.271897529994383 -0.21929786944959584
0.02295577930239325 0.09088709570036961 -0.07330462490028625
0.3440784211891509 1.3622838930059828 -0.1495380718360539
-0.306334503790483 -1.212847230998957 -0.1331343909198555
0.9078004930418035 3.5941864225594524 1.8160688931652182
-0.7516623268451765 -2.9760002888343524 1.5037120825675183
0.272652441159139 1.0794923660024283 1.7852654923210838
-0.24634614574311975 -0.9753398230848935 1.6130179186798386
0.0 0.0 1.609
-0.0 -0.0 1.587
0.0 0.0 1.61
-0.0 -0.0 1.587
0.0 0.0 1.61
-0.0 -0.0 1.587
0.19386972636369548 1.0856345165665975 1.7682952880214537
-0.17591538030410217 -0.9850935080745854 1.6045328165300234
0.6521605862184624 3.651978346608182 1.817388710674786
-0.5380206433872002 -3.0128158327864156 1.4993126908689591
0.2505013628967886 1.4027611794197872 -0.15165467582524078
-5.099179871388233 -28.554461691329514 -3.0870669182290813
-0.04805329604443702 -0.26908954687833636 -0.21375382218822966
0.015925443934035294 0.08917953282711436 -0.07084060389523462
0.007778301200860539 0.07045497088883101 -0.19448546245794995
-0.006124942491498911 -0.055479035047726846 -0.15314555739442437
0.0077407248665568645 0.07011460871062411 -0.19354591916105163
-0.006162518825802585 -0.05581939722593376 -0.15408510069132267
-0.031205681379846206 -0.2826575259055218 -0.2223778957059104
0.0090764447226699 0.08221340781185538 -0.06468055138260552
-0.13945288949108003 -1.2631484710787972 -0.13525099490904238
0.4056089042019649 3.6739594931909427 1.810789623126947
-0.3354452647967676 -3.0384251979645205 1.4975529341895355
0.12275806284669613 1.1119286230875718 1.7937505944708987
-0.10986672417500015 -0.9951603381654144 1.605381326745005
0.0 0.0 1.609
-0.0 -0.0 1.587
0.0 0.0 1.61
-0.0 -0.0 1.587
0.0 0.0 1.61
-0.0 -0.0 1.587
0.04350383435132006 1.107246522459911 1.7767803901712687
-0.03916176110422113 -0.9967333786231771 1.5994417552401345
0.1465960994367055 3.731119882368581 1.8292670682608958
-0.12071790391324773 -3.072475824249644 1.5063517175866539
-0.09740315607187951 -2.479075866422682 -0.2640463476510647
0.02674194866101678 0.6806280434867884 -0.07249368662965104
0.0030926607576188194 0.07871347250378094 -0.061600525126290974
-0.011288211765308791 -0.2873041746388004 -0.22484191671096204
-0.0007636753101220729 0.024300542389242705 -0.06670757407977992
0.0009142591740898214 -0.029092198635008875 -0.07986118023635627
-0.0007744313004054823 0.024642803549654573 -0.06764711737667824
0.0009142591740898214 -0.029092198635008875 -0.07986118023635627
-0.002325896107364611 0.0740112141912164 -0.05790449361871351
0.00903140509774572 -0.28738396999780835 -0.22484191671096204
0.07858565740245005 -2.500636165112434 -0.266268781839711
-0.021208132502489135 0.6748537186452079 -0.07185870543289498
0.09731666100567805 -3.0966663640991388 1.5177901360029076
-0.08278968117439425 2.6344103706176734 1.2912214635271113
-0.035205214082448796 1.12024807636659 1.7971446353308247
0.0313489300092066 -0.9975391274916849 1.6002902654551159
-0.0 0.0 1.611
0.0 -0.0 1.587
-0.0 0.0 1.612
0.0 -0.0 1.587
-0.0 0.0 1.612
0.0 -0.0 1.587
-0.11332012783586376 1.1060149577960905 1.7827199616761393
0.1014002095818303 -0.9896754500983579 1.5951992041652268
0.320724525707016 -3.130301117183786 1.5415468511751271
-0.20374794355702405 1.9885988261561383 0.9793045920992673
-0.06851399936017191 0.6687029882329493 -0.07154121483451693
0.15354838614003138 -1.498646489900766 -0.16033275218090703
0.029787656522279576 -0.29073029037747483 -0.2285379482185395
-0.3796119677556247 3.7050480132202184 -2.9124728279710372
-0.004373690351431095 0.025654537846972813 -0.07140529056427147
0.004891627366732161 -0.02869257522358801 -0.07986118023635627
-0.004373690351431095 0.025654537846972813 -0.07140529056427147
0.004891627366732161 -0.02869257522358801 -0.07986118023635627
0.048983320444982915 -0.28731902518316743 -0.2279219429672766
-0.0765198897762163 0.4488389096104616 -0.3560510352299618
-0.11280295217060574 0.6616626631476477 -0.0714353846350576
0.25234438189276326 -1.4801638834858484 -0.1598036011836103
0.5377345806319023 -3.154162970392552 1.567503262196626
-0.26909367310319354 1.57840936744595 0.7844115398530969
-0.18898355195503172 1.1085114163373109 1.8030842068356954
0.16755059382742626 -0.9827931804138793 1.598593245025153
-0.0 0.0 1.612
0.0 -0.0 1.587
-0.0 0.0 1.613
0.0 -0.0 1.587
-0.0 0.0 1.613
0.0 -0.0 1.587
0.23604168964944575 -0.966449077695282 1.5951992041652268
-0.2617802781484539 1.071833152656736 1.769143798236435
-0.3330250592423428 1.3635377794158887 0.6876249224847955
0.7766323358530661 -3.1798433819391643 1.603578274124811
-0.16043214798242683 0.6568733755488682 -0.07196453563235432
0.3628597699955485 -1.4856930170502338 -0.16276684676847197
0.06971417972940627 -0.2854377326387946 -0.22976995872106531
-0.10728133824310751 0.43925270384629506 -0.3535870142249102
-0.007526664859141179 0.023478007298833627 -0.06764711737667824
0.00878110900233136 -0.02739100851530591 -0.07892163693945796
-0.007526664859141179 0.023478007298833627 -0.06764711737667824
0.008885646014263877 -0.027717091950011933 -0.07986118023635627
-0.14020086526294565 0.43733007906530014 -0.3591310614862763
0.06541103833880128 -0.20403736107334763 -0.16755342834351145
-10.327296453958237 32.21404779685066 -3.600343385606903
0.47841914201758234 -1.4923380166912592 -0.16678839434792705
-0.3701021039260235 1.1544635054044825 0.5939178793054857
0.6160143907568689 -1.92154036788435 0.9885433146662415
-0.3197028508352818 0.9972525688124139 1.6792017154483958
0.3041942739377638 -0.9488764967527923 1.5977447348101714
-0.0 0.0 1.614
0.0 -0.0 1.587
-0.0 0.0 1.615
0.0 -0.0 1.587
-0.0 0.0 1.616
0.0 -0.0 1.587
-0.3484166700780953 0.8700027006226264 1.502711590732243
0.3694672537587027 -0.9225663872215091 1.5935021837352639
-0.39596073733087483 0.9887210928833371 0.5217678554491154
1.239630874965883 -3.0953806221550013 1.6334941376750134
1.015894742908639 -2.5367074706291763 -0.29082138811427893
-0.264324869424919 0.6600239597888867 -0.07566859261343137
0.07555818114803936 -0.18867013922782072 -0.1589293548258307
-0.17454525567531587 0.435842647208454 -0.3671391297526942
0.012302974956580615 -0.025620887540067944 -0.07798209364255965
-0.016156918918882993 0.033646707733342225 -0.10241021936191567
-0.016156918918882993 0.033646707733342225 -0.10241021936191567
0.012302974956580615 -0.025620887540067944 -0.07798209364255965
0.08627095901204013 -0.17965886678807108 -0.15584932856951617
-11.579063063920357 24.11334442499023 -20.917690317134625
1.280133504486033 -2.6658720082305485 -0.3147390131920908
-0.3047526971002395 0.6346460597939568 -0.07492778121721595
-0.4124441374107738 0.8589129782394277 0.46677545921712604
1.4410277260902324 -3.0009334687403952 1.6308545026558778
-0.3584899805726132 0.7465537001340696 1.3279184864460531
0.4308751779278497 -0.8972955335157734 1.5960477143802085
-0.0 0.0 1.615
0.0 -0.0 1.587
0.0 -0.0 1.587
-0.0 0.0 1.616
-0.0 0.0 1.616
0.0 -0.0 1.586
-0.3730911378923463 0.6540983956467176 1.2074300359186798
0.4866178158314787 -0.8531318498385864 1.574834959005671
1.5488206387656431 -2.7153716399810404 1.5314282502684409
-0.4266931894789582 0.7480727959614527 0.4219016638918227
1.3888544320029825 -2.4349210246374535 -0.2983353322758924
-0.3552195975431541 0.6227662500048256 -0.07630357381018743
0.1006957552459963 -0.17653845204397708 -0.1589293548258307
-0.013697567032804909 0.020499857755792644 -0.06764711737667824
0.04071221312528122 -0.0609301327741615 -0.2010622655362381
-0.013697567032804909 0.020499857755792644 -0.06764711737667824
0.040902457111847965 -0.06121485302076974 -0.20200180883313643
0.1820607492441977 -0.2724731664740631 -0.2562581845253704
1.4363707034375879 -2.149680672088578 -0.2751585185942959
-0.47289743159329856 0.7077410212722393 -0.09059065073719895
1.7851264197145582 -2.671630486831223 1.5741023497444646
-0.43804946800150457 0.6555873581436032 0.3862665911334936
-0.3771969974294395 0.5645152000130187 1.0886386058212691
0.521549082961672 -0.7805533630733403 1.5052571213771875
-0.0 0.0 1.616
0.0 -0.0 1.586
-0.0 0.0 1.617
0.0 -0.0 1.586
-0.0 0.0 1.617
0.0 -0.0 1.586
-0.3891678056851725 0.5058010832272988 1.0233033192676935
0.5705212939066207 -0.7415060656267535 1.5001660600872986
1.9900390176861313 -2.5864521065355603 1.5987389432563959
-0.4495932948597455 0.5843360427808735 0.3611900584517064
1.4747037628196682 -1.916671291347731 -0.257379045085126
-0.4844935470776792 0.6296958724452454 -0.08455832936801633
0.19406731056846366 -0.2522291270515483 -0.24886612151021553
-0.1282573562420293 0.16669598248208753 -0.1644734020871969
-0.017286963648670967 0.019453672333045256 -0.07140529056427147
0.04230756892964211 -0.04761030334140021 -0.17475505322308546
-0.017286963648670967 0.019453672333045256 -0.07140529056427147
0.04230756892964211 -0.04761030334140021 -0.17475505322308546
0.21035034884424877 -0.2367151828813142 -0.24763411100768973
-0.3736073360069491 0.4204344292966626 -0.43982774940171754
-0.4927495161783182 0.554509619202939 -0.07894932879667105
1.504008911981275 -1.6925179663875225 -0.24097536416892762
2.03829861124654 -2.2937743206939563 1.5032721433976624
-0.4551424759675474 0.5121889981532014 0.33567358660006336
0.622169941434756 -0.7001513060433964 1.5018630805172615
-0.3740049817438306 0.42088191504529604 0.90281486874032
-0.0 0.0 1.618
0.0 -0.0 1.586
-0.0 0.0 1.618
0.0 -0.0 1.586
-0.0 0.0 1.618
0.0 -0.0 1.586
0.6681729915331431 -0.6526121383934361 1.497620529442354
-0.3812182450276912 0.37234018320803985 0.8544497864863742
1.7288008827042072 -1.6885394279844805 1.183876306082268
-0.4599856677875184 0.4492732182968742 0.3149964456168353
-0.4986706926806168 0.4870573208260109 -0.07418696982100054
1.5500762330257696 -1.513977035777286 -0.2306040046219118
-0.5612869824029025 0.548215361111596 -0.6135412302578581
0.22767062338430996 -0.222368479808318 -0.24886612151021553
0.050161387906627074 -0.04250233607904735 -0.18039231300447534
-0.01828800600762444 0.015495643362152693 -0.06576803078288164
0.050161387906627074 -0.04250233607904735 -0.18039231300447534
-0.018549263236304788 0.01571700969589773 -0.06670757407977992
0.242206290816843 -0.20522424921573804 -0.24825011625895263
-0.5703567493428879 0.4832700062177061 -0.5845889834485013
-0.5029954965097331 0.4261940215589525 -0.07016542224154546
1.5454024530774157 -1.30943774044583 -0.2155761162986849
-0.4624766301092414 0.3918619077725196 0.29695893965274284
1.7450784842788718 -1.478625598661639 1.1205250656230161
0.7125964558609569 -0.6037913885500575 1.497620529442354
-0.3940476719095147 0.33388124375345984 0.8281459698219475
-0.0 0.0 1.617
0.0 -0.0 1.586
-0.0 0.0 1.617
0.0 -0.0 1.586
-0.0 0.0 1.617
0.0 -0.0 1.586
0.7491593033411578 -0.5533376473226357 1.4933779783674466
-0.4013961494606316 0.29647579626434417 0.8001451327275579
-0.4659167186239119 0.3441314280979234 0.28376076455706534
1.774095288279578 -1.3103671122612395 1.0804906011661277
-0.5071102480359104 0.3745574410274739 -0.06709634645722447
1.5613236658771248 -1.1532115534473637 -0.2065805493446406
0.25599076537897103 -0.18907771313708874 -0.24886612151021553
-0.5747119410859572 0.42448882627559303 -0.5587167628954591
0.05666817080937015 -0.035962714752154255 -0.18415048619206856
-0.031514441929700744 0.019999672999922533 -0.10241021936191567
0.05666817080937015 -0.035962714752154255 -0.18415048619206856
-0.031514441929700744 0.019999672999922533 -0.10241021936191567
0.2673752680934997 -0.16968150481817496 -0.24763411100768973
-0.5846339817268313 0.37102000680392005 -0.5414686158600976
-0.5104685082082308 0.3239531660975166 -0.0643447612712815
1.5372826291599848 -0.97558922224433 -0.19377509521005992
-0.4647948429324508 0.29496777672393465 0.269682711121676
1.7901804635620173 -1.136083068262984 1.038696380029816
0.7877094721010456 -0.49989563185363695 1.495923509012391
-0.397205740611361 0.25207442808728503 0.7543255811185567
-0.0 0.0 1.617
0.0 -0.0 1.585
-0.0 0.0 1.617
0.0 -0.0 1.586
-0.0 0.0 1.617
0.0 -0.0 1.586
0.8182542568404525 -0.44150604070636695 1.490832447722502
-0.40330574070792946 0.21761196997820909 0.7348098461739822
-0.46866041839620404 0.25287544064954715 0.2608839277245577
1.812206305872674 -0.9778134661204254 1.0087805164796138
-0.5119458159092429 0.2762309738675177 -0.06191066668371657
1.5962208003734342 -0.8612740108279536 -0.19303428381384452
-0.22877674474352772 0.12344123349559388 -0.20328173291676022
0.2807714594579657 -0.15149605929004717 -0.24948212676147846
-0.054616089779640796 0.024660110108620886 -0.16442007695720406
0.07771089345788891 -0.035087813811694867 -0.23394628092767894
-0.05492818172123874 0.02480102502352729 -0.16535962025410236
0.07771089345788891 -0.035087813811694867 -0.23394628092767894
-0.23548782353508046 0.1063268293472613 -0.2020497224142344
0.2663597028399843 -0.12026601734095717 -0.2285379482185395
-0.513863613500844 0.23201831806106937 -0.06000572309344837
1.607749647884475 -0.7259268011293425 -0.1877427738408773
1.8227221675524075 -0.8229906155973462 0.9797445312691232
-0.4665252067826099 0.2106442078538335 0.25076532681787167
0.891282038566086 -0.40242927125604866 1.568046877285819
-0.3974114717415881 0.1794381599107056 0.699172417144759
-0.0 0.0 1.617
0.0 -0.0 1.585
-0.0 0.0 1.619
0.0 -0.0 1.586
-0.0 0.0 1.62
0.0 -0.0 1.586
0.9245701473947958 -0.34522287440191457 1.5824715509405043
-0.40205168339795155 0.150121046187642 0.6881417843499995
-0.4694423868188128 0.17528388797792796 0.24548605677960073
1.8407525848737674 -0.6873138833256396 0.9625869036447426
-0.5142232730667972 0.1920045081627294 -0.05841827010155821
-0.24279422524224928 0.09065631262537865 -0.20266572766549731
0.29961840561809483 -0.11187374749514829 -0.2500981320127414
0.0847415941336444 -0.024980991017406196 -0.2424021705997637
-0.04729763393505735 0.013942878707389476 -0.13529423475335647
0.0847415941336444 -0.024980991017406196 -0.2424021705997637
-0.047626089726273024 0.014039704253968568 -0.1362337780502548
-0.24783510591412547 0.0730593590778419 -0.2020497224142344
0.30601590821713653 -0.09021048910526228 -0.24948212676147846
-0.5160080076751525 0.1521141009492154 -0.05725413790750542
-0.46600641159025963 0.137374120713739 0.23800709089205016
3.188827607591757 -0.9400351106881012 1.6286548068065982
0.9476585257434056 -0.279360441129175 1.5841685713704674
-0.39642276840149976 0.1168615450036879 0.6626864779005545
-0.0 0.0 1.619
0.0 -0.0 1.586
-0.0 0.0 1.619
0.0 -0.0 1.586
-0.0 0.0 1.619
0.0 -0.0 1.585
0.9629548794490698 -0.21127892425512995 1.5807745305105414
-0.40006821078560384 0.08777771732338746 0.6567469063956839
-0.46752771722824477 0.10257879705843961 0.23448757753320285
3.2077839810575823 -0.7038098702489928 1.6088575441630821
-0.5147787047713814 0.11294598874224733 -0.05609000571345263
3.246990962359864 -0.7124121516327023 -0.3537903567925889
-0.2523761735251934 0.05537306844588155 -0.2020497224142344
0.309314700479048 -0.06786577291233034 -0.24763411100768973
-0.07420198353236825 0.010857966600204407 -0.20575998202072965
0.0870772135516833 -0.012741997334486421 -0.2414626273028654
-0.07420198353236825 0.010857966600204407 -0.20575998202072965
0.08673839170906975 -0.012692417578321106 -0.24052308400596709
0.30398213716116257 -0.04448166659742804 -0.2402420479925348
-0.2525390062569658 0.03695399994247876 -0.19958570140918275
-0.5155667957107707 0.07544282216606792 -0.05545502451669656
3.145547797494913 -0.4602876001238904 -0.3383391476715246
-0.464719388627856 0.0680023277004119 0.2300881858346437
3.2788040994967282 -0.4797869774656201 1.6233755367683271
0.9765193844582766 -0.1428939545298662 1.5824715509405043
-0.3921785624446375 0.05738743803907239 0.6355341510211463
-0.0 0.0 1.619
0.0 -0.0 1.585
-0.0 0.0 1.619
0.0 -0.0 1.586
-0.0 0.0 1.619
0.0 -0.0 1.585
0.9822938522543132 -0.07730820277574384 1.57992602029556
-0.395133241320344 0.031097660515054977 0.6355341510211463
-0.46553481335197067 0.03663838439708032 0.22876836832507594
3.2766488785927166 -0.2578778594102182 1.6101773616726498
-0.5135031701259819 0.04041357594876726 -0.05482004331994049
3.2594564157803636 -0.25652478324236716 -0.34796969582232495
0.3172667347093596 -0.024969433540299957 -0.24886612151021553
-0.08402856587599375 0.006613191556465609 -0.06591256188513134
0.08902908759103227 -0.0006992471965827626 -0.24428125719356034
-0.0229421110330737 0.00018019062373478606 -0.0629494008921867
0.08868666802337445 -0.0006965577842882135 -0.24334171389666204
-0.02568146757433623 0.0002017059220911784 -0.07046574726737317
0.31981340641337835 -0.002511860268538394 -0.2500981320127414
-0.08271036372759784 0.0006496190349668159 -0.06468055138260552
-0.5140807836824737 0.0040376640549020125 -0.05471421312048115
3.520011555582122 -0.027646674573217303 -0.3746389060860798
