-0.27451413181343304 0.5387643190066664 0.18448314564184276
0.17709693581552638 0.5450483238436309 0.13189663057858575
-0.2704808189560444 0.5308484968207666 0.13726587394727152
0.1764876648519766 0.5431731806294348 0.08807260381764916
-0.2682407775660119 0.5264521680559225 0.09120129311845374
0.17709693581552638 0.5450483238436309 0.044329389086231435
-0.2668969953406049 0.5238148469432277 0.04550627552214907
0.17862037664754193 0.5497369926121857 -9.776209646824434e-16
-0.26779282973724117 0.5255730209412588 -9.982024586757578e-16
0.18166835507609402 0.5591177056434058 -0.04550627552215118
-0.2695847423526114 0.5290898474651315 -0.04597703009651827
0.18502274801705307 0.5694414655750124 -0.09245276883877757
-0.2736177051764295 0.5370049826714688 -0.0930785066989385
0.1908204336187845 0.5872849071051793 -0.14240167195210343
-0.2812396945491886 0.5519639790872943 -0.14286856267981526
0.1972334706414156 0.6070222055730267 -0.1949897234505931
-0.2897643933239991 0.5686946424590043 -0.1949897234505931
0.2057916301088229 0.6333615120743866 -0.25218838192859544
-0.2987440320810373 0.5863181758192084 -0.24912691446967472
0.2152755308412073 0.6625499572266506 -0.3132534448202886
-0.3122243542122112 0.6127747976514437 -0.30916753032263267
0.22905664538890105 0.7049638665940143 -0.384036445066224
-0.32841592420975046 0.6445525430292361 -0.37463147090133686
0.24469229281178265 0.7530854412604939 -0.46199920830188557
-0.35002667529919207 0.6869660301492309 -0.4496557180037436
-0.4217452012492952 0.8277215626182464 -0.6000899966570916
0.2661768425215816 0.8192080862059659 -0.6052834046956862
-0.4217452012492952 0.8277215626182464 -0.6533666658163716
-0.3969177951468282 0.7789950345771022 -0.6607927841064286
0.25144187038382615 0.7738585050368596 -0.6144080202048267
0.24162520747545266 0.7436459232137594 -0.6277971876349606
-0.1356702584283324 0.2662678744760425 -0.2412971665122086
0.0865164807881123 0.2662703486159137 -0.2242443632251267
-0.13137907757091144 0.2578459578442455 -0.24324478110342482
-0.13623666825040168 0.24781357957955005 -0.24575195564800262
-0.13578362121418375 0.24698949007996895 -0.24482807611549132
-0.1389590059293528 0.252765493434381 -0.24235377457923646
-0.14396698940104477 0.26187498155188377 -0.2412971665122086
0.07837217217477412 0.269758786008181 -0.2250970033894808
0.08047333905782782 0.2769910498570015 -0.2200526224699862
0.227010315936991 0.781374632591939 -0.6144080202048267
-0.4207119282105162 0.7652721564655213 -0.6600323781408286
0.24003630152381308 0.8262103690651486 -0.6045762979144996
-0.4470572863950522 0.813194185100393 -0.6526595590351851
-0.44897400612673055 0.8166806853492463 -0.6020383408020822
0.2181474970879464 0.7508686100205977 -0.4561213557789608
0.20431065583648908 0.7032418900432934 -0.37933395798378045
-0.3427707014047728 0.6234975912210728 -0.36836148812474545
0.19242399044695968 0.6623277194112205 -0.3100755113221118
-0.32654833352762425 0.5939892135976305 -0.3046276253252372
0.18358738339397582 0.6319119184336954 -0.24912691446967472
-0.31177168331495264 0.5671105866433467 -0.2449173967136587
0.175587170244086 0.6043750041536086 -0.19220857050121856
-0.3008184282118666 0.5471866895750864 -0.1906634855293438
0.1703502878992441 0.5863495368913022 -0.14076755440511207
-0.2922529986092667 0.5316062309678959 -0.13983377294968846
0.164842196611818 0.5673905623256265 -0.0912012931184557
-0.2860708322853516 0.5203609121711259 -0.09167059651357641
0.16153970515011234 0.5560233121551782 -0.04480014366060057
-0.281317746975305 0.5117150820884004 -0.0451924391392398
0.1590640822692454 0.5475021623079153 -9.638999686869003e-16
-0.2784669590533129 0.5065295181088665 -9.776209646824434e-16
0.1576892185272955 0.5427698502682798 0.04370171632040869
-0.2756169988243069 0.501345459697285 0.04425092999050359
0.1571393721920366 0.5408772667686198 0.08682112809732732
-0.27656689202178875 0.5030733090091427 0.08854190721276985
0.1571393721920366 0.5408772667686198 0.1295621769400267
-0.2784669590533129 0.5065295181088665 0.13306385739786528
0.15851409464325414 0.5456090924823647 0.17304951684996978
-0.28274344349774155 0.5143084144353847 0.17892083974309375
0.16071437583709006 0.5531825100265686 0.21736418958337034
-0.28987483266426023 0.5272803631730154 0.2273139588248626
0.16429165374142904 0.5654955813363234 0.263768480348676
-0.29796260279531817 0.5419919624269712 0.2773881953408624
0.16842191878352583 0.5797120468588483 0.31140914457070495
-0.30891343856726083 0.5619114587482188 0.331264090029911
0.1747600377307342 0.6015279953687545 0.3638390711690403
0.18193150995855145 0.6262123646848579 0.418893991172968
0.1915951996873108 0.6594750029051742 0.48083261120685195
0.20237473303642117 0.696578400058771 0.5467318892664219
0.21787061938674152 0.7499155907220743 0.626988170640584
0.23560084485339655 0.8109434270677368 0.715365097893083
0.26000788636582844 0.8949530149832305 0.8259630479226168
0.2872173803132545 0.9886087074500159 0.9469765208240687
0.3350246432935603 1.1531623859569917 1.1384146500052985
-0.9420009119972882 1.7134932978556632 1.8574133763244345
0.39540156607020643 1.360981117264023 1.3749310674423145
-0.9136127876579366 1.6618554913794077 1.8416686292331994
0.48896850716004603 1.683040640925131 1.728454596041491
-0.9429632586102942 1.715243799846265 1.930930705863494
0.5491500371560132 1.8901868258697467 1.9599394781193296
-0.9314152576549328 1.6942380640888675 1.92504737143867
0.026783146179765887 0.09218819382498657 2.04
-0.046248352713764866 0.08412544128421079 2.013
0.023874229167825934 0.09298398346834862 2.0389999999999997
-0.04886797591203583 0.08263123459237849 2.012
0.023874229167825934 0.09298398346834862 2.0389999999999997
-0.04886797591203583 0.08263123459237849 2.012
0.48876168132473724 1.903601066103036 1.95694872611813
-0.9841729641029332 1.6641455996182684 1.92504737143867
0.43238525715803505 1.6840293908932764 1.714626959273159
-0.9953582165727232 1.6830588286513244 1.9289553291823036
0.3494796432667965 1.3611333435567994 1.3632626283975424
-0.9643453411744803 1.6306189202125292 1.839723889392404
0.29640663167082415 1.1544276108537754 1.1298551413586422
-0.994341362733405 1.681339422709607 1.8555112632918442
0.25329916545690984 0.9865351148230015 0.9368138459664447
0.22954224774911233 0.8940080293253999 0.8179439892049215
0.20778869766483593 0.8092835455653051 0.7076913364138961
0.19248018909295986 0.7496608411853579 0.6213250516799593
0.17842299240044865 0.6949116748068558 0.5406486415416216
0.16832392724301676 0.6555784129434767 0.47376154339498644
-0.38287630538013884 0.6474084759859534 0.527501658765164
0.16020435759054233 0.6239547770543964 0.4136984067863265
-0.3601686555852852 0.6090119371029507 0.45526308187945824
0.15381363973338003 0.5990645743423407 0.3591367891507005
-0.34101405936431967 0.5766232837094495 0.3897016222699091
0.14792031841616832 0.5761116032503245 0.3067066574882614
-0.32741771789262775 0.5536331258242986 0.3323090871593429
0.1444854001008296 0.5627334796843912 0.26013655635075966
-0.3153428372634514 0.5332156177257342 0.27784218584060194
0.1410527737230445 0.5493642826258689 0.21392003869208454
-0.30629407338710224 0.5179149936118247 0.2273139588248626
0.1390923672757034 0.5417290036223286 0.17026836390059527
-0.2992609414638527 0.506022616998656 0.17922985673746866
0.13762261078159863 0.5360046800184274 0.12722772330146767
-0.2947420130229847 0.4983815263020478 0.13329730276172116
0.13762261078159863 0.5360046800184274 0.08525678344692503
-0.29173047623136655 0.4932892956854225 0.08838547274772962
0.13811247627834167 0.5379125801617439 0.042917125363130255
-0.29022504259324156 0.4907437464214407 0.04409401179904791
0.13933737294895066 0.5426832377176257 -9.467487236924714e-16
-0.29122863992267367 0.4924407368291028 -9.67330217685786e-16
0.14154300227604075 0.5512735967799336 -0.0440155527033221
-0.2937380694246445 0.49668395038563795 -0.04464322546914488
0.1444854001008296 0.5627334796843912 -0.0896369484680534
-0.29775441992896595 0.5034752282017111 -0.09026268632821433
0.1491476002519361 0.5808915504111662 -0.1381996554026971
-0.30378174053622675 0.5136668707603992 -0.13749931931112938
0.15381363973338003 0.5990645743423407 -0.1888093835630941
-0.31333142832817107 0.5298145109581543 -0.18788233257996925
0.16045027479711713 0.6249125613376079 -0.24415202984892853
-0.32389477671321243 0.5476761576131449 -0.2407078789576427
0.16832392724301676 0.6555784129434767 -0.30417363482549764
-0.3389990345096231 0.5732160627560461 -0.2991797393283626
0.17891591182661223 0.6968314692199626 -0.37254147664247306
-0.3561344113574297 0.6021904026527632 -0.3620915053481541
0.1909996619229022 0.7438945685682461 -0.4478923622468661
-0.3793424309811505 0.6414330207101214 -0.4343733014441392
-0.4794686468592463 0.8107372056831754 -0.608532821285384
0.2137188281058133 0.8323798787291039 -0.6038691911333132
-0.47288605037557196 0.7996066428939871 -0.6533666658163716
0.20186083230748297 0.7861960343197683 -0.6128872082736265
-0.44504807147720354 0.7525351912531546 -0.6607927841064286
-0.4207703826876881 0.7114838614141973 -0.6642029523818334
0.0731418901048014 0.2848688538817418 -0.2249067244362359
-0.15212164233656347 0.2572236496374832 -0.2412971665122086
0.06962650675124256 0.27117733968312907 -0.2242443632251267
-0.1473101126235945 0.2490877972097869 -0.24324478110342482
0.06636666018158542 0.2584810755477893 -0.22186062452290395
0.041831206214496604 0.18714205883937543 -0.15336400239687378
-0.15102428165493692 0.23797618862106834 -0.24482807611549132
0.041831206214496604 0.18714205883937543 -0.15336400239687378
-0.15102428165493692 0.23797618862106834 -0.24482807611549132
-0.15455607872514485 0.243541410296292 -0.24235377457923646
0.059642133488248074 0.2668235670119302 -0.22809767019222252
-0.15961883608540045 0.2515190393722552 -0.2404445263478545
0.06107426418898123 0.27323055146482894 -0.2242443632251267
-0.4418466219512489 0.6962388689740542 -0.6625849183930834
0.06333371177159194 0.28333873888551303 -0.2216706564587361
0.17793269059045452 0.7960250986113703 -0.6159288321360267
-0.46899875920056355 0.7390237911382366 -0.6615531900720286
0.18746768693319474 0.838682220126263 -0.6038691911333132
-0.494038407081918 0.7784799627016492 -0.6484169183480658
0.18183256576670842 0.8134721372159565 -0.5377429840173937
-0.5062970649836133 0.7977965166563332 -0.6104811654303746
0.16602420501621076 0.7427495966668277 -0.4437778654808188
-0.39558390698142365 0.6233404948640128 -0.43025880467809186
0.15564256573377516 0.69630481237157 -0.36940648525417735
-0.3690364825047963 0.5815084475572881 -0.3563440211362786
0.14656904619954217 0.6557122194195839 -0.30190368232679987
-0.35206552469866675 0.5547664971126613 -0.2950938248307067
0.13966364426527703 0.6248192270333414 -0.24223861268710306
-0.3356419214829796 0.5288870394925682 -0.2368810446339918
0.13384327858555597 0.5987804078103001 -0.18726429859121937
-0.32505613550285306 0.5122065098882977 -0.18510117963059472
0.1291054194807908 0.5775844446145421 -0.13633209249184985
-0.31500782876497485 0.4963729120497776 -0.13539831103642622
0.12544753806716288 0.5612200238702179 -0.088698341677812
-0.3086660006277399 0.4863797899342408 -0.08885477614285223
0.12265238328261682 0.5487152201963184 -0.04346633903322717
-0.30391205902480434 0.47888877662699914 -0.043858634511866404
0.12050355863186943 0.5391019313238041 -9.330277276969284e-16
-0.3012719211932569 0.47472858508891597 -9.501789726913571e-16
0.1196443592180205 0.5352580941072347 0.04236791169303535
-0.30074397639413697 0.47389667720152123 0.04338787993749731
0.11900008737790736 0.5323757875824656 0.0840053077266032
-0.3012719211932569 0.47472858508891597 0.0866646936322871
0.11921483236262632 0.5333365014179612 0.12559360575447634
-0.304968304605812 0.48055315334087323 0.13096284912316214
0.12028874072813164 0.538140891267371 0.1677962279455957
-0.3091943473226333 0.4872123311080405 0.1758306697993443
0.12179271430077791 0.544869282253321 0.21047588780079873
-0.31712255989200805 0.49970519509760924 0.2234871245012117
0.1243722604228838 0.5564095082197127 0.2551426608536247
-0.3255852216283103 0.513040216218226 0.27239429984372737
0.12759887956799087 0.5708445724827323 0.301481671841102
-0.33828965445051407 0.5330591990499289 0.3260391043827515
0.13255069784181753 0.5929977339768232 0.3526711513754833
-0.35206552469866675 0.5547664971126613 0.382060413990107
0.13815409489461167 0.6180658913609864 0.4065544782546945
-0.37168964983455133 0.5856891702992882 0.4461708092028357
0.14505787455456334 0.648951626109152 0.4652762620207479
-0.3939901303080478 0.6208291046816728 0.5154808434849927
0.1536973562147669 0.6876024452345928 0.5307633639888213
0.16515863808257938 0.7388772728042916 0.6075717627755852
0.1781493195460895 0.7969942408482419 0.6914911732911685
0.1965750224874871 0.8794260972555022 0.7983418456727773
0.21675766710702102 0.9697180588966681 0.9137168576536625
0.25260685945024697 1.130098126075202 1.0975192198046069
-1.0461276838590892 1.6484334590949121 1.8545602067755491
0.29850102935624134 1.3354168395947628 1.3272849413428285
-1.0161587512028392 1.601209977596282 1.8416686292331994
0.36903860228067836 1.6509838006554525 1.6682056072651874
-1.0466628628303312 1.6492767662135468 1.9269799525011133
-1.0359594106560066 1.6324108243555784 1.92504737143867
0.4272017790698179 1.9111908957400312 1.9499703047819983
0.02094175117406793 0.09368800914611979 2.04
-0.05143937231798388 0.08105548084819332 2.012
0.017988606200229428 0.09429957606995414 2.04
-0.05396000427380472 0.07939973513035781 2.013
0.017988606200229428 0.09429957606995414 2.04
-0.05396000427380472 0.07939973513035781 2.012
-1.0861621006616178 1.5982389968607138 1.9240504541049368
0.3663975569260174 1.9207232570775639 1.9469795527807987
0.31587537983271463 1.6558767298369579 1.6622794772216165
-1.097390029237323 1.6147603920490823 1.9259922641605185
0.2549119453297719 1.3362952144373603 1.319505981979647
-1.0648298350818848 1.5668495212749327 1.839723889392404
0.2158645756579601 1.1316017342581304 1.0918128807068361
0.18507213341502857 0.9701820991098576 0.9081735804585948
0.16773673633698893 0.8793067651752802 0.7929958065276471
0.15191078407789071 0.7963442180871538 0.686375332305044
0.14075330515822096 0.7378546652878443 0.6027176608093355
0.130724086624549 0.685279660559233 0.5254405222296211
0.12348983085463797 0.6473563637406315 0.4610336213336286
-0.4077243721204537 0.5999481947459978 0.5084097756731272
0.11719049728896308 0.6143341007506953 0.401358893868053
-0.38433722563332595 0.5655350537256536 0.4396763287195338
-0.36431372454989025 0.5360713666151053 0.37677034671947474
0.10849637014795045 0.5687578901999681 0.29834668045280627
-0.3493120955954337 0.5139971399441116 0.320814118735592
0.10572557912942131 0.5542328950159388 0.2524187178551874
-0.33654528093274644 0.4952113426426122 0.26830838534607143
0.10332597161021162 0.5416537118776218 0.2077971037742431
-0.3276714695324326 0.4821539256860366 0.22004297360992595
0.10203458878317316 0.5348840460247892 0.16563310898497108
-0.3199123604809487 0.4707367434262038 0.17335853384434471
0.10092810564962505 0.5290836583093247 0.1237260428436291
-0.3149272459007217 0.46340137007715715 0.128861840848459
0.1007437301240117 0.5281171279561951 0.08275383200628135
-0.31160515478271045 0.4585130614419213 0.08541321791196525
-0.3110515784088652 0.4576984985439144 0.042760207171674565
0.10111249222652044 0.5300502465953033 0.04166177983148476
0.10203458878317316 0.5348840460247892 -9.193067317013854e-16
-0.3110515784088652 0.4576984985439144 -9.347428521963713e-16
0.10406413248549122 0.5455232866982327 -0.04291712536313224
-0.31437348950161054 0.4625865422800158 -0.04323096174604363
0.10591023306486827 0.5552008848445267 -0.08713399702740966
-0.3193583444976383 0.4699215336625125 -0.08760330042253037
0.10942041976704582 0.5736019279413238 -0.1344645295810026
-0.3254540419480102 0.47889108007949244 -0.13329730276172308
0.11311873340603752 0.5929891669774532 -0.18417412864746988
-0.33488095554916836 0.4927623622096921 -0.18170199269247025
0.11811638797121322 0.6191877896830927 -0.23841177836345215
-0.34598046872535365 0.5090947998758036 -0.23267152687797577
0.12386060807995833 0.6493000460234567 -0.29690978682966485
0.1318377697649043 0.691117792032166 -0.3641814996070179
-0.3809984234856871 0.5606221555570392 -0.3505965369244032
0.14075330515822096 0.7378546652878443 -0.43790001295789405
-0.4071672397334075 0.5991283993334633 -0.4220298111459972
-0.5227197115719064 0.7691586982763589 -0.6007394447054217
0.1574940785118873 0.8256128724975716 -0.542289120355705
-0.5182472755065846 0.762577708453376 -0.6484169183480658
0.16140396020891076 0.8461091901338031 -0.6052834046956862
0.15246898737629533 0.7992704222529738 -0.6144080202048267
-0.49253933109407844 0.7247496169887899 -0.6623135960376286
-0.4646145297482247 0.683659519605217 -0.6642029523818334
0.054402575543385005 0.2851882882838044 -0.2216706564587361
0.052461748701550785 0.2750141176797572 -0.2242443632251267
-0.16850505956962095 0.24794766564627807 -0.2421498066765627
-0.16212963519454912 0.23856651355897046 -0.24235377457923646
0.05123157291593414 0.26856531037451453 -0.22809767019222252
-0.1656689182524293 0.22802370386665924 -0.24482807611549132
-0.1656689182524293 0.22802370386665924 -0.24482807611549132
0.04291696227044266 0.27096703554026164 -0.2289886767164109
-0.16954318928816456 0.23335618047525036 -0.24235377457923646
0.04394444325575629 0.27745429516758546 -0.2250970033894808
0.04541775054121923 0.2867563912727589 -0.2216706564587361
-0.4841081552895497 0.6663177124931838 -0.6617759013987086
0.12713272191910466 0.8026844155815159 -0.6136476142392266
-0.513892749944317 0.7073126900845677 -0.6607927841064286
0.13428101574836032 0.8478169665733215 -0.6031620843521266
-0.5366836648014816 0.7386816932449667 -0.6420529573173869
-0.5425292903669864 0.7467275065871715 -0.5961933083671105
0.13024003035279733 0.8223031889113057 -0.5370935359690636
0.11657642859986274 0.7360346026477975 -0.4343733014441392
-0.4187952392109846 0.5764221956293963 -0.4149763881184875
0.10897948370611049 0.6880693803179659 -0.3605240096540062
-0.39260227023066635 0.5403706666814243 -0.3453715512772436
0.10278541971291717 0.6489615993989472 -0.2950938248307067
-0.37399819966701975 0.5147643603104513 -0.2855600243361761
0.09783597042068236 0.6177120064332919 -0.23649836120162668
-0.35715681528206994 0.4915841833273009 -0.22961005941905502
0.09366453992236336 0.5913746308061684 -0.18262904367559513
-0.3455537457994848 0.47561392826949994 -0.17922985673747066
0.09026919289987129 0.5699372534000615 -0.13283041203401125
-0.3356994874063777 0.4620507051775761 -0.1314297398508758
0.0876479845878532 0.5533875954497783 -0.08635182470220851
-0.3281695130427417 0.45168658460185623 -0.08603895577212804
0.08579913459399462 0.5417144160006466 -0.042367911693037316
-0.3235382752042484 0.445312232571552 -0.04252482988449301
0.08441331872022863 0.5329647189285958 -9.107311092041708e-16
-0.3212234303876195 0.4421261220172477 -9.22736980700271e-16
0.083643739883346 0.5281057893815662 0.04126948435284555
-0.3200662064041572 0.4405333398484745 0.04205407531012398
0.08333597400752425 0.5261626321169314 0.08197165968108021
-0.3212234303876195 0.4421261220172477 0.08416174219164342
0.0834898522036418 0.5271341808107439 0.12255881602434958
-0.3246958932081661 0.44690555706295626 0.12699427793761175
0.08410545930339934 0.5310209710692829 0.16346999002434645
-0.32932763710765156 0.45328060562646066 0.1705773808949702
0.08518312696858209 0.5378250969226469 0.2051183197476875
-0.3374378840096808 0.464443402832971 0.21659882271864014
0.0868774825880302 0.5485228372813357 0.2483328033575315
-0.3467135899969761 0.4772103168534904 0.26422247084841555
0.08918959808491426 0.5631209600018913 0.29364419337036274
-0.36005912987574157 0.4955788766615501 0.3161116316531485
0.09242947278541647 0.5835767237995445 0.3426788020865113
-0.3745792668531094 0.5155641306799641 0.37030470894425754
0.09644498775405765 0.6089296875150033 0.39551386143308137
-0.3960926897642563 0.5451748170223168 0.433181848236232
0.10123812046686904 0.6391923364405551 0.45254833995939003
-0.4199601199587166 0.5780255164300797 0.5006316010800752
0.10727538351502067 0.6773101151553145 0.5163156506424207
-0.45201603112144967 0.6221466929986953 0.5801897517528233
0.11518039245491402 0.7272203773230863 0.5905824058937112
0.12433706117897428 0.785033308349 0.6727330896753785
0.1372350266135601 0.8664678571478434 0.7769576890922565
0.1509261039850454 0.9529099176395928 0.8869243512108351
0.17538145481498157 1.1073149259840132 1.0623301287016864
0.20594673073999334 1.300296483152019 1.2767217054821494
-1.1146944003955186 1.5342452195548386 1.8416686292331994
0.25605469252142044 1.6166657027467863 1.6138827485324547
-1.144634021037854 1.5754535721127148 1.9210538224575426
0.3046354260327802 1.9233923825381616 1.9390042141109338
-1.1370021657340994 1.5649492244529748 1.9260442887724032
0.015017708643862022 0.09481808069713325 2.04
-0.05642738422007763 0.0776656314599948 2.012
0.012031990422173039 0.0952430113261899 2.04
-0.058839077150685926 0.07585488118806613 2.012
0.012031990422173039 0.0952430113261899 2.04
-0.058839077150685926 0.07585488118806613 2.012
0.24394471133027734 1.9310212266606464 1.9380072967772006
-1.1849852154447316 1.5276737345314941 1.92504737143867
0.20489741365031056 1.6219300385279918 1.6119073718512646
-1.1929432443706753 1.5379331636031413 1.9200661341169476
-1.1604998129243618 1.4961073438101027 1.8387515194720063
0.14013869729494904 1.1093120145028965 1.0594769591528008
0.12017176314195546 0.9512574558674187 0.8813810740157675
0.10920344408409055 0.8644342703758181 0.7716116499471263
0.09887076391392619 0.7826426847821915 0.667617248689254
0.09165973357696751 0.7255615020386621 0.5865373209218365
0.08495494846482496 0.672487662884115 0.5102324029176205
0.08049096980700968 0.6371516332707051 0.4490128060534573
-0.4330508222420968 0.5582857560026442 0.4949747468305829
0.07652771704493011 0.6057792572578654 0.39161717314310024
-0.4087754635193262 0.5269901521134527 0.4286357118979207
0.07343500794764252 0.5812979439218152 0.339739875825049
-0.38634784636677 0.4980766423029278 0.3661902121782102
0.07071638243143433 0.559777807041161 0.2905092019820671
-0.370606098172542 0.4777825028162125 0.3119316431354209
0.06898794764756767 0.5460958368998765 0.24606285085883375
-0.357299580223662 0.460627843244408 0.26104453735023875
0.06750750930824585 0.5343769607561663 0.20282221915349694
-0.34702665313538417 0.4473840654445059 0.21353735525971942
0.06664440751737893 0.527544806577278 0.16161588805809676
-0.33857331816895414 0.43648609167310726 0.16810524493997064
0.06602813589811345 0.5226665143950016 0.12092469847735825
-0.333745759656191 0.4302624407399652 0.12512671502676453
0.06578168224351474 0.5207156328373609 0.08072018396075838
-0.33012655504766836 0.4255965902734171 0.08291026647132159
0.06602813589811345 0.5226665143950016 0.0406418115870228
-0.3289204406057209 0.42404167690421474 0.04142640254430123
0.06664440751737893 0.527544806577278 -8.970101132086278e-16
-0.33012655504766836 0.4255965902734171 -9.09015984704728e-16
0.06800087386292304 0.5382823433421152 -0.04189715711867023
-0.33253921613511145 0.4287069742052788 -0.04189715711867023
0.06923478610956954 0.5480497645217651 -0.08510034898188663
-0.33796975416390435 0.435707981646412 -0.08494391451684641
0.07145753159579081 0.5656446067790594 -0.13119629448701992
-0.34461077216970576 0.4442695304706359 -0.12932873157617264
0.07392961151292417 0.5852131342866017 -0.17984789072622057
-0.3548816524552755 0.4575106695483867 -0.17644870378809616
0.07727045426451937 0.6116586277473365 -0.23305421031034085
-0.366975763178621 0.4731023031432722 -0.2261659085277692
0.08111064908121146 0.6420568998193421 -0.2905539198333112
-0.38392499797741586 0.49495312498057953 -0.2810201193387806
0.08619582994223973 0.6823102512058342 -0.3558215225715627
-0.4027111847669118 0.5191721310544608 -0.3396240670653682
0.09215675193298971 0.7294958074404276 -0.42849544892121444
-0.4306220579690738 0.5551546119690259 -0.4090985355955628
0.10484460228092164 0.829930484662755 -0.5396913281623843
0.10783327923925043 0.8535882988235662 -0.6045762979144996
0.1019815196002573 0.8072668515800847 -0.6144080202048267
-0.5364656085923932 0.691607295217158 -0.6615531900720286
-0.506625055522033 0.6531370860066797 -0.6642029523818334
0.03615163201086376 0.28616963413847935 -0.2200526224699862
0.035089948097227076 0.2777655405959024 -0.2242443632251267
-0.17678942472314976 0.22791555301483438 -0.24235377457923646
0.03426712374355703 0.2712522151620955 -0.22809767019222252
-0.17965973531650853 0.21717131372720963 -0.24482807611549132
-0.17965973531650853 0.21717131372720963 -0.24482807611549132
-0.18386119033997916 0.22225000042017093 -0.24235377457923646
-0.5060038491951728 0.6116535821849396 -0.671880449511026
0.026347806850207583 0.27873068197488443 -0.2242443632251267
0.02714498792938627 0.28716397690224565 -0.2200526224699862
-0.5262574930000236 0.6361360318841641 -0.6633939353874584
0.07648088306065849 0.8090832309016557 -0.6136476142392266
-0.5572912312700204 0.6736493773095501 -0.6607927841064286
0.08087469364652843 0.8555648917104886 -0.6038691911333132
0.0786306354746366 0.8318252359509506 -0.5390418801140541
-0.4743822220022336 0.5734296011266105 -0.47929265966767703
0.06891736258813802 0.7290695420423864 -0.426732093164337
-0.4421650835044928 0.5344857705584546 -0.4038084683249305
0.064348688246362 0.6807380159216705 -0.3537315283126989
-0.41440648925338186 0.5009313941695877 -0.3359665771123565
0.060530888505508085 0.640349913357325 -0.28873795783435297
-0.3942440323342398 0.4765591704802655 -0.27738819534086423
0.05774079965104166 0.6108338563436528 -0.23190616001324557
-0.37662265344211043 0.4552585824717903 -0.22310444106884847
0.05513976253503897 0.5833177578195092 -0.1786118227487208
-0.36467783532888226 0.440819777709486 -0.1742855848274715
0.053283924223900755 0.5636850392012385 -0.13026251303159628
-0.35399994212492414 0.42791242208605074 -0.12769461402918128
0.051615299983622145 0.5460328385798795 -0.0844746111217257
-0.347095946137058 0.41956692454865957 -0.08384887326156477
0.05059641373712797 0.5352541479679922 -0.041504861640031
-0.3414504859318555 0.41274273543806894 -0.04134794344857531
0.04967073863832674 0.5254615282997634 -8.901496152108562e-16
-0.3389423772615786 0.4097109528634422 -8.970101132086278e-16
0.04920812028399179 0.5205675373072318 0.040327975204111424
-0.3383154472391134 0.4089531246480441 0.04095564796993417
0.04902311517163551 0.5186103876503715 0.08009444610059745
-0.3389423772615786 0.4097109528634422 0.08181522521603998
0.04911561467734051 0.5195889302081667 0.11975747165807873
-0.3427047704291519 0.41425890494363815 0.12349259747977319
0.04939314966301758 0.5225249436786408 0.15945276909747214
-0.34772340408650126 0.42032539091815024 0.16594212597934602
0.05013350447157975 0.530357079456283 0.2005261185593064
-0.356511528085165 0.4309484079821861 0.21085857123316382
0.051244720274067686 0.542112514745816 0.24333890786039647
-0.36656313396189305 0.4430987122753071 0.2574126133523224
0.05244940915018359 0.5548567918659703 0.2868517120290554
-0.38039688534962096 0.45982084513026084 0.3077516546176933
0.05439721011013918 0.5754623736893955 0.3350375938067092
-0.3961332400412895 0.47884283030488206 0.36090014490757794
0.056625684539688304 0.5990371706750856 0.3857721407081286
-0.41818948858140736 0.5055042548189095 0.42149178336628873
0.05960051187166333 0.6305075566435628 0.44264884502277835
-0.4434276991592487 0.5360120107034309 0.4871965722375309
0.06313763140951763 0.6679263728136478 0.5049095611584202
0.0677047019474695 0.716240932462118 0.5768291169893371
0.07302441283654573 0.7725175953529329 0.6565329265526507
0.08031360267501711 0.8496291692411222 0.7555735325117356
0.08854747168294147 0.9367344048654126 0.8647512424305643
0.10288139293834062 1.0883714526700277 1.035700546245422
0.12070311134766702 1.2769055403243392 1.2436611281886283
-1.2081942537178971 1.4604559717030339 1.8406962593128016
0.1499047066140437 1.5858261502872741 1.5704244615462688
-1.2381156606371557 1.4966247395005268 1.916115380754567
0.18213557245812106 1.9267930955983186 1.9270412061061362
-1.2330225265238604 1.4904681979447651 1.9260442887724032
0.009034398078577224 0.09557394860189569 2.0389999999999997
-0.06119270301587438 0.07396927130647563 2.012
0.006027889874813928 0.09581056592911408 2.0389999999999997
-0.06348593907107075 0.07201066268452397 2.012
0.006027889874813928 0.09581056592911408 2.0389999999999997
-0.06348593907107075 0.07201066268452397 2.012
0.12146095264205847 1.9305665585478486 1.9260442887724032
-1.278570345268695 1.4502533820679369 1.92504737143867
0.09958000339036248 1.5827788294404166 1.5635106431621029
-1.283854341171511 1.4562468989340593 1.9151276924139717
0.08040975112767103 1.278076395182849 1.2417163883478328
-1.2521511890239794 1.4202867315531165 1.8387515194720063
0.06845641182970148 1.0880835076773299 1.0328473766965365
0.05889285474549065 0.9360751207354711 0.8619796038330305
0.053399303865385 0.8487576299195738 0.7529005129391706
0.04834918931186995 0.7684883576820699 0.6514170855665262
0.04480027664727716 0.7120800061877368 0.5719750150230875
0.04162930943348965 0.6616789256097634 0.49882631343362
-0.49216000206136074 0.5582459425476923 0.5611796026128225
0.039518140197478735 0.6281228515149981 0.43982041789803217
-0.45546099393422834 0.5166190888889463 0.48224682476922504
0.03753360750791145 0.5965796076865535 0.38317434851480786
-0.42993664000381815 0.48766739237130396 0.4175950950763076
0.03604700860255105 0.572950794720461 0.33268645279753933
-0.4064056005679172 0.4609766673347259 0.35678564814153063
0.034685837632125426 0.5513156016908626 0.2842392192054757
-0.39073683055001046 0.4432039364127222 0.3046166632293976
0.03394406934839192 0.5395255324413031 0.2415229458614383
-0.37638871417650244 0.4269291930057715 0.25468867035388515
0.03314108365697021 0.5267624403600183 0.19861270139748097
-0.3659636766265441 0.4151043090477168 0.2085624706389733
0.03270897928171395 0.5198943379902771 0.15821670111997235
-0.35619855671469236 0.40402795471894043 0.1637790070187214
0.03240045566423759 0.5149904955169073 0.1183567994749433
-0.35164446169096863 0.39886234788717395 0.12209192529663777
0.03240045566423759 0.5149904955169073 0.0793122737753963
-0.3477425299365202 0.3944364750797627 0.0808766184257986
0.03246215205948503 0.5159711316378727 0.039857220629744367
-0.3470923533323482 0.3936989944846346 0.04048489339556711
0.03277069637996609 0.5208753031760789 -8.798588682141989e-16
-0.3477425299365202 0.3944364750797627 -8.867193662119705e-16
0.03338808752263186 0.5306884543793855 -0.04103410706566392
-0.34969331031897427 0.39664920108095214 -0.040798729778480376
0.034067661679769067 0.541489976294735 -0.08353600433148431
-0.35619855671469236 0.40402795471894043 -0.08291026647132338
0.03511876620062884 0.5581968042371308 -0.12862839548460492
-0.36205662027584695 0.4106726235268566 -0.12582705111833403
0.036294658392191745 0.5768870754074789 -0.17613968679372122
-0.3737816331358332 0.4239720400336672 -0.17212246586684685
0.038029496866400246 0.6044615433326495 -0.22884469255432485
-0.386169891382305 0.4380237607593666 -0.22042565704229286
0.039890516100174626 0.634041596999173 -0.28510603383643657
-0.4037930393136997 0.4580132982805248 -0.27375627134294783
0.042561459550594434 0.6764950274473001 -0.3505965369244032
-0.4247048597646999 0.4817331025497901 -0.3317865885946289
0.04554702408748448 0.7239492168631542 -0.42261759639828966
-0.45218694879064103 0.5129054136421356 -0.3979306158020058
0.052650702427810864 0.8368589507998693 -0.5409902242590446
-0.48429164224944804 0.5493210402372484 -0.47149928308771477
0.05383605097748514 0.8556995264782783 -0.60245497757094
0.051029225921686926 0.8110863197600078 -0.6136476142392266
-0.5788333976346964 0.6565576119295804 -0.6615531900720286
0.018111555022076523 0.2878749234905366 -0.2200526224699862
-0.5466361636566673 0.6200370187196256 -0.6642029523818334
-0.5243102179912121 0.594713204250593 -0.6710278093466718
-0.1907515071597736 0.21636511390766042 -0.24235377457923646
-0.19294151748401933 0.20546184762861422 -0.24482807611549132
-0.19294151748401933 0.20546184762861422 -0.24482807611549132
-0.19680818584000265 0.20957943121014289 -0.24146276805504807
-0.5427318957283007 0.57795076724507 -0.6710278093466718
0.009030634205423785 0.2873594398063997 -0.21924360547561125
-0.5651623559830005 0.6018367813450292 -0.6633939353874584
0.02552720909756376 0.8122889643443947 -0.6136476142392266
-0.5991707512638967 0.6380520439821956 -0.6615531900720286
0.02690010145261725 0.8559751074311909 -0.6017478707897534
0.0266192052603358 0.8470368456633443 -0.5468352566940163
-0.4958786659971324 0.5280571452114862 -0.4663036987010733
0.02266022319022708 0.7210599935407379 -0.4202664553891198
-0.46400832765620864 0.4941186819638463 -0.3944039042882509
0.021166866644352998 0.6735406177480763 -0.3485065426655394
-0.4348894953421911 0.46311027503286334 -0.32812909864161727
0.019893006827119152 0.633005741110913 -0.2841980528369575
-0.4139246406636701 0.4407849723521114 -0.2710323283445106
0.018900091522097824 0.6014106638067339 -0.22731395882486446
-0.3956871761738974 0.4213640452287394 -0.2181295564481023
0.01806337143404276 0.574785798895933 -0.17521263581059635
-0.383541914338811 0.4084306550019479 -0.1705773808949721
0.017444286808440734 0.5550862066902266 -0.12769461402918128
-0.37140828557338257 0.39550965273611305 -0.12465982429905449
0.016918594139341287 0.5383583947263647 -0.08291026647132338
-0.3639995154912201 0.3876201139287758 -0.08181522521604175
0.016578722427215774 0.5275435014884379 -0.04072027068275253
-0.3586144915015686 0.38188564582224266 -0.04040643429984114
0.01626995456170619 0.5177183486979768 -8.729983702164274e-16
-0.35525026983976027 0.3783031136255391 -8.747134947158703e-16
0.01614650509220244 0.5137901228841476 0.03962184334256084
-0.35457755990886203 0.3775867503092201 0.039935679725472205
0.01608479309622033 0.5118264153314596 0.07868653591523539
-0.3559230249098852 0.37901952501025227 0.07993801163555722
0.01608479309622033 0.5118264153314596 0.11742301801951968
-0.3592874684735209 0.3826022935084012 0.12045780774964644
0.01620822561303699 0.5157541017020387 0.15667161614809763
-0.36534619583810674 0.3890541828417012 0.16223392204684667
0.016424313181520836 0.5226301196223916 0.19669928423565552
-0.374103584209893 0.39837985426137146 0.20588368661241765
0.01679497776397049 0.5344248578817304 0.23879900286300101
-0.3848908335360567 0.40986710804835225 0.2515107368557083
0.017165915175316935 0.5462282776973322 0.28110422781718
-0.3997379986720442 0.42567773305361994 0.30095917327638605
0.017815660874778906 0.5669035210929589 0.32857195603149203
-0.4159523623814794 0.4429442766638559 0.3526711513754833
0.018559080958498224 0.5905595317273068 0.3786282121764966
-0.4396268959781765 0.4681550943144736 0.4123995106896661
0.01952051690222754 0.6211529195132788 0.4341635636485398
-0.4660413589598686 0.49628364041023865 0.4765899705197326
0.020607397095321726 0.6557380080374751 0.4935034716744198
0.022162221617236744 0.7052133265423935 0.565502879068088
0.023843745630868253 0.7587202882448119 0.6420380437586312
0.02627594014159402 0.8361139724760467 0.7404264216005334
0.029023558385348026 0.9235446026363061 0.8490452903778725
0.03349423960436554 1.0658039856902979 1.0100220203054529
0.039253798276461534 1.2490761143024354 1.211572920815505
-1.2975129475568323 1.3817109505690328 1.8406962593128016
0.04874861768953725 1.5512061669144301 1.5299292395818682
-1.3248604147317697 1.4108330452171733 1.9092015623704008
0.060289881670815296 1.9184551415574247 1.9110905287664062
-1.3241767107158422 1.410104974389415 1.9260442887724032
0.0030154328715001556 0.09595262979511024 2.04
-0.06571652216915431 0.06998098823245533 2.0109999999999997
-1.6465195194651677e-16 0.096 2.0389999999999997
-0.06788225099390874 0.06788225099390839 2.0109999999999997
-1.6465195194651677e-16 0.096 2.0389999999999997
-0.06788225099390874 0.06788225099390839 2.0109999999999997
-3.290300847668108e-15 1.918403502915901 1.9100936114326732
-1.367109542063111 1.3671095420631039 1.92504737143867
-2.6601133126095e-15 1.5509738875945007 1.528941551241273
-1.368522012976046 1.368522012976039 1.9092015623704008
-2.145088733760084e-15 1.2506898096650503 1.2125452907359024
-1.3381546995769993 1.3381546995769924 1.8377791495516087
-1.830597139998882e-15 1.067326098247391 1.010973076821748
-1.5762470047752735e-15 0.9190277471328056 0.844425892715316
-1.4330437402790249e-15 0.83553336258943 0.739535415076345
-1.300240848983443e-15 0.7581028953908565 0.6411854035942771
-1.2050284577756594e-15 0.7025894960786135 0.5630758280849631
-1.1150485922671506e-15 0.6501269106874442 0.4889410358808196
-1.0591029187759985e-15 0.6175078946863757 0.4313351365237936
-0.47720016764456524 0.4772001676445628 0.47234732983261335
-1.0083065081735835e-15 0.587891146386812 0.37667986803150605
-0.44992054854162983 0.4499205485416275 0.40850282239968505
-9.677193875150321e-16 0.5642269047112164 0.3268086002746146
-0.42547150315855575 0.42547150315855353 0.3491444398617285
-9.322470825308287e-16 0.5435448463558458 0.27953673212303215
-0.4094245962323232 0.4094245962323211 0.29834668045280627
-9.119963862200078e-16 0.5317377173005504 0.23743703136378239
-0.39409199433634884 0.39409199433634684 0.24924078435701058
-8.900752569967603e-16 0.5189566455880491 0.19516855050619517
-0.382952346904939 0.38295234690493707 0.2039702694505922
-8.799641765743832e-16 0.5130613998343668 0.1557445651649728
-0.37390907985765837 0.3739090798576564 0.16068883707497192
-8.732257883429107e-16 0.509132595695856 0.11672268192795197
-0.36765268936864953 0.3676526893686476 0.11929058093036692
-8.698573101021305e-16 0.5071686110160999 0.07790436359003423
-0.3641785276481862 0.3641785276481843 0.07915583931035608
-8.732257883429107e-16 0.509132595695856 0.03922954786392162
-0.3627891949879443 0.36278919498794243 0.03954338424683299
-8.816490679240003e-16 0.5140437724552258 -8.661378722186559e-16
-0.3627891949879443 0.36278919498794243 -8.64422747719213e-16
-8.968182479794166e-16 0.5228881333516759 -0.04032797520411329
-0.366262883732437 0.3662628837324351 -0.03993567972547406
-9.15370477551137e-16 0.5337049746817056 -0.08212809414612221
-0.3711280102606117 0.37112801026060976 -0.08072018396076013
-9.440665959992207e-16 0.5504361906706353 -0.12652738720990175
-0.37877763925554103 0.37877763925553903 -0.12302570675206315
-9.778616542816297e-16 0.5701403336021756 -0.1736675508387216
-0.39130614613113457 0.3913061461311325 -0.16841426193434747
-1.0235385364647547e-15 0.5967721508247515 -0.22540054166303902
-0.40384712454095906 0.40384712454095695 -0.21545077242154667
-1.0760489360421703e-15 0.627388237059 -0.28147410983852017
-0.42267954764809823 0.422679547648096 -0.2678543948463337
-1.143894181139695e-15 0.6669452751163322 -0.3448490527125277
-0.4443292697988745 0.44432926979887216 -0.3244716086886056
-1.2288193776847814e-15 0.7164607456099741 -0.4173275291276574
-0.47300105708127244 0.47300105708127 -0.38911383701761865
-1.3785376514370562e-15 0.8037536936151523 -0.5182595425674882
-0.5066142516747839 0.5066142516747814 -0.46110811431443177
-1.4517867845720375e-15 0.846461458071187 -0.5946768029778879
-0.6491475179032901 0.6491475179032866 -0.6455884912233196
-1.3955676222705718e-15 0.8136829849517563 -0.6144080202048267
-0.6196196413930097 0.6196196413930065 -0.6623135960376286
-1.3461891903063688e-15 0.7848929863363541 -0.6302242386180855
-0.5851922760939363 0.5851922760939332 -0.6650119693762083
-0.5613198731561191 0.5613198731561162 -0.671880449511026
-0.20329412190223362 0.20329412190223256 -0.24146276805504807
-0.0075684287550274384 0.24083130794433696 -0.2041773766849946
-0.20477661667912384 0.19229804279152504 -0.24390419658298004
-0.0075684287550274384 0.24083130794433696 -0.2041773766849946
-0.20477661667912384 0.19229804279152504 -0.24390419658298004
-0.20957943121014397 0.19680818584000145 -0.24146276805504807
-0.007944624880591517 0.2528020627595959 -0.2084955266600784
-0.577950767245073 0.5427318957282974 -0.6710278093466718
-0.6025608110398668 0.5658422651225146 -0.6642029523818334
-0.02558959185236856 0.8142740157888063 -0.6151684261704267
-0.638052043982199 0.5991707512638932 -0.6615531900720286
-0.026587996928396928 0.8460437804388939 -0.5946768029778879
-0.024560562420090727 0.7815297683221087 -0.5039716855042241
-0.022380072161760464 0.7121454432698663 -0.4149763881184875
-0.4840181517217579 0.4545232984169826 -0.38617491075615623
-0.020949257354976426 0.6666161778837016 -0.3448490527125277
-0.4544650244003929 0.4267710646198384 -0.3218591158650258
-0.019675700489438577 0.6260909413258188 -0.2810201193387806
-0.432150531050179 0.4058163605783388 -0.26558444234763595
-0.018714065259862897 0.5954912121613967 -0.2250178582306739
-0.4127404661229071 0.3875890963696548 -0.2135373552597212
-0.017815660874780977 0.5669035210929588 -0.17274049985559675
-0.3998152028892421 0.3754514662890987 -0.16686917696247272
-0.01722776336500384 0.5481963190039125 -0.12606049648218995
-0.3876201139287778 0.3639995154912179 -0.12209192529663951
-0.016702285330882534 0.5314753368357988 -0.08181522521604175
-0.3804524908986624 0.3572686694478026 -0.08025088056563942
-0.016393437361720675 0.5216476351057938 -0.040249516108385446
-0.37472178324121136 0.3518871767548891 -0.03962184334256267
-0.016084793096222204 0.5118264153314596 -8.627076232197701e-16
-0.3711416894599096 0.3485252449175583 -8.575622497214414e-16
-0.015930551052616683 0.5069183539221677 0.039072629672465935
-0.3711416894599096 0.3485252449175583 0.03922954786392162
-0.01583803235360809 0.5039743611843425 0.07743506019491356
-0.37185760757335645 0.3491975367751319 0.07837366698515492
-0.015868869679272313 0.5049556207976126 0.11578890047252836
-0.3761541689802694 0.35323227649630623 0.1183567994749433
-0.01599224130222564 0.5088813694940416 0.154508497187473
-0.38188564582224466 0.35861449150156643 0.1591437521030972
-0.016208225613038876 0.5157541017020387 0.1940205002090999
-0.39120561705095946 0.36736652703775025 0.20205685228876677
-0.016516952744692958 0.5255779583201996 0.2347130883653451
-0.40196853068410865 0.37747357568399253 0.2465168413585733
-0.016918594139343258 0.5383583947263647 0.2769242392994524
-0.4177702604450975 0.39231238762959747 0.2952116890645106
-0.017537108103290285 0.5580398281837718 0.3232818887608598
-0.4357476662451207 0.40919429536826507 0.3467932988525586
-0.018249218513119402 0.5806995488405863 0.37213373169319486
-0.4595076163581934 0.4315063736595456 0.4046061341097039
-0.019148200718159064 0.609305626438208 0.4256782822743012
-0.48690357054105277 0.4572328870437626 0.4673975823643075
-0.02029672254632359 0.6458521835945726 0.48589941201841946
-0.02175775010627575 0.6923428343749308 0.5549856581412137
-0.02343874125762389 0.7458328401245538 0.630953721622028
-0.025839144131981823 0.8222148980835404 0.7279523302618963
-0.0283988180066332 0.9036650414483378 0.8305676997276467
-0.03293118123153745 1.0478871777546928 0.99290300301214
-1.38171095056904 1.2975129475568246 1.8406962593128016
-0.03837695536374844 1.2211745204093511 1.18434656304437
-0.047526004363419985 1.5123019800652409 1.491409394298658
-1.4057365689647405 1.320074504971306 1.9022877439862351
-0.059599719867932506 1.8964938368978852 1.8891583474242772
-1.4101049743894223 1.3241767107158344 1.9260442887724032
-0.0030154328715005065 0.09595262979511023 2.0389999999999997
-0.06998098823245569 0.06571652216915391 2.012
-0.006027889874814257 0.09581056592911406 2.04
-0.07201066268452429 0.06348593907107039 2.0109999999999997
-0.006027889874814257 0.09581056592911406 2.0389999999999997
-0.07201066268452429 0.06348593907107039 2.0109999999999997
-0.11951688413719232 1.8996664745176022 1.895139851426676
-1.4510025683437426 1.2792308418185756 1.9260442887724032
-0.09538109332692787 1.516039065141713 1.4973355243422286
-1.4472566465452232 1.2759283675154625 1.9032754323268302
-0.07709162132218816 1.2253362321917671 1.190180782566756
-1.420286731553123 1.252151189023972 1.8387515194720063
-0.06601744579822762 1.0493172527173458 0.9957561725610256
-0.05683204574867554 0.9033194997209019 0.8314915792601579
-0.05165278814830128 0.8209975575338253 0.7279523302618963
-0.04685435130741841 0.7447285879859594 0.630953721622028
-0.04349402794004011 0.6913177775332782 0.5549856581412137
-0.040387143311856895 0.6419352604859057 0.4836181941216194
-0.5381684925026696 0.4744593488144205 0.5406486415416216
-0.038277504473998275 0.6084035113732029 0.4256782822743012
-0.4987984809607315 0.4397500146574947 0.4652762620207479
-0.036356578369067256 0.5778712652566261 0.37083483559653446
-0.46986959796642674 0.4142457735534165 0.4020083419163832
-0.0349332051860616 0.555247396369788 0.32210631825627484
-0.4446842907822776 0.39204193848549257 0.34385437259109625
-0.033696928802418445 0.5355973459505609 0.2758792421700205
-0.4269291930057734 0.3763887141765002 0.2931216948056468
-0.03289414276549484 0.5228374272866502 0.23380510736586602
-0.41067262352685835 0.36205662027584484 0.24470087935961513
-0.03221539184603759 0.5120489903595224 0.19287244991200464
-0.3996001557930643 0.3522949268583905 0.2005261185593064
-0.031845380574662074 0.5061678296139087 0.1538904631987231
-0.3900123141402555 0.3438421073966401 0.15790768412559741
-0.0315371596129341 0.5012687977159044 0.11508856438096064
-0.3841161980256762 0.3386439818072948 0.11742301801951968
-0.03147552901619069 0.5002892074322121 0.07696575679979287
-0.37895979461486795 0.33409800069060136 0.07759149465995378
-0.03159879477690545 0.502248460593606 0.03875879328955456
-0.3782233775394004 0.33344876170513543 0.0388372523852824
-0.031845380574662074 0.5061678296139087 -8.541320007225556e-16
-0.37895979461486795 0.33409800069060136 -8.507017517236699e-16
-0.032462152059486805 0.5159711316378726 -0.03985722062974621
-0.3819059959411517 0.3366954265566982 -0.039229547863923436
-0.03307934247517587 0.525781092377246 -0.08103305289084059
-0.3878008939308087 0.3418924782244641 -0.07946870824043825
-0.0341912685041202 0.5434546505073623 -0.1251267150267663
-0.39591157864265897 0.3490430086632272 -0.12115814384121588
-0.03536622711213258 0.5621300827921 -0.17150443187809697
-0.4084573464577548 0.3601035908244873 -0.1656331089849729
-0.03709984634475845 0.5896851714272585 -0.22310444106884847
-0.4210154996574334 0.37117509217106914 -0.21162393809789573
-0.03902176941101635 0.6202332637903529 -0.2787501668400829
-0.4402436312054164 0.3881269704401761 -0.26286049934919875
-0.0415050558683082 0.6597039717459404 -0.341714061324232
-0.4624585311560882 0.4077120392641763 -0.3182016259120142
-0.04442698826192407 0.7061467572070094 -0.41203746185702517
-0.49360329253273655 0.4351698399485443 -0.3826481992424014
-0.04890994556809189 0.7774013231430252 -0.5020233413592335
-0.5285063499173849 0.46594102426916945 -0.4533147377344696
-0.052775459679188425 0.8388419105264414 -0.5904341622907687
-0.6848970032632256 0.6038179319306882 -0.6420529573173869
-0.051278638093393246 0.815050612707755 -0.6166892381016268
-0.6573032027629981 0.5794907243757271 -0.6623135960376286
-0.6207820598520045 0.5472930057710423 -0.6650119693762083
-0.5947132042505957 0.5243102179912091 -0.6710278093466718
-0.016055844022549805 0.2552003328225172 -0.2111685462326435
-0.01878421736083702 0.19871626299359804 -0.16167891818947538
-0.21717131372721046 0.1796597353165075 -0.24482807611549132
-0.21717131372721046 0.1796597353165075 -0.24482807611549132
-0.01878421736083702 0.19871626299359804 -0.16167891818947538
-0.611653582184942 0.5060038491951699 -0.671880449511026
-0.6376666301288496 0.5275237139884016 -0.6650119693762083
-0.6751811068423992 0.5585583881413587 -0.6623135960376286
-0.7073567562457908 0.5851764002362304 -0.6455884912233196
-0.015208322720957504 0.16088724909083135 -0.09192388155425142
-0.5383015288957494 0.4453217533295432 -0.4494180494444885
