0.4547073534966146 0.04658842546652397 -0.10435007764359056
0.67600007144952 0.8303363532588711 -0.24955309396196487
1.5674847946867925 1.925354246513794 0.31107708570659875
3.9355497524739915 0.40322872481167493 1.1925826315804748
1.608510807875716 1.9757468302113017 0.7680171839786268
4.099644539511832 0.42004155551821526 1.927870834753558
2.175978229142311 2.6727716517580933 1.6124861399419321
3.3339075434303087 0.3415856416330011 2.0739647301879414
1.8212235171913418 2.2370235708575343 1.7854669498095588
2.541480599193717 0.2603951278985302 1.9150335607665616
1.4557712106847134 1.7881355480736243 1.7290060154982076
2.0971851713393246 0.21487348795464078 1.8042470947297937
1.2399361532167252 1.5230236019474899 1.6817364895320916
1.8457963429962225 0.18911668063160594 1.7333777891277438
1.0531605341120718 1.2936055989101827 1.5593851993933885
1.6987791520865805 0.1740535869993571 1.6772573123589585
1.0216143830036821 1.2548572064513965 1.5906891930113993
0.09550004560912574 0.009784747756324815 1.723
0.060609868363140175 0.07444759134453457 1.705
0.09400538981968952 0.01946758035422522 1.724
0.05270619052782056 0.08023750669135402 1.704
0.09400538981968952 0.01946758035422522 1.724
0.05270619052782056 0.08023750669135402 1.704
1.672110621922386 0.3462774629823355 1.6772573123589585
0.889887567147088 1.3547243484772067 1.5936403788982478
1.8138994500200096 0.3756405176924578 1.7305714570352542
0.9134833862071342 1.3906455499671735 1.5556434232700689
2.0535360015294346 0.42526686179110273 1.794823202022278
1.0737296032531758 1.6345971007002713 1.6748827493811713
2.4713149167752086 0.5117847159104062 1.8917801176080173
1.2597907229987264 1.9178480849030515 1.720754793732273
3.204360286636414 0.6635911141226581 2.025056308192464
1.5688250835806805 2.388307936520755 1.7687514131781932
3.3139894758754846 0.6862942277927763 1.5830065616435163
1.9113674852442255 2.9097789054962786 1.6288636834410524
1.7982825617819576 2.7376235626014904 0.9875368188182188
2.943025284414714 0.6094712369019908 0.9058200316732609
2.9273654262779565 0.6062282361847144 0.3744957018901358
1.4749591698290683 2.245410739677064 0.33664506535371647
0.44153938698603645 0.09143841126762321 -0.10294940546045511
0.29897402526257516 0.45514445480336024 -0.2191542287765808
0.22368482110997548 0.3405275955410269 -0.22708168465226153
0.1856427461822793 0.2826140713231681 -0.23431149620746644
0.06795905152269063 0.10345776836995474 -0.0916327683516028
0.1315698479756415 0.027246805662652775 -0.07854237287280241
0.05295063935858418 0.1019343199815534 -0.09626317642545874
0.12239185568324559 0.038707461300194854 -0.08173288564425742
0.05295063935858418 0.1019343199815534 -0.09626317642545874
0.12239185568324559 0.038707461300194854 -0.08173288564425742
0.13137973648206983 0.04154995475083446 -0.08426942089477758
0.05680165037501817 0.10934783177209671 -0.09408721750387788
0.16262557617672282 0.3130675610339939 -0.24553599901980017
0.13791191032578307 0.04361581007143719 -0.07857151968633605
0.18734759434194498 0.3606594719300612 -0.22708168465226153
0.2561932742021232 0.4931930474491508 -0.22400635192292576
1.9031895924783417 0.60189983301212 -0.10957065874542049
1.2074642230348864 2.324467579014459 -0.14391452119070022
1.9031895924783417 0.60189983301212 0.24991446772721915
1.4946181447934948 2.877262410183096 0.4063303432154686
1.8908078119137088 0.5979839900064106 0.5973466986500431
1.5379458134124018 2.9606717229044235 1.0059306343748329
1.6333596046680419 3.144351090072042 1.6578753319252078
2.0098700953142874 0.6356384458630808 0.9854601888327653
2.3128200312623513 0.731448929789026 1.5006837331270355
1.322231881922773 2.545404727391215 1.7755614466206016
2.398571980516198 0.7585687102566891 1.8857792290509736
1.059054628796574 2.038766948187834 1.723005126941164
0.9023574707110864 1.7371120778034081 1.6765961844189015
2.018443124005799 0.6383497388200319 1.811957552399579
1.7784277039792147 0.5624428287542766 1.7427322294360426
0.7677933851575047 1.4780651858111546 1.5575143113317287
1.6317885670028864 0.5160669593149328 1.6811922268747566
0.745213856536829 1.434597742861772 1.5897054643824498
0.0915316005426241 0.028947644154671617 1.726
0.04425353995540429 0.08519169091769124 1.705
0.08810444406566217 0.03812619750093898 1.725
0.03533995705772896 0.08925854264527218 1.704
0.08810444406566217 0.03812619750093898 1.726
0.03533995705772896 0.08925854264527218 1.704
1.5686924518264318 0.6788338417071565 1.6792247696168576
0.5990799198559659 1.513103156493374 1.6005264793008949
1.705270678845386 0.7379365182278996 1.7361841212202334
0.6119613048239427 1.5456378210832638 1.554707979239239
1.9225615350113823 0.8319666682979536 1.7931097669845482
0.7198010753903998 1.818009990190281 1.6748827493811713
1.930814049539077 0.8355378502297955 1.5767334683632246
0.8431056029424918 2.1294416767903783 1.717754349453751
1.6796028955066808 0.7268290765164072 1.1317037393383749
1.0470270537200732 2.6444884687483707 1.7607031918371656
1.5219510979422592 0.6586070516905133 0.7748917724155078
1.3422451668915714 3.3901243081222048 1.7060721027940466
1.4394765227814756 0.6229171160155024 0.472208445273078
1.2631023386851428 3.190232341785307 1.0345767405695598
1.3909150101107746 0.601902672956902 0.18962918238278964
1.2270281023635605 3.099119221420002 0.41773566746982016
1.3918312136880244 0.6022991496489434 -0.08319457238744565
0.20582505529968753 0.5198547481515609 -0.22562372630504074
0.1500237011559235 0.37891661570366675 -0.2282058514079658
0.12180969026715113 0.3076561585957005 -0.23080383907861216
0.1243934825825708 0.05382986675721058 -0.07225773685439833
0.042882817236164474 0.10830963276981342 -0.09081461863417778
0.12026225611330903 0.052042125424085615 -0.07936052259022744
0.029629355966929165 0.10505777166702772 -0.09626317642545874
0.10663269618681054 0.05971717918775507 -0.08082474247043234
0.029629355966929165 0.10505777166702772 -0.09626317642545874
0.10663269618681054 0.05971717918775507 -0.08082474247043234
0.06498889477071952 0.23043323909353156 -0.19471963274715595
0.11314451178427362 0.06336397114535561 -0.08099682202507749
0.08850125704421222 0.31380178715910884 -0.2279977133755287
0.10988982048282459 0.3896399125820004 -0.22708168465226153
0.1227235446723248 0.06872848731982242 -0.06351542169729098
0.14620616031037525 0.5184079405352057 -0.2175368543944658
1.0547649205231056 0.590696737607461 -0.0662699169744118
1.0434500257306119 0.5843600920571114 0.14952254764221284
0.9446392475339184 3.3494381209601722 0.4361596528037726
1.0747850034423496 0.60190852275212 0.3705901527717834
0.9728682858895068 3.449530740902749 1.0807120484410675
1.133984598818095 0.635061889133315 0.6069049690959623
0.7074091754950858 2.5082837344582884 1.2194250959630515
1.2428397604671542 0.6960237087830835 0.8803515959185828
1.4179455163083097 0.7940876438828225 1.2174302660102347
1.7020643235626534 0.9532018211488149 1.669742444267981
0.5317988829332615 1.8856166053133896 1.6783096194566316
1.627102051750539 0.9112209318136831 1.7427322294360426
0.45200369618521086 1.6026842149211937 1.5575143113317287
1.4937569088956417 0.8365440637006207 1.6821759555037061
0.44304728035057084 1.570927159831613 1.6054451224456423
0.0837596166789885 0.04690763918370772 1.726
0.02605828318704699 0.09239570269955018 1.704
0.07854237287280222 0.0552005041961548 1.727
0.016505193626823164 0.09457049531085833 1.704
0.07854237287280222 0.0552005041961548 1.727
0.016505193626823164 0.09457049531085833 1.704
1.398876421691366 0.9831468156752834 1.6802084982458072
0.28335336721028526 1.6235415888443547 1.6211847805088349
1.5043141345719406 1.0572496814204124 1.718410684634466
0.2854164136962051 1.6353623122138579 1.5528370911775795
1.3392173503597804 0.9412177180821767 1.4007331433443557
0.3363052926248824 1.9269424411666143 1.6757394669000365
1.1055530634397257 0.7769957067162778 1.011899832931489
0.08394937612286928 0.4810082365877324 0.36605420197966393
0.9708182971300569 0.6823025269585238 0.7330072359828425
0.48863074310212395 2.7997279186221156 1.759465003938546
0.8851192352349828 0.6220722174744097 0.5048962695871575
0.6774065988779715 3.8813648013570226 1.843643468186655
0.8410618507634658 0.5911081690577654 0.3090764089431066
0.5470857567455851 3.1346600447548965 0.9594937885433807
0.819038115620273 0.5756296287524494 0.12508256709717389
0.600211197311925 3.4390550940684337 0.43753831837297996
0.8288260066515306 0.5825086737848352 -0.05549968171157207
0.4925850462586978 2.8223850541021105 -0.15743226544916233
0.08927631415553022 0.5115302152829898 -0.20985432607941962
0.06900194495832959 0.3953633177327237 -0.22539543451870514
0.11258972125651011 0.0791293814197461 -0.06351542169729098
0.05560555547986089 0.3186054670222014 -0.226594650523987
0.03895946091495107 0.22322764573832543 -0.18490183613805564
0.10467810584369441 0.07356900497809257 -0.08263312145992753
0.08788012347343446 0.07625848657731338 -0.0826410288180825
0.017027838360292164 0.24049329243456638 -0.21886250489184486
0.08847207788013332 0.07677215844523322 -0.08354917199190759
0.017027838360292164 0.24049329243456638 -0.21886250489184486
0.016251263475157277 0.22952530888924452 -0.18817443500775574
0.0902625689861909 0.07832586748183198 -0.07772422315537739
0.022676319228569983 0.3202698167662481 -0.2251915876724453
0.027972385613351934 0.3950690023633088 -0.22258501762944446
0.10204210285954979 0.08854762628534679 -0.0640775050751431
0.038706550578491476 0.5466733704210924 -0.22158029034975327
0.21181087211933097 2.991518531688763 -0.16479558955743034
0.3763594907949939 0.32658812985976887 -0.027090438696836663
0.2153422125390375 3.0413935461370394 0.38214102913755826
0.6533520659206509 0.5669500426263198 0.10803724733242874
0.6691584900940575 0.580666158831225 0.26625801863098847
0.23815467799358447 3.3635862290619243 1.0167860009328347
0.7007787260178244 0.6081048018537623 0.43283507819102945
0.25291568995505315 3.572063916667758 1.6756566648671096
0.7632911300510322 0.662350302832411 0.6240467009043119
0.20234688132238318 2.8578535145462487 1.773704164772672
0.8687912080233094 0.7538986070674005 0.8611275079357668
0.034893017122097116 0.49281279238810266 0.3705548683974467
1.0429723363313024 0.9050452908691327 1.181413458514903
0.1382884675600635 1.9531221853036056 1.6774529019377666
1.3296689162562987 1.153827910053561 1.6454460502297363
0.11745365378471667 1.658860937570676 1.5556434232700689
0.11681801622303939 1.6498834874229622 1.627087152282532
1.2942016167200918 1.1230509552802441 1.6841434127616053
0.07250705397937758 0.06291841640753228 1.728
0.006780190649391841 0.09576026845596194 1.704
0.06571652216915405 0.06998098823245558 1.728
-0.0030154328715005065 0.09595262979511023 1.703
0.06571652216915405 0.06998098823245558 1.728
-0.0030154328715005065 0.09595262979511023 1.703
1.1693875315224236 1.2452712404957813 1.6792247696168576
-0.05204771397611476 1.6561851129343188 1.6300383381693806
1.0941469243611546 1.165148131868663 1.4939041172352978
-0.05211053539037287 1.6581841227489578 1.5519016471467495
0.8363582010815571 0.8906310239204733 1.0451953730153603
-0.0579215171838551 1.843092561615537 1.5797871047871508
0.6990025978675651 0.7443621628350032 0.7643631799534376
-0.01561143459606992 0.49676390362551015 0.37280520160633807
0.6156844456262586 0.655637342362297 0.5553272725309204
-0.08961494570472207 2.8515938094935156 1.766275037380954
-0.11656536542086209 3.709170070031799 1.7364875407209839
0.5610813261952702 0.5974909260239573 0.38229865825088766
-0.09577145126634487 3.04749699293662 0.919389239870763
0.5365206064158062 0.5713364159383022 0.23550114671665004
0.5235611482332363 0.5575359946646532 0.0955039239759985
-0.10368695897846553 3.2993725323723595 0.41372500399576245
-0.0835212620955499 2.6576896529906135 -0.14611252838719813
0.5324278986435133 0.5669781248267537 -0.04258638943214688
-0.017558869790492756 0.558732296298579 -0.2260280699005695
-0.012313381855358081 0.39181816377330786 -0.22033668411803595
0.08948384814121331 0.09529061972644103 -0.06351542169729098
-0.01061725906423542 0.337846661438833 -0.2371176219105499
-0.0096749774421979 0.307862774051842 -0.2519901129669077
0.36966472999293243 0.39365295462534183 -0.4385282485398135
0.06605896928652115 0.0865579895940404 -0.08354917199190759
-0.03678085475671322 0.27383660847138763 -0.25064751597572277
-0.03678085475671322 0.27383660847138763 -0.25064751597572277
0.06554717238195235 0.08588737496565008 -0.0826410288180825
0.2909344394982719 0.3812154573198547 -0.38943926549431196
-0.04582533028297854 0.3411735020780518 -0.24132681046517504
-0.05154603989010312 0.3837646742306988 -0.21752626722877527
0.5598705460039948 0.733606191837929 -0.517678791001814
0.4920762637675757 0.6447743974618586 -0.3271139687827562
-0.0744342722964332 0.554169521467436 -0.2260280699005695
0.44972846386523135 0.5892854841035698 -0.17251612388951548
-0.03438741382748354 0.2560172361111725 -0.06022890387482408
0.42554045651099376 0.5575916004193164 -0.03841017575880087
-0.3200282196867283 2.382637458368329 -0.13210023250952402
0.4176813345840322 0.547293683250466 0.08597859822511152
-0.41241341566532635 3.0704531414752125 0.3882823575822091
0.42614504681989934 0.5583838035407416 0.21107657196114601
-0.3664869935982037 2.728527002420738 0.8301340037271928
0.44670449260901574 0.5853231323539855 0.3434604836672601
-0.3891173914996617 2.8970122497235398 1.367758847083653
-0.3825945093177597 2.848448834164947 1.7792760103164607
0.4866303753175823 0.637638573804964 0.4952751594478666
0.551394185524447 0.7224994983773978 0.6803507401548262
0.6561689838988461 0.8597873792717099 0.9252549203742532
-0.24588099775909364 1.8306050514397525 1.582357257343746
0.8543330664472718 1.1194445428696145 1.316169751377623
-0.22112108783730458 1.6462654050697272 1.553772535208409
1.0368157134001954 1.3585541025046455 1.6802084982458072
-0.22098797044115806 1.6452743346737175 1.6329895240562293
0.05824150569619189 0.07631465792520102 1.729
-0.012779648498549203 0.09514557574713356 1.704
0.050159862212731 0.0818534557779929 1.728
-0.022410754930167098 0.09334751235817691 1.704
0.050159862212731 0.0818534557779929 1.729
-0.022410754930167098 0.09334751235817691 1.704
0.8834114273731671 1.4415964281877585 1.6625013829247155
-0.38732119338778853 1.6133088777692879 1.6320057954272797
-0.38685434530524443 1.6113643155583999 1.5500307590850897
0.517937099240046 0.8451965292214626 0.8481503436763989
-0.4295713286534784 1.7892933564777533 1.5763602347116907
-0.5318142726685984 2.2151658676772965 1.7087530166181855
0.43290039145093684 0.7064292341479265 0.6203418545843896
0.3823233114929777 0.623894940888483 0.45193858299617823
-0.6681411142791583 2.78300802969491 1.7718468829247427
0.3505326834113948 0.5720173508186679 0.31304504574032294
-0.6268226351020232 2.610904177877904 1.2563915512896369
0.333340985441687 0.5439630494821915 0.19177814252469835
-0.5932077399576383 2.470888062861386 0.76620795621896
0.3281324315403638 0.5354634620108161 0.07845860421125335
-0.6861158706718217 2.857878278364701 0.368354373445485
0.3338618690748477 0.5448130543177626 -0.03500326460422912
0.3526168623850712 0.5754184217931401 -0.1571087298750256
0.3859722791730564 0.6298495149534977 -0.2980012299046864
-0.12476955694981073 0.5197026068773255 -0.2159194800123508
-0.0991189996970161 0.4128603466495697 -0.23832335220930417
0.5367237944368075 0.8758536294738722 -0.7197712428408998
-0.08094134927411152 0.33714498352226197 -0.24272987331671675
-0.06720277041718718 0.2799196841681465 -0.2348089689009822
-0.09370056029796711 0.26682012983062586 -0.2551882318448482
-0.09370056029796711 0.26682012983062586 -0.2551882318448482
-0.09600556152608396 0.27338381232078524 -0.23562711861840724
0.4172442358425361 0.8689091606697347 -0.6755747630173359
-0.11677617218349458 0.3325298517323758 -0.24623753044557103
-0.14055163293165265 0.40023245141196506 -0.23776126883145207
0.29922327196393184 0.6231310579282692 -0.2789970809148353
0.27243849019065836 0.5673518757369536 -0.14660368850150976
0.25732295544047107 0.535873845641851 -0.03258545668808142
0.25257322515102065 0.5259825546312509 0.07294394193442404
-0.9125654069846411 2.5986058097868443 0.345167725236089
0.2564593353764299 0.5340753609163081 0.17820893432719612
-0.8426581620469517 2.3995391221271296 0.7668110321388488
0.2681193627590833 0.5583573131546395 0.2891806252130337
-0.8333814349196821 2.3731228709475194 1.1768434828653396
0.2910139883405842 0.6060352633549565 0.4154120399868981
-0.954973953768625 2.719367669938456 1.7842287619109394
-0.7151048328441858 2.0363204204461227 1.6187396882625302
0.3303390415207095 0.6879295018290639 0.5715846350584097
-0.610415382665717 1.7382085137543342 1.5780736697494206
0.3925948806308201 0.8175769942593034 0.7761860720917347
-0.5719863019436362 1.6287785138169735 1.6145763972123508
0.47952746203272667 0.998613686565559 1.0355365421286629
0.7157644515814677 1.4905761073128352 1.6261034236535825
-0.5497905844294757 1.56557436423687 1.6320057954272797
0.04155576782595962 0.08653969124277563 1.727
-0.031808437292406996 0.09057716774670653 1.704
0.03251884034354786 0.09032455381960569 1.728
-0.04087481199024718 0.08686339703673779 1.704
0.03251884034354786 0.09032455381960569 1.727
-0.04087481199024718 0.08686339703673779 1.704
0.5495433168988774 1.526415283541497 1.595607836156147
-0.7053052600152 1.4988499726290585 1.6290546095404312
-0.7491479554587551 1.5920204430493992 1.6454460502297363
-0.7827758316201102 1.6634833175258126 1.5746467996739606
0.2898303238130987 0.8050346938956627 0.7324934786296171
0.24346314663069338 0.6762449047571232 0.5385797479946695
-0.9160165994043066 1.9466343621417475 1.613488910775117
0.2143655697878117 0.5954232758860171 0.39126737596381456
-1.2221104927134696 2.5971169965665544 1.7767996345192214
0.19745296763710193 0.5484467162346682 0.27233515189965307
-1.019464186877197 2.1664716757737805 1.12022397533981
0.18866013713109478 0.5240236899558699 0.16765510572913883
-1.0880052925612318 2.312128939660153 0.7704294876581828
0.18561678216918082 0.5155704463547616 0.06855727875967346
-1.1152517659732897 2.3700306429978277 0.3282477387049082
0.18933646133238907 0.5259022526928535 -0.03066220039114576
-0.8330061177201947 1.770228109057126 -0.10748255190874749
0.20083516050135378 0.5578411183156765 -0.1381996554026971
0.2201167055597757 0.6113976700240198 -0.26241899349815667
-0.23864606451920742 0.5071487022015658 -0.2260280699005695
-0.18136736032237274 0.38542525976501935 -0.23832335220930417
-0.1504584676923215 0.31974051941365944 -0.24623753044557103
0.30912530623039947 0.8586285693041263 -0.6397966603030222
0.1015431398271752 0.2820469211520096 -0.2438086157926575
-0.12343175715767207 0.2623058359629224 -0.2348089689009822
0.04112192781662054 0.16554635311354926 -0.15347619637643892
-0.14361444912294993 0.23854280416520415 -0.2488312296280726
0.04112192781662054 0.16554635311354926 -0.15347619637643892
-0.1431069138829031 0.23769979094395238 -0.24792308645424754
0.0689325494658354 0.2775047956354835 -0.23317266946613216
-0.1823226761572508 0.302836954770625 -0.24553599901980017
0.21053246799698988 0.8475498144036419 -0.6124369346979587
-0.22017943641572785 0.3657168237797377 -0.23832335220930417
0.14957063189272768 0.6021330700532579 -0.25069302922782305
-0.28893945736241644 0.47992683754401544 -0.22562372630504074
0.1358398837825078 0.5468565935878492 -0.1314297398508758
-0.43143780199547743 0.716615798336318 -0.19492687881968257
0.12789153717850058 0.5148585851422424 -0.029123595353597227
-0.9648576970832065 1.6026232881732307 -0.10275683643627699
0.12500145424705067 0.503223851196139 0.06492261498630869
-1.2938431202278946 2.149066252970074 0.31433574977927065
0.12668732032543242 0.5100107164024229 0.1583074289708595
-1.110265032365656 1.844144066314228 0.6489096898005516
0.13222689264578244 0.5323116162904883 0.25642553821479364
-1.180394456345996 1.9606286509289632 1.0706234150281895
0.1433072332398111 0.5769182306685251 0.3677418058900409
-1.3928560896175977 2.3135262464538977 1.6715536631365495
0.16209848512200975 0.6525669997001848 0.5040746387916685
-1.112843281046253 1.8484265230855401 1.6179895771928998
-0.9973411941187783 1.6565781967446076 1.6560349639661402
0.19269975874585463 0.77575989259296 0.6845172975731745
-0.9102046987941356 1.511844960870315 1.6501232703838857
0.368163895007775 1.4821335818303476 1.502153616405941
-0.8550387395125686 1.420214608201396 1.6300383381693806
0.02314320583997159 0.0931686214529801 1.729
-0.04951544623536473 0.08224488181104467 1.704
0.013526518266007781 0.09504227114078954 1.729
-0.05764034163128506 0.07676972721476055 1.703
0.013526518266007781 0.09504227114078954 1.73
-0.05764034163128506 0.07676972721476055 1.703
0.20783805598621333 1.4603462976911579 1.4509997277005653
-0.9942979614298972 1.3242805491585692 1.6280708809114817
0.1397870155471561 0.9821947652990315 0.9279604785832282
-1.056706062739643 1.4074003360638554 1.6454460502297363
-1.1713308255382497 1.5600661864572458 1.670599161786846
0.10808804947808578 0.7594662206157845 0.6571023369694928
0.09076040686952902 0.6377158577621214 0.48307152884201554
-1.3585914245381912 1.8094738876686391 1.696751239504098
0.0804771749049426 0.5654621039607517 0.3535026450559148
-1.611899459215599 2.1468485140698284 1.661648159947592
0.07413854987388067 0.5209246031039413 0.24613108230106107
-1.3333821131661154 1.775898237307542 1.0388041876584704
0.07075809129642116 0.49717226311660623 0.15137205589213612
-1.2529546487346874 1.6687789120184575 0.629008184444215
0.06991299434890086 0.4912343024642835 0.06216528384789403
-1.460632054088271 1.9453792462019455 0.30481042402838365
0.07160319557332294 0.5031102752678474 -0.027914691395523376
0.07611053208906463 0.5347804723449802 -0.12606049648218995
0.08371702949116067 0.5882265088123594 -0.2401800957440756
-0.33920629381729717 0.4517803661272862 -0.22724110068715575
-0.25691981370369066 0.34218506441665764 -0.23832335220930417
0.04484710839487119 0.31511220789588473 -0.22308699339513272
-0.21357024976719882 0.2844488660510841 -0.24623753044557103
0.040061311893136636 0.2814854489770323 -0.23235451974870713
-0.18813994012845978 0.2505788736342927 -0.2519901129669077
-0.1885386153530378 0.2039599250040198 -0.2451986569327723
-0.1885386153530378 0.2039599250040198 -0.2451986569327723
-0.21303473393297606 0.23045967678748536 -0.2511719632494827
0.010954487982700383 0.2788103371813797 -0.228263771161582
0.012446241190382856 0.31677799166985793 -0.22238546196936185
-0.24166303793751812 0.2614296015788875 -0.24553599901980017
-0.29051994724764973 0.3142827083027461 -0.23776126883145207
0.01385950485939726 0.35274795400003406 -0.1984154323818028
0.018374189580523125 0.4676543532176481 -0.18923280270745352
0.020572675590929693 0.5236095586839379 -0.12232537066049542
0.019355654762156758 0.4926343101681875 -0.027090438696836663
-2.362640710532878 2.5558903210857045 -0.19122662609531763
0.018845292474964966 0.47964472255794793 0.060159952110865195
-2.356532577400983 2.5492825798908143 0.43503165370169394
0.019080844198000397 0.4856399142480459 0.1465474485330242
-2.386394613849838 2.5815871489212543 1.0599059292048973
0.01990527656527042 0.5066231191833016 0.23724041583011019
-2.593396111138646 2.805520107077801 1.7874918904753863
0.021593405645884068 0.5495888733942583 0.34050167212040827
-1.945945750390896 2.105112252831782 1.774323258721982
0.024263017334571334 0.6175350280882697 0.4635686410316236
-1.5510117946930364 1.6778751065588797 1.7132536830359681
0.028777825360057598 0.7324445656114215 0.6279739413280812
-1.3264356181096861 1.434929967453764 1.6731693143434412
-1.1961862600854485 1.2940270057729373 1.647316938291396
0.03674748545674906 0.9352859601420113 0.8755756128567557
0.05421800747556153 1.3799404380593887 1.358529236579309
-1.1256422942726947 1.2177129735004837 1.6300383381693806
0.0037689423128704222 0.09592598747910941 1.728
-0.06516487157116257 0.07049496090582566 1.703
-0.006027889874814257 0.09581056592911406 1.728
-0.07201066268452429 0.06348593907107039 1.704
-0.006027889874814257 0.09581056592911406 1.728
-0.07201066268452429 0.06348593907107039 1.704
-0.08533315544834505 1.3563316659422102 1.3368872067424191
-1.2426084088603235 1.0955066762780947 1.6280708809114817
-1.3190516079401053 1.1629004218465506 1.6435751621680765
-0.05789409626080172 0.920200309212341 0.8624793964251376
-0.04508518179780083 0.7166084438789444 0.6151231785451053
-1.4637136120337157 1.2904371342639966 1.670599161786846
-0.0381157246507807 0.6058320947182385 0.4553174192656886
-1.7081070903180393 1.5058989685717645 1.7072527944789244
-0.033846206400000405 0.5379700454195118 0.3336916386780001
-2.131750009055173 1.879390442253427 1.758845909989236
-0.031209183415610187 0.4960557653398191 0.23256111768750445
-2.856183661592859 2.518064619264222 1.7814088028899988
-0.029827898282037742 0.4741008668420881 0.1432305309736348
-2.710689537225614 2.3897942941424577 1.0894566492794577
-0.029513971230233367 0.4691111392394811 0.05890661977522217
-2.640943425428923 2.328304825237453 0.44117298214634476
-0.030204611445169578 0.4800885511067612 -0.026431036537887295
-0.03215097397081292 0.5110250975530174 -0.11952402629422453
-0.03529030174110407 0.5609232835775003 -0.22724110068715575
-0.3226014281389232 0.2844114169701904 -0.23832335220930417
-0.022858882852877387 0.3633315385857128 -0.2045983495381762
-0.019782634784036232 0.31443597570466447 -0.22098239911782014
-0.26950764780321224 0.2376029530873808 -0.2469390618713419
-0.23726469116382756 0.20917696304133934 -0.2519901129669077
-0.23650774972961872 0.16901093390928634 -0.25428008867102314
-0.016459220511466748 0.09888646381925886 -0.08990617420868317
-0.23650774972961872 0.16901093390928634 -0.25428008867102314
-0.016297096296260898 0.09791242678451534 -0.08899803103485808
-0.2577349399337995 0.1841801080474704 -0.2511719632494827
-0.2925616649674316 0.20906765329562915 -0.24623753044557103
-0.01824502178329272 0.10961550002919226 -0.07716845683479434
-0.3499742315502516 0.25009527927145697 -0.23776126883145207
-0.09230929099508929 0.5545912309643083 -0.22724110068715575
-0.08344705639232468 0.5013472124645543 -0.1185902448388009
-0.07819577424595697 0.4697976793861353 -0.026156285638325054
-2.373333167940389 1.696008928460312 -0.16023472462469718
-0.07622663926549572 0.4579671801917804 0.058154620373836355
-2.3530003124633248 1.6814788553563658 0.36233837823439846
-0.07688301128895429 0.4619106420528382 0.14111976525402334
-2.410745946275103 1.722744494688987 0.893155437355592
-0.08016496363415973 0.4816285054604394 0.2283497493591593
-3.108633883162534 2.2214625794545553 1.7874918904753863
-0.0868933874984173 0.5220526581443414 0.32750069918490177
-2.3220946188947664 1.659393320573223 1.766275037380954
-0.09739718716475318 0.5851591463857646 0.4448158642908621
-1.8569285661924753 1.3269807502452373 1.7110033498270767
-0.11528821559446126 0.6926478658103031 0.6014156982432647
-1.5910604927026917 1.1369886191267373 1.6740260318623064
-1.4341730742169299 1.0248752141866921 1.647316938291396
-0.1469700138237823 0.882991083592105 0.8372224075927311
-0.21444363757451765 1.2883704300279215 1.2847495894080936
-1.3488334038585814 0.9638905851279648 1.6290546095404312
-0.01576193727061104 0.09469720868894353 1.728
-0.0781064111520757 0.055815665694703545 1.704
-0.025331812796676 0.09259751217194856 1.728
-0.08338862538606652 0.047564032169510856 1.703
-0.025331812796676 0.09259751217194856 1.728
-0.08338862538606652 0.047564032169510856 1.703
-0.34494684739594744 1.260913309157756 1.2857333180370434
-1.4385412943244595 0.8205294677018529 1.627087152282532
-1.5279034914995793 0.8715007650640202 1.6435751621680765
-0.23626095716752468 0.8636246064453299 0.8372224075927311
-0.18483204364007172 0.6756321605603159 0.5997022632055345
-1.6936438323531964 0.966037386427542 1.668885726749116
-0.1563557932926578 0.5715405205612192 0.44406575322123165
-1.9774637597963036 1.1279254148816944 1.706502683409294
-0.13948522625711157 0.5098721137653718 0.32688160523559195
-2.463635398950781 1.4052328219481651 1.755131346293377
-0.128943422991317 0.47133777103776453 0.2283497493591593
-3.357173676391926 1.914898057178213 1.8080808023028514
-0.12314638916386082 0.4501473842814915 0.14051668933413433
-3.1834900212945536 1.8158306493618228 1.1048350852366269
-0.1218289900297901 0.44533178409797697 0.057778620673143447
-2.8439535240268423 1.6221624505637775 0.410215673455962
-0.12525431386807498 0.4578526592660609 -0.02604638527850016
-2.7875111624568705 1.589968295917287 -0.17628017715913186
-0.13342343592409442 0.4877139402208787 -0.11788990874723318
-0.14792001601511878 0.5407045122815722 -0.22643241349609824
-0.35662339671798676 0.20341439417382245 -0.22595751789655727
-0.3116858343767301 0.17778246115030397 -0.24483446759402933
-0.02798883509345464 0.10230994990555532 -0.08426942089477758
-0.1276464660506244 0.07280825879365972 -0.09899611580842803
-0.06224460490226845 0.16089247675046545 -0.15347619637643892
-0.26751320045442145 0.11826634874251257 -0.25337194549719805
-0.29292176161239014 0.12949935612251948 -0.2519901129669077
-0.11469913417802949 0.2964791536232336 -0.221683930543591
-0.33091877587071006 0.14629766039989783 -0.24623753044557103
-0.13516147892296163 0.3493710842781588 -0.2096570999388454
-0.39512536858597896 0.1746830981006674 -0.23776126883145207
-0.16932132830209048 0.43766890190685737 -0.18923280270745352
-0.18803741290012965 0.48604702577442516 -0.12139158920507179
-0.17651866459382934 0.45627287993518717 -0.026815687797274425
-3.2487626814785986 1.4362629568063912 -0.19512808886910138
-0.1718402158663897 0.444179828588975 0.05953328594304368
-3.2277331862100924 1.4269659142040845 0.44217564801485915
-0.17399941898928506 0.449761027775562 0.14503975873330177
-3.308194308502535 1.4625374042579864 1.0903612631592914
-0.18155769182765866 0.46929796979376703 0.2349007667588073
-3.4855784745957097 1.5409581237325363 1.7828125923327807
-0.19631848697870474 0.5074522948856677 0.3361680144752395
-2.619751397090919 1.1581799769908077 1.7724659768740525
-0.22116961426119958 0.5716885355172786 0.45906797461384086
-2.0923335965877863 0.9250110065573657 1.7147539051752292
-0.2618862263316198 0.6769345495482721 0.6211202011771607
-1.788945709601401 0.7908846248100877 1.6740260318623064
-1.612623932706968 0.7129335826870303 1.647316938291396
-0.3347050463958467 0.8651597030788551 0.8671566165792869
-0.4944687974064772 1.2781237765982332 1.347708221660864
-1.5167168658024097 0.6705335119535545 1.6290546095404312
-0.0346378393428138 0.08953334622173696 1.729
-0.08780228734066703 0.038816985170759245 1.704
-0.04358308797499667 0.08553662632208323 1.729
-0.09130142556433483 0.02966563145999468 1.703
-0.04358308797499667 0.08553662632208323 1.729
-0.09130142556433483 0.02966563145999468 1.704
-0.6168365237042722 1.2106098416012752 1.3359034781134695
-1.575442257202507 0.5118922196427177 1.627087152282532
-1.6751604380995633 0.5442926206886868 1.6454460502297363
-0.41632574584832144 0.8170852825141787 0.8568667322401583
-0.32475254077692817 0.6373627482182856 0.6116963084696452
-1.8565919041197436 0.603243277515054 1.670599161786846
-0.27401758099438844 0.5377897831526924 0.45156686391753625
-2.1672958667431454 0.7041971146690091 1.7080029055485548
-0.24368951774996453 0.47826760761756176 0.33121526288076075
-2.7033464790099373 0.8783705167721966 1.758845909989236
-0.2251424372829205 0.4418669126464919 0.23115732824472274
-3.622664025609822 1.177074894755009 1.7818767327042595
-0.21519508162723788 0.42234412793465326 0.14232591709380132
-0.21293484692813935 0.4179081675692953 0.05853062007452926
-3.3507463525479935 1.0887234870234017 0.44142364861347333
-0.218359748910595 0.42855513719139837 -0.026321136178062397
-3.3754655784153225 1.0967552503833269 -0.19496323832936405
-0.23283140155053264 0.45695735469456117 -0.11929058093036862
-0.25636135856047115 0.5031374955163508 -0.2276454442826845
-0.4124910392699159 0.13402646317837555 -0.23832335220930417
-0.06397157169270236 0.1255512786577729 -0.07531917263218575
-0.3458499077968891 0.11237344698354272 -0.2469390618713419
-0.05924269101712011 0.11627032776459494 -0.08628836536981548
-0.3046128021587768 0.09897469914608313 -0.2511719632494827
-0.05593396060926946 0.08662640409314223 -0.08082474247043234
-0.055466449049635935 0.08590235657635836 -0.07991659929660726
-0.31383355664650675 0.06756659693472784 -0.2511719632494827
-0.059719689103654175 0.09248946193437699 -0.07936052259022744
-0.3589705789289426 0.07728434357718242 -0.24904365614865448
-0.06798448546895723 0.10528937064618073 -0.07997458253787777
-0.3050777919439802 0.4724820448420588 -0.22643241349609824
-0.2764647054944864 0.42816820112123527 -0.11835679947494498
-0.25866428154987814 0.4006002137865544 -0.02604638527850016
-0.25219491507094444 0.39058093482389383 0.05790395390670775
-3.462896988304865 0.7455422152285068 0.44380498005119506
-0.25489023733713406 0.39475525170131326 0.14081822729407883
-3.5410781355826404 0.7623741758462876 1.0918689529590138
-0.26567496327032364 0.4114578419800258 0.22788181954489872
-3.748263593298867 0.8069800378255955 1.7935749780607737
-0.2867190911431987 0.44404943937535357 0.3256434173369723
-2.7896241603998697 0.6005903678981697 1.7656559434316441
-0.32182501025047766 0.49841890475064 0.4433156421516012
-2.234722413032002 0.48112314742814277 1.7132536830359681
-0.38075831272402216 0.5896904689132286 0.5997022632055345
-1.912432297900949 0.41173590108713143 1.6740260318623064
-1.72399651910585 0.3711667393633872 1.647316938291396
-0.4835986443747989 0.7489620103813039 0.8325451874385817
-0.7035715031858945 1.0896397944918714 1.2749123031185983
-1.6215031870413523 0.3491005023105427 1.6290546095404312
-0.05207438751965959 0.08064898117429829 1.729
-0.09384959402541998 0.020205288942845033 1.703
-0.0600232950082279 0.0749213191044795 1.728
-0.09542025172369728 0.010534493864740044 1.703
-0.0600232950082279 0.0749213191044795 1.728
-0.09542025172369728 0.010534493864740044 1.704
-1.6477372635338727 0.1819118874645592 1.6280708809114817
-0.8155551213211141 1.0179791943014098 1.281798403521245
-1.749955425411084 0.19319687759724677 1.6445106061989065
-0.5589777036411531 0.697718225916242 0.8344160755002415
-0.43803002783887396 0.546750848792318 0.5979888281678045
-1.9395502259833595 0.21412833844896056 1.669742444267981
-0.37141929194657075 0.4636070593870987 0.4433156421516012
-2.2632493191665985 0.2498650510394377 1.706502683409294
-0.33287568816508617 0.41549677757145725 0.32750069918490177
-2.820468382320304 0.31138260833017267 1.755750440242687
-0.3067972098468567 0.3829455156726979 0.22788181954489872
-3.859721894330597 0.4261172642173053 1.8165035389595419
-0.29439024184361 0.3674590881321424 0.14081822729407883
-3.6739101594265815 0.405603457703662 1.1141827619949063
-0.291289807873332 0.36358911393599525 0.05790395390670775
-0.29873175212420877 0.37287817878825397 -0.02604638527850016
-0.3185909190515354 0.3976664711055519 -0.11812335411108908
-0.35276310130372784 0.4403203269237303 -0.22683675709162698
-0.4135761823920187 0.04565923561622014 -0.22764376803011366
-0.3605832592789119 0.03980876243756865 -0.24553599901980017
-0.0800012478309414 0.09985788045586114 -0.0792730511121069
-0.07562023909645807 0.09438948767018111 -0.08590572032962764
-0.15238761724436012 0.016823749570180485 -0.098177966091003
-0.27246257007812436 0.0021399600226833636 -0.23157650932539603
-0.14937780436360074 0.1517428490747982 -0.18344492111266666
-0.27246257007812436 0.0021399600226833636 -0.23157650932539603
-0.3226034896151729 0.002533773981346018 -0.2519901129669077
-0.22734881310359267 0.2309483445756103 -0.22238546196936185
-0.363879462980811 0.0028579613839477104 -0.24623753044557103
-0.43471803944686765 0.0034143377025653223 -0.23832335220930417
-0.25831185470160106 0.2624016128045826 -0.20347418278247195
-0.3344764859213396 0.3397721310636573 -0.1908501770895685
-0.36506041333620176 0.3708402827318369 -0.12045780774964816
-0.3435073685773712 0.348945996416175 -0.026650837257537086
-3.5491889734371327 0.027875838189173247 -0.19496323832936405
-0.3344764859213396 0.3397721310636573 0.059157286242350775
-3.5231993568170874 0.027671712020372087 0.44142364861347333
-0.33794933647510805 0.3432999660032919 0.14383360689352379
-3.6141636179808967 0.028386158347174575 1.0894566492794577
-0.35323805042110923 0.3588307406236553 0.2334969773160256
-3.8100919838544707 0.029925007775772807 1.78234466251852
-0.3817617873232248 0.3878060835283583 0.3343107326273099
-2.860522970957047 0.022466956837632078 1.769989601076813
-0.4284425474275113 0.4352259232119014 0.4553174192656886
-2.287944168098969 0.017969840967364644 1.7147539051752292
-1.9572950994191898 0.01537287585648968 1.6748827493811713
-0.5073074535989622 0.5153394688986705 0.6168366135828355
-1.763560198654726 0.013851254216806823 1.647316938291396
-0.6464362267975038 0.6566710176074725 0.859673064332648
-1.6607255332073012 0.013043576035761962 1.6310220667983304
-0.9496464895172926 0.9646818986740185 1.3300011063397723
-0.06734701687400232 0.06841329781681954 1.728
-0.09599703913389981 0.0007539744853159546 1.704
-0.07396927130647592 0.061192703015874025 1.728
-0.09557394860189565 -0.009034398078577694 1.703
-0.07396927130647592 0.061192703015874025 1.729
-0.09557394860189565 -0.009034398078577694 1.703
-1.0340596186008502 0.8554485129314768 1.3181963627923778
-1.6504001486387088 -0.15600874662878741 1.6280708809114817
-1.7527824421597875 -0.165686722786496 1.6445106061989065
-0.701943676273369 0.5806983110337405 0.8493831799935194
-0.5507916533056888 0.45565448285559196 0.6091261559130501
-1.9446705553624148 -0.18382548995662557 1.671455879305711
-0.46504317231113595 0.38471717011904477 0.44931653070864486
-2.268890605506301 -0.2144733081215663 1.7080029055485548
-0.4146195071695741 0.3430030865343206 0.3299770749821411
-2.826011560453738 -0.26713674369727985 1.7563695341919967
-0.3833529520595972 0.3171371426446345 0.2302214686162016
-3.7952795638639523 -0.3587595458911237 1.7832805221470411
-0.3665987135572923 0.3032768311555458 0.14172284117391232
-0.3627934852764276 0.30012887255076537 0.05827995360740066
-3.5186071712743803 -0.3326063046724476 0.4428023141826807
-0.37192767058805404 0.30768532780838775 -0.0262112358182375
-3.5375159681437363 -0.33439371223071757 -0.19518303904901385
-0.3955483995284188 0.32722609420417165 -0.1185902448388009
-0.4352352705295266 0.3600579292068165 -0.22643241349609824
-0.43270927717880203 -0.04090306950286842 -0.23832335220930417
-0.10730749879674595 0.08877248334702265 -0.06632583858655164
-0.36312551813421856 -0.03432546767508196 -0.2469390618713419
-0.10086207618590723 0.08344036604113914 -0.07576539398325262
-0.32105658541706344 -0.030348782705302002 -0.2519901129669077
-0.2888012763871453 -0.05744614558843523 -0.25337194549719805
-0.10002342798309853 0.06683351786976546 -0.08173288564425742
-0.2888012763871453 -0.05744614558843523 -0.25337194549719805
-0.10002342798309853 0.06683351786976546 -0.08173288564425742
-0.10509264525469254 0.07022066056161612 -0.08017867230765247
-0.2776752561794755 -0.055233042569413665 -0.21844597455248171
-0.11983379722532432 0.08007038340671419 -0.08418377109250291
-0.3592690741572825 -0.0714630620669245 -0.2483421247228836
-0.47032922558486456 0.31426394132493163 -0.22643241349609824
-0.4259262681367823 0.28459483369768357 -0.11812335411108908
-0.3996657474308269 0.2670481147413269 -0.02604638527850016
-0.38983016752591015 0.2604761903573132 0.05790395390670775
-3.4908556932366634 -0.6943743701224767 0.44593564502178823
-0.39310789862803414 0.2626663002605961 0.14051668933413433
-3.5702721172650014 -0.7101712790347806 1.0972966362380145
-0.4095082004549658 0.27362463159678063 0.22741388973063814
-3.7732304005265274 -0.7505421916376427 1.7996580656461612
-2.794802552906545 -0.5559207921573646 1.7631795676344049
-0.4431821992567776 0.29612487824947126 0.3262625112862821
-2.24005630358444 -0.4455749024097163 1.7117534608967073
-0.4950362306413099 0.3307726343106124 0.4425655310819707
-0.584148326827539 0.3903154333624602 0.5979888281678045
-1.9186780439861881 -0.3816487919686724 1.6740260318623064
-1.7286504689645084 -0.3438499571536937 1.6463814942605661
-0.7404937872417554 0.4947821301468963 0.8297388553460922
-1.077966732381965 0.7202743429652946 1.2729448458606991
-1.6277827807105514 -0.32378612649098537 1.6300383381693806
-0.0798210827810445 0.053334742369881595 1.728
-0.09415538691871005 -0.018728670913548698 1.703
-0.08484150048851469 0.04492126216901482 1.729
-0.09175612942063958 -0.028227871222301543 1.703
-0.08484150048851469 0.04492126216901482 1.729
-0.09175612942063958 -0.028227871222301543 1.704
-1.1972014149988146 0.6338855197352106 1.3300011063397723
-1.5842666921156723 -0.4873840739489981 1.6280708809114817
-1.6825712438845157 -0.5176265029335058 1.6445106061989065
-0.8129942903022139 0.4304583187036142 0.8568667322401583
-0.6372030357731608 0.33738164058912673 0.6134097435073753
-1.8649038353306326 -0.5737193323005189 1.669742444267981
-0.5381596307687602 0.284940857049273 0.4523169749871667
-2.180017033249126 -0.6706608099702386 1.7095031276878159
-0.4795958233577034 0.25393291717103017 0.3318343568300706
-2.714913223551488 -0.8352163647052928 1.7576077220906163
-0.44384314858918306 0.23500285031374205 0.23162525805898332
-3.6416717542135375 -1.1203245163119278 1.78234466251852
-0.4246924495940446 0.22486307714463172 0.1426274550537458
-0.4203437588400629 0.2225605639131734 0.05865595330809357
-3.368400664001183 -1.0362553517558526 0.4415489818470376
-0.4307830148102591 0.22808786542937087 -0.026376086357974848
-0.45778639950801675 0.24238542165449853 -0.11929058093036862
-0.5040518205512964 0.2668817011412854 -0.22804978787821323
-0.4155712708250185 -0.12784641626239002 -0.2388854355871563
-0.13941967994463017 0.07381892067268073 -0.07475708925433362
-0.3486066671921796 -0.10724541423957533 -0.24764059329711274
-0.13645261252855728 0.07224793934275253 -0.09049755392444063
-0.30808603818917923 -0.09477964105836634 -0.25280826268433276
-0.27038188289650217 -0.11449193669442204 -0.25428008867102314
-0.11730184431837272 0.04751213844483372 -0.08173288564425742
-0.27038188289650217 -0.11449193669442204 -0.25428008867102314
-0.1179627615412564 0.047779837480400426 -0.0826410288180825
-0.2941863755432151 -0.12457183715207781 -0.2511719632494827
-0.12064143605414862 0.048864812359054134 -0.07772422315537739
-0.3306319594828921 -0.1400045482661209 -0.24413293616825846
-0.13185533069209213 0.05340690730768659 -0.0778699882605652
-0.3916254887463004 -0.16583197137741199 -0.23382668518648714
-0.5264660715124156 0.21324071263803487 -0.22683675709162698
-0.4575923544916523 -0.19376533043215793 -0.1977240182135572
-0.47709813930827316 0.19324464144880293 -0.11835679947494498
-0.44791453888098026 0.18142406631737618 -0.026101335458412606
-2.6551248521555117 -1.1243001314741865 -0.15836641850767397
-0.43607704127187713 0.17662938616113244 0.05790395390670775
-2.6450003319055466 -1.1200129509904109 0.35983171356311244
-0.4406285672207255 0.17847294396939672 0.14081822729407883
-2.71127056705125 -1.1480747703909757 0.8874262161166467
-0.4597630321174266 0.18622320016121244 0.2283497493591593
-3.5259363141926414 -1.4930411496085119 1.791235328989471
-0.49628053767235114 0.20101431269373557 0.32688160523559195
-2.621990195930178 -1.1102694171293408 1.7619413797357852
-0.5548621617881243 0.2247423133188364 0.44406575322123165
-2.1038656794128383 -0.8908720273728739 1.7125035719663377
-1.802092432193781 -0.7630875650910579 1.6748827493811713
-0.6549395404143168 0.2652778248967984 0.6005589807243996
-1.6227311300195133 -0.6871378652295993 1.6463814942605661
-0.8308591532060519 0.3365326039387791 0.8344160755002415
-1.2132808183517785 0.4914293253355264 1.2847495894080936
-1.5289304083109956 -0.6474183907711217 1.6310220667983304
-0.08897823318145173 0.036039894837626874 1.729
-0.08840116609353836 -0.03743305802766645 1.703
-0.09218819382498662 0.026783146179765707 1.728
-0.08412544128421072 -0.04624835271376501 1.704
-0.09218819382498662 0.026783146179765707 1.728
-0.08412544128421072 -0.04624835271376501 1.704
-1.260137924944392 0.3661039103827694 1.2877007752949423
-1.4521599724844514 -0.79833170060146 1.6280708809114817
-1.5414346816955713 -0.8474108873134303 1.6435751621680765
-0.8630549216346907 0.2507406335695341 0.8362869635619012
-0.6780099575762814 0.19698010180757464 0.5997022632055345
-1.709511974729739 -0.9398121610869323 1.669742444267981
-0.5753454891334127 0.16715331649281534 0.44406575322123165
-1.9949602427138609 -1.0967386743715735 1.706502683409294
-0.5147054682205869 0.14953576182485462 0.32688160523559195
-2.4836711299990877 -1.3654097582338858 1.7538931583947572
-0.47691191594462456 0.13855571987738605 0.2283497493591593
-3.393860210149281 -1.865790439421518 1.811824240816936
-0.4571115589186092 0.13280318438844815 0.14081822729407883
-3.2317836425547193 -1.7766880923749706 1.1117704583153503
-0.4524019514657543 0.13143491693872902 0.05790395390670775
-2.877859192969929 -1.5821164796909646 0.41146900579160506
-0.4627655800153215 0.13444582936557187 -0.02599143509858771
-0.49296249900491657 0.14321884532260715 -0.11788990874723318
-0.5459501125062222 0.15861317011886697 -0.22683675709162698
-0.3624797748159124 -0.19927494253083752 -0.22764376803011366
-0.3154425198349825 -0.1734159927786935 -0.24553599901980017
-0.13345893093274497 0.03877340370669186 -0.08508757061220261
-0.1305846618787933 -0.07178952537288719 -0.10063241524327808
-0.13459308124625172 0.02458106130141501 -0.08990617420868317
-0.10742567701941033 -0.07424645444097731 -0.09444689007780857
-0.13459308124625172 0.02458106130141501 -0.08990617420868317
-0.10808197909112137 -0.07470005271672295 -0.09535503325163365
-0.133176388632961 0.02432232728886315 -0.07936052259022744
-0.14411717110616376 0.026320468962781726 -0.07857151968633605
-0.2959652196494449 -0.2045541513584866 -0.24623753044557103
-0.33621531539356453 -0.2323727044533001 -0.22539543451870514
-0.567398714731566 0.10362540525870552 -0.23007150585585698
-0.4042353821623084 -0.27938426564183483 -0.19610664383144222
-0.5121651823925666 0.09353797110720863 -0.11952402629422453
-0.48027675457500174 0.0877141100904958 -0.026321136178062397
-2.7080893303908686 -1.8716757172927339 -0.18084104209186502
-0.4677363531154319 0.08542382611625454 0.05840528684096496
-2.691641284073357 -1.8603077729107258 0.4099650069888334
-0.4725580109023049 0.08630441718777274 0.14202437913385682
-3.116839433388656 -2.154180298525082 1.1422257922697443
-0.4918638482797107 0.08983028915425895 0.22975353880194102
-3.250079431207919 -2.2462681280112893 1.8483227663292605
-0.5295883006414828 0.09671999750687797 0.32811979313421163
-2.3396691497788047 -1.6170448607424162 1.7600840978878558
-0.5897307711631283 0.10770396296054266 0.44406575322123165
-1.8775673350003146 -1.2976666423315155 1.7110033498270767
-0.6928987594479415 0.12654578321527649 0.5979888281678045
-1.607107958322541 -1.1107406638709547 1.6723125968245762
-0.8774989096245484 0.1602597569628532 0.8297388553460922
-1.4493041510232496 -1.0016757408996748 1.6463814942605661
-1.2675004690136424 0.23148668891376836 1.2640912882001534
-1.3646626358927494 -0.9431763898011801 1.6300383381693806
-0.0944379483791555 0.017247431864946147 1.728
-0.07897348973000233 -0.054581937670489654 1.703
-0.09570406403838032 0.007532073189872785 1.728
-0.07299897269760271 -0.06234701263969794 1.703
-0.09570406403838032 0.007532073189872785 1.729
-0.07299897269760271 -0.06234701263969794 1.704
-1.344243964149661 0.10579429436726488 1.3231150059371257
-1.2612148108707508 -1.0771792101851765 1.6300383381693806
-1.3379456625418007 -1.142713548576583 1.6445106061989065
-0.9131894834248605 0.07186957099982498 0.852189512086009
-0.7152006598104004 0.05628751264916933 0.6091261559130501
-1.4845901404057338 -1.2679597647500442 1.671455879305711
-0.605711801343972 0.047670552609582716 0.4500666417782753
-1.733093957680606 -1.4802020753484568 1.7087530166181855
