0.096 0.0 1.723
0.0678822509939085 0.06788225099390863 1.706
0.096 0.0 1.723
0.0678822509939085 0.06788225099390863 1.706
0.096 0.0 1.723
0.0678822509939085 0.06788225099390863 1.706
0.096 1.797 1.7090485597823906
1.1578220934150452 1.1578220934150472 1.5559284606588708
0.096 2.263 1.830805458270505
1.4871133110829169 1.4871133110829196 1.7005537221761384
0.096 3.545 2.083698719376814
2.1671068270853637 2.1671068270853673 1.800974013024135
0.096 3.967 1.2258704166854109
1.8058816406398273 1.8058816406398304 0.7889203866392371
1.8108296441134364 1.8108296441134395 -4.3907187185737804e-15
0.096 2.879 -4.93784343389606e-15
0.096 0.467 -0.1443109363731014
0.2778281843154144 0.2778281843154149 -0.22747289263718792
0.07476676857369104 0.10290762851688089 -0.09222793735874421
0.13539427042054772 0.021444345743707394 -0.08009268244311998
0.07476676857369104 0.10290762851688089 -0.09222793735874421
0.13539427042054772 0.021444345743707394 -0.08009268244311998
0.23045983361924285 0.3172007483883213 -0.2280606778894804
0.4638881712531968 0.07347266837711032 -0.14214781741247676
1.474538479070439 2.029528103631619 -4.30153224460275e-15
3.927177948590777 0.6220038814424116 1.2283425526404104
1.515085674935144 2.0853365309456025 0.7963367945042359
3.5480250095310977 0.5619519553920412 2.1107368409822675
1.7942271721624998 2.4695418409825898 1.7939205899966253
2.2617706023875885 0.358229271001648 1.8510308831298785
1.2330318349514435 1.6971227249925667 1.696508637204264
1.7891808588724751 0.2833784089718905 1.7204612379779325
0.9616010527856201 1.323530303760177 1.554977404142576
0.09481808069713321 0.015017708643862182 1.724
0.056427384220077335 0.07766563145999501 1.706
0.09130142556433472 0.029665631459994988 1.727
0.04358308797499638 0.08553662632208338 1.705
0.09130142556433472 0.029665631459994988 1.727
0.04358308797499638 0.08553662632208338 1.705
1.721701252261214 0.5594146478885288 1.7195101814616371
0.7411766483632627 1.4546410765128408 1.5521242345936903
2.1587432579916626 0.7014182036314864 1.8348505432423796
0.9481386420216263 1.8608268595070372 1.6892274842548893
2.1074287820391864 0.6847451196926571 1.3013565485755336
1.3752795650396843 2.699138122353447 1.7804015291938984
1.5205429253251346 2.9842335193146527 1.034897914161694
1.8461417955947435 0.5998478314275171 0.5991839520930202
1.8451917921989 0.5995391566127194 -3.323911279920307e-15
1.1823568312169936 2.3205059382022593 -4.466184196549267e-15
0.316596284868696 0.6213551946872061 -0.21507582808496484
0.17860962852560158 0.35054113332871917 -0.22982403364635784
0.0750351866946066 0.23093455879886354 -0.19497309564436277
0.11860938304986335 0.060434499212738586 -0.08251973342624483
0.0750351866946066 0.23093455879886354 -0.19497309564436277
0.11860938304986335 0.060434499212738586 -0.08251973342624483
0.12055665458420094 0.3710352311107207 -0.22864846314177287
0.13422153286514163 0.06838928686494262 -0.07288537128426693
0.21465363429500484 0.6606359564645772 -0.21445779409621493
1.1688149801430174 0.5955409781331936 -2.2450979697707335e-15
1.2034924151841895 0.6132100138098607 0.41655490841742715
1.0887054669095222 3.3506908923401513 1.0886668711829346
1.364479115951353 0.695236834880875 0.89872365075519
0.938220381453803 2.887545422242671 1.7845160259599457
1.7515956662792973 0.8924825691934537 1.5889093769523959
0.6474555045709198 1.9926631474714271 1.6948906032155138
1.6180817120563915 0.8244538116542489 1.725216520559408
0.505325944191918 1.5552333393470148 1.554977404142576
0.08553662632208328 0.043583087974996534 1.728
0.029665631459994818 0.09130142556433479 1.705
0.07766563145999492 0.056427384220077474 1.728
0.015017708643862022 0.09481808069713325 1.705
0.07766563145999492 0.056427384220077474 1.728
0.015017708643862022 0.09481808069713325 1.705
1.4616268365358434 1.0619340568172315 1.7166570119127518
0.25515542798128876 1.6109879698944365 1.5511731780773952
1.177179762216131 0.8552711603572588 1.1755016928267978
0.32711290266310905 2.0653095846589746 1.691654535238014
0.9187672833632301 0.66752350470334 0.6659606908473711
0.4725943581273467 2.983843344453444 1.7756992471755586
0.8162929156817309 0.5930715185522726 0.3108710963411957
0.5010650989726625 3.1636005275894785 0.9897814329829521
0.7969355148155793 0.5790075435913656 -1.684252258452911e-15
5.325655445995903 33.62486513879435 -10.52017455650078
0.11768611552136934 0.08550396788202674 -0.07229758603197445
0.06074202051185821 0.383510024011171 -0.2280606778894804
-5.265432213289651e-16 0.307 -0.2483682172731094
-5.265432213289651e-16 0.307 -0.2483682172731094
0.09995999199679828 0.09995999199679846 -0.07288537128426693
-6.534624342877384e-16 0.381 -0.22394618112343306
-1.1954417761116894e-15 0.6970000000000001 -0.21538484507933978
-4.5742370400141684e-15 2.667 -4.5742370400141684e-15
0.5670136682655891 0.56701366826559 -1.3703844750548635e-15
-5.4506656592294816e-15 3.178 0.9820560081235784
0.5775828944835533 0.5775828944835543 0.25153983342120606
0.647370450360533 0.6473704503605341 0.5366479353430272
-5.2208389763041354e-15 3.044 1.7892183079782855
0.8145882395419164 0.8145882395419178 0.930369543531189
-3.586325328335067e-15 2.0909999999999997 1.691654535238014
1.2298886128426416 1.2298886128426438 1.6529362253209767
-2.7990831830907846e-15 1.632 1.5521242345936903
0.0678822509939085 0.06788225099390863 1.73
-1.6465195194651677e-16 0.096 1.704
0.056427384220077335 0.07766563145999501 1.731
-0.015017708643862348 0.0948180806971332 1.704
0.056427384220077335 0.07766563145999501 1.731
-0.015017708643862348 0.0948180806971332 1.704
0.9022723895280798 1.2418714042867758 1.458920695996765
-0.2545297167100468 1.6070373844078474 1.5473689520122147
0.5734627791187284 0.7893038012421736 0.7879825525211984
-0.32351500379165105 2.0425933452096134 1.6730471443673904
-0.475566576468313 3.002609192505598 1.7868671669691156
0.45322208982696116 0.6238066903959929 0.45200685901291116
0.40633992397876084 0.5592789249299988 0.21291270912433782
-0.42300531725556767 2.670750462537904 0.8355819527898539
0.3998962091484154 0.5504099123368392 -1.1628544106222747e-15
0.4403265039778036 0.6060574391793285 -0.23083569479808724
-0.05886625626418026 0.3716669146512127 -0.2210072548619707
-0.09192725807867108 0.28292300880638477 -0.239469030334985
-0.09192725807867108 0.28292300880638477 -0.239469030334985
-0.12702818148043396 0.39095254289963915 -0.24099195343991486
0.30209835266440094 0.5929014006349551 -0.20518728426496644
0.2731119780735931 0.5360124373465278 -1.0290746996657298e-15
-0.6443656458732342 1.9831535402253375 -3.5760345813384104e-15
0.2749231996026354 0.5395671597472234 0.1866462646024674
-0.766107977900741 2.3578379112837164 0.7660531290554912
0.30617561090349293 0.6009034704886544 0.39557947479283384
-0.9462544430348846 2.9122717213073814 1.79979844251955
-0.6094504619251283 1.8756956533908073 1.5953815129073954
0.38503867721174473 0.7556809529215792 0.68523739423558
-0.5306613668833653 1.6332077526718387 1.6329640384787782
0.04358308797499638 0.08553662632208338 1.73
-0.029665631459995147 0.09130142556433468 1.704
0.029665631459994818 0.09130142556433479 1.731
-0.04358308797499667 0.08553662632208323 1.705
0.029665631459994818 0.09130142556433479 1.731
-0.04358308797499667 0.08553662632208323 1.705
-0.7851989122386057 1.5410396340706962 1.6443767166743202
-0.892764611011794 1.752149204514957 1.5905274109411458
0.23688446443721536 0.7290554164109982 0.6197070176912094
0.18810584297976915 0.5789302561853117 0.3573734333938231
-1.3616612737858318 2.672410720871585 1.7627679716251243
0.16928069686905564 0.5209924139154497 0.1690322959230955
0.1680464560180026 0.5171938111672546 -9.313126031974854e-16
-0.8696169340927016 1.7067193306155073 -3.2844634164331204e-15
0.1862539660053193 0.5732307649081734 -0.18602823061371956
-0.1876362483068456 0.3682568721405863 -0.24157973869220734
0.0452705588842028 0.2858270597253239 -0.23380591137436035
0.04542678329158499 0.28681342181406244 -0.2346149283687353
-0.24326360955799864 0.33482363410418603 -0.24099195343991486
0.08841668928020054 0.5582410058654242 -0.17459460182184647
-0.4092691138615464 0.5633106089262875 -0.21445779409621493
-1.0644081803878274 1.4650321754874172 -3.104375343991618e-15
0.07950342596288223 0.5019648760950077 -8.712832457169845e-16
0.07950342596288223 0.5019648760950077 0.15698063314247257
-1.2353821268413137 1.700357624257601 0.6492447051817616
0.08810393120430246 0.5562663290899958 0.3309230970406619
-1.6802176399775113 2.312621182121777 1.6798902510518858
0.10984212043780481 0.6935158542893153 0.5679299300512128
-1.2265685490362235 1.688226775112009 1.6876094502661394
-1.0168217767985641 1.3995351099269109 1.6443767166743202
0.015017708643862022 0.09481808069713325 1.73
-0.05642738422007763 0.0776656314599948 1.704
-1.6465195194651677e-16 0.096 1.729
-0.06788225099390874 0.06788225099390839 1.704
-1.6465195194651677e-16 0.096 1.73
-0.06788225099390874 0.06788225099390839 1.704
-1.754572362930069e-15 1.023 0.9729308161699418
-1.2214098411262322 1.2214098411262257 1.6415235471254348
-1.1474182901272888e-15 0.669 0.5412323692368396
-1.472978614916052 1.4729786149160442 1.6843733822886395
-9.193067317013854e-16 0.536 0.3150528952287651
-2.1466058091787654 2.1466058091787543 1.783928240707653
-8.284051332309125e-16 0.48300000000000004 0.14925520828309893
-2.5630044869254585 2.5630044869254456 1.1198775876148044
-8.284051332309125e-16 0.48300000000000004 -8.284051332309125e-16
-2.495134465314451 2.4951344653144383 -6.050959234034491e-15
-9.22736980700271e-16 0.538 -0.16625114297372282
-0.29455814366606886 0.29455814366606736 -0.24157973869220734
-0.25933121503018064 0.1884151565587281 -0.2516042852506092
-0.25933121503018064 0.1884151565587281 -0.2516042852506092
-0.3375956769713953 0.24527761659047717 -0.24099195343991486
-0.08263080074051075 0.5217103433342049 -0.16316097302997332
-0.07371807671606351 0.4654376185249711 -8.078236392375979e-16
-2.3534603261777236 1.7098890149414736 -4.987582044379903e-15
-0.07340536737891083 0.46346324947387046 0.14492897036184968
-2.4100718034746893 1.7510196607709287 0.9202526092485891
-0.08137983870300598 0.5138120798751084 0.30564833119208557
-2.4602141553816703 1.787450211885561 1.7868671669691156
-0.10092757578871342 0.6372316345084615 0.5218159613718408
-1.6903956508151212 1.2281443294724776 1.6892274842548893
-1.4002008781147035 1.0173054857007764 1.6443767166743202
-0.015017708643862348 0.0948180806971332 1.73
-0.07766563145999512 0.05642738422007719 1.703
-0.029665631459995147 0.09130142556433468 1.73
-0.08553662632208345 0.043583087974996236 1.703
-0.029665631459995147 0.09130142556433468 1.729
-0.08553662632208345 0.043583087974996236 1.703
-1.5397645910964042 0.7845492453939948 1.6415235471254348
-1.8548599905718306 0.945098370445337 1.6827553482998898
-0.1606416009523231 0.49440401063643774 0.3050605459397931
-2.692809451061057 1.3720549459547209 1.7756992471755586
-0.1452186066507545 0.4469369149805526 0.14492897036184968
-3.3074034376808528 1.6852062232437428 1.1467620661254245
-0.1455270086228928 0.4478860786530351 -8.06108514738155e-16
-2.8335348870794954 1.4437581369973145 -5.4523807837289245e-15
-0.16310976933360138 0.5020002518304743 -0.16285195603559838
-0.3731780772234974 0.19014372753876777 -0.24099195343991486
-0.03909895412272447 0.12033420742427872 -0.07229758603197445
-0.30643647581114924 0.09956724663523994 -0.2499862512618593
-0.399484438075896 0.12980036226939207 -0.24099195343991486
-0.06095739342199377 0.1196356207182149 -0.07464872704114436
-0.24776216371493087 0.4862606253736078 -0.1681052449399725
-0.22197697567414504 0.43565434443833606 -8.35265631228684e-16
-3.240462108151546 1.0528899638348328 -5.841714045102459e-15
-0.22152479602672082 0.43476689191192563 0.15018225926622375
-3.308914097098917 1.0751313632901507 1.074761106436062
-0.24504701732044315 0.4809318505358018 0.3162284657333501
-2.9105774366365784 0.9457039365742985 1.7980350867626724
-0.30572257079629406 0.6000143292148458 0.5436594202199644
-1.9886537062652376 0.6461527581521377 1.6900365012492642
-0.4643999916582604 0.9114363023850014 0.9719797596536466
-1.6457180312415145 0.534726202796004 1.643425660158025
-0.04358308797499667 0.08553662632208323 1.731
-0.09130142556433483 0.02966563145999468 1.703
-0.05642738422007763 0.0776656314599948 1.73
-0.09481808069713327 0.015017708643861838 1.704
-0.05642738422007763 0.0776656314599948 1.73
-0.09481808069713327 0.015017708643861838 1.704
-1.7053480970736277 0.27010060391351354 1.6396214340928446
-0.22231966075856988 0.3059967616333785 0.3556951370943874
-0.3852541347411964 0.5302568258445453 0.5282880973268405
-2.056525203359854 0.32572159334744644 1.6827553482998898
-0.30919574283163814 0.4255714303201189 0.307411686948963
-2.994160623819588 0.4742284546454194 1.7809893144461908
-0.2794101663772933 0.384575101397547 0.14585602134497452
-0.2794101663772933 0.384575101397547 -8.095387637370408e-16
-0.3121178707355417 0.42959339433635607 -0.16316097302997332
-0.4166025262755317 0.06598335796193655 -0.24157973869220734
-0.08960189730134097 0.08960189730134051 -0.08656481839811957
-0.15524174696260024 -5.325178471037368e-16 -0.09870007331374381
-0.08900561780022682 0.08900561780022637 -0.08575580140374461
-0.15445711378890906 -5.298263599451901e-16 -0.09789105631936885
-0.4201154603201363 -1.4411006371795803e-15 -0.2404041681876224
-0.3764252913925959 0.37642529139259395 -0.16316097302997332
-0.3350887942023735 0.33508879420237175 -8.043933902387121e-16
-0.3343889950342275 0.33438899503422576 0.14461995336747474
-3.696246880282755 -1.2679047160724555e-14 1.1418177942154255
-0.3680108694046967 0.3680108694046948 0.3032971901829157
-3.040515910170509 -1.042972665695863e-14 1.786279381716823
-0.4550868049064937 0.4550868049064914 0.5177708763999661
-2.0892067872759745 -7.166499490518758e-15 1.6884184672605143
-1.729666152758965 -5.933185588908034e-15 1.64247460364173
-0.096 -3.2930390389303353e-16 1.702
-0.07766563145999512 0.05642738422007719 1.73
-0.09481808069713317 -0.015017708643862532 1.703
-0.07766563145999512 0.05642738422007719 1.73
-0.09481808069713317 -0.015017708643862532 1.704
-1.7043619000337933 -0.2699444056473224 1.6386703775765492
-2.057511867556644 -0.32587786560405874 1.6835643652942647
-0.4253552166978249 0.3090386544399038 0.30564833119208557
-2.99021180599407 -0.47360302334420357 1.778638173437021
-0.38459629000084544 0.27942556079869535 0.14492897036184968
-3.5855442266361046 -0.567894415594646 1.1214226725866792
-0.38459629000084544 0.27942556079869535 -8.043933902387121e-16
-0.43015666413575665 0.3125271101995436 -0.1625429390412234
-0.11026385319441527 0.08011137864748194 -0.06583194825675723
-0.3985561739649972 -0.12949875097645797 -0.2404041681876224
-0.11929347733983305 0.06078306266333144 -0.060541880986124945
-0.4792236279920508 0.2441766344609988 -0.16408802401309816
-0.5809639487933346 -0.1887666297642025 -0.18664626460246947
-0.42652838234043894 0.2173270657341421 -8.078236392375979e-16
-0.4256517449520771 0.21688039667479342 0.14523798735622465
-3.567518840817301 -1.1591571380635428 1.1588137289060476
-0.4686707144002289 0.2387996564196499 0.3050605459397931
-2.89156482865955 -0.9395263657658292 1.786279381716823
-0.5753146500260039 0.2931374556552275 0.5177708763999661
-1.9867534090757055 -0.6455353141665778 1.6884184672605143
-1.6447683002464668 -0.5344176164896027 1.64247460364173
-0.08553662632208345 0.043583087974996236 1.729
-0.09130142556433464 -0.029665631459995307 1.704
-0.09130142556433483 0.02966563145999468 1.729
-0.08553662632208316 -0.043583087974996826 1.702
-0.09130142556433483 0.02966563145999468 1.729
-0.08553662632208316 -0.043583087974996826 1.702
-0.9445944598954148 0.3069173449725012 0.9405948946159067
-1.538874677334522 -0.784095811684474 1.6405724906091395
-0.633674868731958 0.20589344585881247 0.533951216287465
-1.8557502450064507 -0.9455519777363173 1.6835643652942647
-0.5161713693097332 0.16771424452024009 0.31446510997647265
-2.68835620608644 -1.3697859043073437 1.7727603209140963
-0.46936440974846366 0.15250574143800663 0.14987324227184884
-3.897116835406432 -1.985680207292787 1.351331316401639
-0.46936440974846366 0.15250574143800663 -8.318353822297982e-16
-2.8477858595550067 -1.451019370153657 -5.47982277572001e-15
-0.5274248959070544 0.1713707369637906 -0.16903229592309738
-0.37317807722349605 -0.19014372753877032 -0.24099195343991486
-0.12878285157378092 0.04184408501335993 -0.05877852522924753
-0.140468827549582 0.02224807663448386 -0.08575580140374461
-0.11496285296230051 -0.08352540181793915 -0.09627302233061895
-0.14120651200330542 0.02236491437382295 -0.08656481839811957
-0.11496285296230051 -0.08352540181793915 -0.09627302233061895
-0.33680082934959776 -0.2447001259899611 -0.2404041681876224
-0.5298416045612334 0.08391866599908336 -0.16316097302997332
-0.47259774353567047 0.07485212910853425 -8.043933902387121e-16
-0.4716296822901662 0.07469880326996518 0.14461995336747474
-2.995639937145548 -2.176459812927566 1.14398091317605
-0.5201231588227914 0.0823794154099759 0.3044727606875006
-2.460214155381657 -1.7874502118855788 1.7868671669691156
