0.096 0.0 2.037
0.07299897269760293 0.062347012639697684 2.012
0.096 0.0 2.036
0.07299897269760293 0.062347012639697684 2.012
0.096 0.0 2.036
0.07299897269760293 0.062347012639697684 2.012
2.0309999999999997 2.0309999999999997 1.997952845396507
0.48929292187289625 0.478640961814991 1.9467989566911312
2.211 2.211 2.068266752164836
0.9491530141329498 0.9385010540750446 1.9803350132668287
2.3649999999999998 2.3649999999999998 2.0261369321158416
1.4994289487931038 1.4887769887351985 2.0235667795592467
1.7089999999999999 1.7089999999999999 1.2819398179984542
2.2224466412656603 2.211794681207755 2.082308329294154
1.51 1.51 0.9348318634578481
3.270978194205314 3.2603262341474086 2.1532087556995996
1.387 1.387 0.6490186523794138
5.08949899148096 5.078847031423056 2.268523739535255
1.325 1.325 0.3995377969264549
1.3099999999999998 1.3099999999999998 0.16418653596923624
1.337 1.337 -0.07346839054294242
5.268392832543868 5.257740872485964 -0.2441985995309171
1.4149999999999998 1.4149999999999998 -0.33032518985610876
2.6528374787346083 2.642185518676703 -0.5289871944974859
1.287 1.287 -0.5203902074454971
1.6428905755467789 1.6322386154888735 -0.5927677110451428
0.865 0.865 -0.6068246832917918
1.0480412530941283 0.9623259552413274 -0.06632583858655164
11.548392902478614 11.462677604625812 -0.5187728330633822
1.3401022021649869 1.3433007819045721 -0.5903416494719703
13.562406887811964 13.476691589959161 -0.33125897131153237
2.1579903273319396 2.1611889070715247 -0.5264192954950709
13.125027912506214 13.039312614653412 -0.07346839054294242
12.761036048437079 12.675320750584277 0.16393586950210762
6.9042234344621285 6.907422014201714 0.9055326125020855
12.388463367379392 12.30274806952659 0.39833164508667696
6.855145652140754 6.85834423188034 2.2506793330257056
11.998875678244687 11.913160380391885 0.6457431436795897
4.182977280942576 4.1861758606821615 2.2849012830343747
11.546660571067529 11.460945273214726 0.9249263602688907
2.688306946002148 2.691505525741733 2.1668288225844163
10.984182737370686 10.898467439517884 1.265437374466584
1.827625641606443 1.8308242213460282 2.094310106408241
1.2323877231118858 1.235586302851471 2.030420519710167
11.824995463096803 11.739280165244 1.996151818955565
7.754382960738526 7.668667662885725 2.076685748442305
0.7811243680878235 0.7843229478274087 1.9831413453593185
3.6656373846848567 3.5799220868320556 2.002871488541255
0.4059547987503604 0.4091533784899457 1.94975014257798
0.09550004560912574 0.009784747756324815 2.038
0.06626411906250591 0.06946269880209119 2.012
0.09400538981968952 0.01946758035422522 2.037
0.05883907715068567 0.07585488118806634 2.012
0.09400538981968952 0.01946758035422522 2.037
0.05883907715068567 0.07585488118806634 2.0109999999999997
1.856864836539265 1.7823270270738008 1.9989365740254568
0.3346308580037405 0.35164666204112116 1.9467989566911312
3.8678849201217274 3.793347110656263 2.068266752164836
0.6392848988297014 0.6563007028670821 1.9803350132668287
5.954471652296296 5.879933842830831 2.0158563218894607
1.0034387076998257 1.0204545117372064 2.0227100620403813
5.554641089750428 5.480103280284963 1.2826899290680847
1.483858803902644 1.5008746079400246 2.083808551433415
2.1786958774673484 2.195711681504729 2.1544469435982196
5.8315314003277425 5.756993590862278 0.9366891453057775
6.047227609551858 5.9726898000863935 0.6527620908934983
3.2615833397788108 3.278599143816191 2.1861680922253943
6.245024275043963 6.170486465578498 0.4028547144858443
6.427364575486042 6.352826766020577 0.16569053477200787
6.603059387474683 6.528521578009218 -0.07418274288180424
6.822508924497007 6.747971115031542 -0.3345272064055151
1.7717349779935603 1.788750782030941 -0.5301544213167654
5.77358699766609 5.699049188200625 -0.5199858638499684
1.096752773646221 1.1137685776836017 -0.5915546802585565
4.1557213760264515 4.081183566560987 -0.5716387952756187
0.2788010214374005 0.216217065049448 -0.08426942089477758
3.787457726178218 3.7248737697902654 -0.5167511150857383
0.8818751456968208 0.912530942241523 -0.589128618685384
4.598902716774171 4.5363187603862185 -0.3422309034127601
1.4231407882257063 1.4537965847704084 -0.5282868584059182
4.454772599737217 4.3921886433492645 -0.07594114863900256
4.3296693229358105 4.267085366547858 0.16932519854537265
2.1526571851046143 2.183312981649317 0.4257569944179355
4.194666353246626 4.1320823968586735 0.4103931634844567
2.4004230080623095 2.431078804607012 1.9947847981928202
4.051254446015142 3.98867048962719 0.6630565468072309
3.8932328243523218 3.8306488679643693 0.9478328363933546
1.6714438001221403 1.7020995966668424 2.048581878266238
3.700681645605502 3.638097689217549 1.294691706182172
1.19901051780652 1.229666314351222 2.0883092178511977
3.948609770109435 3.8860258137214827 2.0261369321158416
0.8118801712781336 0.8425359678228358 2.026993649634707
2.571657026574483 2.5090730701865307 2.075750304411475
0.5181486575402011 0.5488044540849033 1.9831413453593185
1.2481465727106371 1.1855626163226847 2.002871488541255
0.2727655239101093 0.30342132045481146 1.9487664139490304
0.0915316005426241 0.028947644154671617 2.037
0.05080118409352221 0.08145698063822442 2.012
0.08810444406566217 0.03812619750093898 2.038
0.04223416030616775 0.08621064727301916 2.012
0.08810444406566217 0.03812619750093898 2.038
0.04223416030616775 0.08621064727301916 2.012
0.9325632627667021 0.8825850162019788 2.0009040312833557
0.21632761777948106 0.2603041047463325 1.9458152280621819
1.8900362089927163 1.8400579624279931 2.063589532010687
0.4084792756297104 0.45245576259656184 1.978464125205169
2.5672790859722348 2.5173008394075116 1.7819724392393026
0.638561094415751 0.6825375813826025 2.0218533445215163
2.8159442169874893 2.765965970422766 1.3389482592903692
0.9056231111541693 0.9495995981210207 1.9990460005651731
2.9626848421893257 2.9127065956246025 0.9806448157067756
1.2918137974236963 1.3357902843905476 2.0108171473583383
3.071849040697557 3.021870794132834 0.6836454586346962
1.3939112870026669 1.4378877739695182 1.4608768801215068
3.1749313760944364 3.1249531295297133 0.42245468188223645
1.5691591483348497 1.613135635301701 0.9857275910585517
3.2725839094744513 3.222605662909728 0.17408786142081614
3.3714950335746923 3.321516787009969 -0.0781941060154129
1.0009774928482695 1.044953979815121 -0.10770235262839728
3.49457813374375 3.444599887179027 -0.35390317160555546
2.7913124388663215 2.7413341923015984 -0.5171554586812671
0.6972999625840888 0.7412764495509402 -0.5911503366630279
0.2593727310467099 0.20939448448198666 -0.07295926828016919
1.5768636942490137 1.540011716753733 -0.5682662950085059
2.0533368245359265 2.016484847040646 -0.48763837620766864
0.5251803416136893 0.5820194723828087 -0.5895329622809129
2.974684843599706 2.9378328661044253 -0.3886865308200856
0.6028844471930471 0.6597235779621664 -0.3707112378031807
2.916836298961916 2.8799843214666354 -0.08731583588087923
0.6480235418750021 0.7048626726441214 -0.09171185027387502
2.827887888164109 2.7910359106688283 0.19414117879110454
0.8655349708579376 0.9223741016270569 0.28500777312522385
2.8843966748844814 2.8475446973892007 0.49602994410869305
0.8524478979159893 0.9092870286851086 0.7022819087107272
0.8356076270178717 0.892446757786991 1.1515752728952684
2.6695718314703156 2.632719853975035 1.1416092425273323
0.8096733843155661 0.8665125150846854 1.6591717841503528
2.5375810944484956 2.500729116953215 1.5587308026920936
0.6736506598289678 0.730489790598087 1.9690415577799547
1.584992863658841 1.5481408861635604 1.3964495557500303
0.4805836610987976 0.537422791867917 2.014142886851731
1.4231124355343057 1.386260458039025 1.985012233420978
0.30942238959202656 0.3662615203611459 1.9812704572976585
0.7372441891998023 0.7003922117045216 2.003855217170204
0.16446232934719685 0.22130146011631618 1.947782685320081
0.0837596166789885 0.04690763918370772 2.0389999999999997
0.03322723747943919 0.09006636824855853 2.0109999999999997
0.07854237287280222 0.0552005041961548 2.038
0.023874229167825934 0.09298398346834862 2.0109999999999997
0.07854237287280222 0.0552005041961548 2.038
0.023874229167825934 0.09298398346834862 2.0109999999999997
0.5979853533127475 0.5746434846361002 1.9989365740254568
0.11511747010927016 0.18422722440979283 1.9458152280621819
0.9612087939798 0.9378669253031526 1.6417042741064167
0.21555283231792594 0.2846625866184486 1.9756577931126795
1.9088617883439716 1.885519919667324 2.1366534920494327
0.31866632516698207 0.38777607946750475 1.9070531969935998
2.169336842857022 2.1459949741803745 1.6667467967188798
0.45379777107252867 0.5229075253730513 1.8992812283043221
2.2574586601097346 2.2341167914330873 1.2072332011541747
0.35354764531255767 0.42265739961308035 1.0122186071215773
0.49017930693013245 0.5592890612306551 0.961595768305476
2.4295788071554867 2.4062369384788393 0.5225652845838086
0.4990415553312628 0.5681513096317855 0.5852851802522634
2.5093803092500218 2.4860384405733744 0.21582382819772888
0.5065909139448966 0.5757006682454193 0.23750647760435317
2.4208797419921724 2.397537873315525 -0.39522300100805097
0.5214509174207037 0.5905606717212264 -0.46525661016482317
0.3465323055470221 0.41564205984754476 -0.555568100256498
1.6401675998113898 1.6168257311347423 -0.48521231463449616
1.270657610586422 1.2473157419097745 -0.5693904617642102
0.13612000176107483 0.12653136418922953 -0.07854237287280241
0.9274610373066781 0.9178723997348327 -0.5041887899333628
0.885134434533981 0.8755457969621356 -0.3117489121526638
0.20265445144605818 0.2833150016714262 -0.5539507258743831
0.8557764677679321 0.8461878301960868 -0.16317830933527921
0.26323289312072956 0.34389344334609756 -0.3975574546466101
0.8353925039716217 0.8258038663997763 -0.036431969281952754
0.2598625260164601 0.3405230762418281 -0.08989849433676425
0.8179457909602393 0.808357153388394 0.08171726828392523
0.25531151391815704 0.33597206414352504 0.2025385054399128
0.8009840269916908 0.7913953894198454 0.19991966744319972
0.25150922695566746 0.33216977718103546 0.499045323708138
0.7803295947197767 0.7707409571479313 0.32521122091109783
0.20507131517737626 0.28573186540274426 0.6719472132781819
0.208138762337678 0.28879931256304603 1.016552264766746
0.7584952498827995 0.7489066123109541 0.4692732135768536
0.23310431766443548 0.3137648678898035 1.65099446425664
0.7317187418083361 0.7221301042364907 0.648846075230347
0.18712022639230033 0.26778077661766836 1.909623349550195
0.6918620705938501 0.6822734330220047 0.8926996546573812
0.6627480531861717 0.6531594156143263 1.3554584006724775
0.12645650902840141 0.20711705925376944 1.9747223490818493
0.48865881690378105 0.47907017933193574 1.9772945441885672
0.06775390827867411 0.1484144585040421 1.947782685320081
0.07250705397937758 0.06291841640753228 2.04
0.01427255365410447 0.09493310387947247 2.0109999999999997
0.06571652216915405 0.06998098823245558 2.0389999999999997
0.004522219268125527 0.09589342799634912 2.0109999999999997
0.06571652216915405 0.06998098823245558 2.0389999999999997
0.004522219268125527 0.09589342799634912 2.0109999999999997
0.3945375213997737 0.3988019874630752 1.9172870978226453
0.02125557627788563 0.11262678500610922 1.9428640421753332
0.4846184575181619 0.48888292358146346 1.1805303669072924
0.039344701320706776 0.13071591004893035 1.9541425804035926
0.05842386090545015 0.14979506963367373 1.898486021804949
0.5331192883442256 0.5373837544075272 0.8267324057047726
0.05267444685361213 0.1440456555818357 1.1581714915094286
0.5637690904260437 0.5680335564893453 0.6015890778436281
0.5863644717606383 0.5906289378239399 0.43708032821274223
0.6010092249786222 0.6052736910419237 0.30181473019806915
0.05370146765243286 0.14507267638065646 0.5521571808274753
0.6172540097410082 0.6215184758043097 0.18574738332580848
0.05479170000230892 0.1461629087305325 0.33711943921794457
0.6312327566763242 0.6354972227396257 0.0760772727735316
0.6451803126290622 0.6494447786923637 -0.03395921118589261
0.6619813576908717 0.6662458237541733 -0.15243982259790745
0.6780931788796747 0.6823576449429762 -0.28829698361199646
0.06529489553994182 0.1566661042681654 -0.5697201261000042
0.6979343324344217 0.7021987984977233 -0.4575358695716359
0.14118040126672676 0.1592535534957359 -0.15463029659332975
0.14118040126672676 0.1592535534957359 -0.15463029659332975
-0.014483753308831114 0.08664641731801548 -0.23808156777068232
0.524704172940288 0.5427773251692972 -0.4153796162327259
0.5098514638923108 0.5279246161213199 -0.2616103063070992
0.497558349406445 0.5156315016354541 -0.1381996554026971
0.485736290200284 0.5038094424292932 -0.0308270509308831
0.4731640915815354 0.4912372438105445 0.06868261199323776
0.46136138983538233 0.47943454206439146 0.16705202980924985
-0.06603751305895228 0.035092657567894314 0.3491809576157244
0.44875882880335666 0.4668319810323658 0.27093136245687144
0.43522317944902417 0.4532963316780333 0.38941009411588506
-0.05653248368135507 0.04459768694549152 0.7342454238814621
-0.05298800568210417 0.048142164944742424 0.9833956122855316
0.41809065224922753 0.43616380447823666 0.5348291926465172
0.3892888378063824 0.40736199003539153 0.7204994333655065
-0.050578340415530325 0.05055183021131627 1.3673211601086186
0.3587580141032078 0.3768311663322169 1.0420846503444718
-0.0444922590205079 0.056637911606338694 1.8858551661530123
0.2955836736584202 0.3136568258874293 1.7028342567116463
-0.024822467197601845 0.07630770342924476 1.9448314994332323
0.05824150569619189 0.07631465792520102 2.0389999999999997
-0.005275217271594969 0.09585495335525163 2.012
0.050159862212731 0.0818534557779929 2.0389999999999997
-0.015017708643862348 0.0948180806971332 2.012
0.050159862212731 0.0818534557779929 2.0389999999999997
-0.015017708643862348 0.0948180806971332 2.012
0.22323116459648043 0.2549247581617423 1.5464214047086702
-0.07118880072733337 0.03864698861366217 1.9418803135463838
-0.12637170517711635 -0.01653591583612081 1.8605981773206057
0.26958545068542134 0.30127904425068325 0.9476048032306553
0.2957493640826102 0.3274429576478721 0.6656695121581433
0.31357394319253523 0.34526753675779714 0.48757219525979834
0.3259120061997919 0.3576055997650538 0.35474083295453446
0.33448530640363133 0.36617889996889325 0.24566315248680048
0.3434671512754305 0.3751607448406924 0.15137205589213612
0.35232029164542084 0.38401388521068275 0.06229061708145833
-0.1459116065544939 -0.036075817213498354 0.10440258355906397
0.3609923143930743 0.3926859079583362 -0.027914691395523376
-0.14770147847767218 -0.037865689136676636 -0.04610320094654353
0.37073741304052354 0.40243100660578546 -0.12559360575447812
0.3791569193818198 0.4108505129470817 -0.23734969057537436
0.39126023970239665 0.42295383326765856 -0.3782821132944852
-0.06896960491066288 0.048427784703728036 -0.23808156777068232
0.2909712648503089 0.3359551882671249 -0.3529883612911392
0.2822308479750692 0.32721477139188526 -0.22158029034975327
0.2745515349506382 0.31953545836745423 -0.11648923656409774
0.26690555636612934 0.31188947978294534 -0.02582658455885037
-0.22872185644810542 -0.1113244668337145 -0.04236658871249709
0.26022644026478975 0.30521036368160576 0.05752795420601484
-0.22636654032833842 -0.1089691507139475 0.09613059014382
0.2530788513688595 0.2980627747856755 0.13931053749435637
0.24568168724152 0.290665610658336 0.22507424065933532
0.23915816890169359 0.2841420923185096 0.3244052294383526
0.22986732650134406 0.27485124991816007 0.4448158642908621
0.21666330821079477 0.2616472316276108 0.6056992858375898
-0.21139203792387923 -0.09399464830948831 1.8643399534439251
0.19618544812804817 0.24116937154486418 0.852189512086009
0.16268146297531116 0.20766538639212717 1.3811549950451483
-0.1188281524264911 -0.0014307628121001809 1.9458152280621819
0.04155576782595962 0.08653969124277563 2.037
-0.024603779820767866 0.09279360979362306 2.012
0.03251884034354786 0.09032455381960569 2.034
-0.033933585002808894 0.08980262695966719 2.012
0.03251884034354786 0.09032455381960569 2.034
-0.033933585002808894 0.08980262695966719 2.012
0.11686397213760027 0.17466968561365812 1.2827821321501947
-0.16801266090130307 -0.044276448938827 1.9428640421753332
-0.29933124016973073 -0.17559502820725464 1.858727289258946
0.1408160572920754 0.19862177076813323 0.7960628702362169
0.15507711110397523 0.21288282458003305 0.5654335624509326
0.16489516876515273 0.22270088224121057 0.4170617547145352
0.17105727157948367 0.2288629850555415 0.30335603516181825
0.17569768258299912 0.23350339605905696 0.21056841641725757
0.18080915791000052 0.23861487138605836 0.13026439869602152
-0.29513680912976625 -0.17140059716729017 0.21861502095975835
0.18575046355329455 0.2435561770293524 0.05376795719908577
-0.29823026351892423 -0.17449405155644815 0.08835992966283325
0.19032976781982427 0.24813548129588212 -0.024123128981564494
-0.30181487339020313 -0.17807866142772705 -0.03901462773783779
0.19600373100965265 0.2538094444857105 -0.1090189849207087
-0.3058302862928309 -0.1820940743303548 -0.17274956925337137
0.20078032702527523 0.25858604050133305 -0.20661957731518962
0.2076060298743404 0.26541174335039824 -0.33050502617705385
-0.2764960985171301 -0.147709865508252 -0.6651557202665455
-0.2764960985171301 -0.147709865508252 -0.6651557202665455
0.14528723219007003 0.21531264780307857 -0.48405668378189176
0.13819401994211428 0.2082194355551228 -0.3147666915971942
-0.46485732894843024 -0.33607109593955214 -0.5738871287870272
0.13355735103036886 0.20358276664337738 -0.19651098742697096
0.1303860527343252 0.2004114683473337 -0.10364974155202283
0.12657003981390486 0.19659545542691337 -0.022914225023490647
-0.38716248587468227 -0.2583762528658041 -0.03791562413958884
0.12319889028469705 0.19322430589770556 0.05088529282710681
-0.3829818368123039 -0.2541956038034258 0.08597859822511152
0.11953677945636866 0.18956219506937716 0.12272594969740919
-0.3783054356720691 -0.249519202663191 0.212282723800924
0.11622329974631951 0.18624871535932802 0.19840224124648267
0.11268205222167452 0.18270746783468303 0.28416412273321345
0.10823543933433831 0.17826085494734684 0.38855753406857774
0.10219440762643899 0.1722198232394475 0.5285947091397354
-0.39456309147081503 -0.26577685846193694 1.8624690653822653
0.09259585936790074 0.16262127498090925 0.7399362283864249
0.07656287620313558 0.14658829181614408 1.1775231688525942
-0.22047775227165597 -0.09169151926277784 1.9458152280621819
-0.042909947584427816 0.08587628542445032 2.012
0.02314320583997159 0.0931686214529801 2.029
0.013526518266007781 0.09504227114078954 2.0189999999999997
-0.05143937231798388 0.08105548084819332 2.012
0.013526518266007781 0.09504227114078954 2.0189999999999997
-0.05143937231798388 0.08105548084819332 2.012
0.04262462178557704 0.12414037466035881 1.1194831797445717
-0.27650730782514027 -0.14401245465896306 1.9418803135463838
-0.49649413512248686 -0.36399928195630965 1.8559209571664563
0.051457935946454925 0.1329736888212367 0.7053247992457199
0.05676336134916962 0.1382791142239514 0.504606618611514
0.06011523320975831 0.14163098608454008 0.3713049794670772
0.06248053012836566 0.14399628300314743 0.27116314979770695
0.06434102222398608 0.14585677509876782 0.18904364496127124
0.06617680815991216 0.14769256103469391 0.11699672845846379
-0.4622889755136915 -0.3297941223475143 0.20474427480231164
0.06831166489257796 0.14982741776735972 0.04862929462294936
-0.4663557461718896 -0.33386089300571237 0.08259460091887534
0.06994261710945514 0.1514583699842369 -0.021815221425241695
-0.47218991087200796 -0.33969505770583075 -0.036486919461865205
0.07192656361402802 0.1534423164888098 -0.09851394354719288
0.07405458006109776 0.15557033293587952 -0.18801977192086727
0.07638419067669663 0.1578999435514784 -0.30015252377303875
0.08006032154012331 0.16157607441490507 -0.4602046153056826
-0.42796396001797066 -0.29314051551967507 -0.6651557202665455
-0.5802206079227455 -0.44539716342444996 -0.6503196316895851
0.02056941787901847 0.11272646304525746 -0.2905971063495525
0.019903763230001988 0.11206080839624097 -0.18155027439240734
0.019318181229819553 0.11147522639605854 -0.09501226308935427
-0.57302462535029 -0.4382011808519944 -0.1564083937834579
0.01883354781104184 0.11099059297728082 -0.021100869086379877
-0.5663546149099679 -0.43153117041167227 -0.03538791586361625
0.018308591519260748 0.11046563668549973 0.04674929611948483
-0.5599899255873209 -0.42516648108902527 0.08021326948115359
0.017704552034993846 0.10986159720123284 0.11217212109935187
-0.5532622485580279 -0.4184388040597322 0.19811043968353276
0.017172115336761593 0.10932916050300058 0.18062090830458094
-0.5478229758626577 -0.4129995313643621 0.32801879979666126
0.016666410165051843 0.10882345533129083 0.2587812708115103
0.016006941885207623 0.10816398705144661 0.3533023137959462
0.01511750086940319 0.10727454603564218 0.4797618105644277
-0.6122887016857047 -0.4774652571874091 1.8559209571664563
0.013698908385043524 0.10585595355128251 0.668842482043355
0.011279601312562157 0.10343664647880114 1.046687261202306
-0.33915841924591683 -0.2043349747476212 1.9428640421753332
0.0037689423128704222 0.09592598747910941 2.0029999999999997
-0.05943301913374424 0.07539042536455137 2.012
-0.006027889874814257 0.09581056592911406 1.988
-0.06680762847286235 0.06894012458526595 2.012
-0.006027889874814257 0.09581056592911406 1.988
-0.06680762847286235 0.06894012458526595 2.013
-0.41013948912039283 -0.2743917360622645 1.9399128562884846
-0.01776071134731566 0.08407774445661266 1.021110316849618
-0.7440110943413597 -0.6082633412832313 1.8493728489506474
-0.021483822639155648 0.08035463316477268 0.6501336014267577
-0.023745861872756603 0.07809259393117171 0.46776776530031694
-0.02516674921536971 0.07667170658855861 0.3450510920300111
-0.026186334859982827 0.0756521209439455 0.25259033131841196
-0.026934174400577965 0.07490428140335036 0.1759416101619752
-0.6500354210066135 -0.5142876679484851 0.3186602035114498
-0.02774291309630044 0.07409554270762789 0.10915674149990692
-0.6562949839248672 -0.5205472308667388 0.19238121844458736
-0.02856099231296118 0.07327746349096714 0.045245297316713194
-0.6638531938249723 -0.528105440766844 0.07783193804343184
-0.029459604152106557 0.07237885165182176 -0.02049641710734295
-0.671559660199462 -0.5358119071413336 -0.034343862445279746
-0.03025371655056892 0.0715847392533594 -0.09244436408693929
-0.680239725236044 -0.5444919721779157 -0.15197293187019564
-0.031231375720237483 0.07060708008369083 -0.1771024948415911
-0.032201745933403095 0.06963670987052523 -0.2827279390596226
-0.010421760573265056 0.09141669523066327 -0.06875007972554405
-0.8568405803891435 -0.7215824288793642 -0.6482150374122725
-0.02786072567544427 0.0825984202841103 -0.07155620542862748
-0.08167855425287808 0.02878059170667649 -0.17508077686394738
-1.2061533533172293 -1.0708952018074502 -0.4209216829454254
-0.07888216247595443 0.031576983483600135 -0.09104369190380385
-1.1863027326500815 -1.0510445811403024 -0.2245744400293828
-0.07675519192496696 0.033703954034587605 -0.020166716027868264
-1.1734320260542837 -1.0381738745445044 -0.05088386659892647
-0.07438421047035361 0.03607493548920096 0.044493297915327384
-1.161688875122457 -1.0264307236126777 0.11555724134628689
-0.07209982935008938 0.03835931660946519 0.10704597578029548
-1.149909326501675 -1.0146511749918958 0.2861595239873251
-0.06989434487559218 0.04056480108396239 0.1721981716478906
-1.1343148954635822 -0.999056743953803 0.47214118258891746
-0.0676548304220004 0.04280431553755417 0.24578029787600378
-1.1114351794820103 -0.976177027972231 0.6878133776832247
-0.06496433360296844 0.04549481235658614 0.33529964812481516
-1.0844286457674448 -0.9491704942576655 0.9638927244751396
-0.06134845329228389 0.04911069266727069 0.45491700251734124
-1.0454310736810237 -0.9101729221712447 1.357040549882238
-0.05535745193777891 0.05510169402177566 0.6295538327485006
-0.8808638984987018 -0.7456057469889226 1.7960525391933448
-0.49496643890218595 -0.35970828739240673 1.9399128562884846
-0.04539655137514198 0.06506259458441259 0.97487507128899
-0.01576193727061104 0.09469720868894353 1.966
-0.07348638849533662 0.06177176301444259 2.012
-0.025331812796676 0.09259751217194856 1.944
-0.07939973513035808 0.05396000427380431 2.012
-0.025331812796676 0.09259751217194856 1.944
-0.07939973513035808 0.05396000427380431 2.012
-0.6012518304010548 -0.46789209099689233 1.9418803135463838
-0.07369503796360136 0.04423428700502321 0.9679889708863433
-0.08992726234058816 0.028002062628036395 0.6248766125943513
-0.8174534744928974 -0.684093735088735 1.3273950797475813
-0.09983422564086929 0.01809509932775527 0.4523468499607461
-0.8527757991221481 -0.7194160597179857 0.8729951517234852
-0.10583874490478354 0.01209058006384102 0.33379942598555423
-0.8763611491798702 -0.7430014097757077 0.6143409660273459
-0.11040781971041744 0.00752150525820712 0.24516120392669397
-0.8940686697766298 -0.7607089303724675 0.43646123426343236
-0.11357819776897883 0.004351127199645727 0.1707943822051089
-0.9064678945661468 -0.7731081551619844 0.297603361869724
-0.11714592482819149 0.0007834001404330715 0.106141361900462
-0.9155670004390792 -0.7822072610349169 0.17971662412691858
-0.12086879084885715 -0.0029394658802325974 0.044117298214634476
-0.9231944518964097 -0.7898347124922473 0.07244260900016684
-0.12448733440776216 -0.006558009439137605 -0.019946915308218474
-0.9330235795550836 -0.7996638401509212 -0.031926054529132046
-0.12854381255099256 -0.010614487582368007 -0.09057680117609203
-0.9407406658945487 -0.8073809264903864 -0.14053410904125618
-0.13292134116265275 -0.01499201619402818 -0.17386774607736113
-0.9541720537926006 -0.8208123143884383 -0.26282333709368544
-0.13710605157723915 -0.019176726608614594 -0.27766918865895346
-0.971469610021493 -0.8381098706173307 -0.41200711596561307
-0.19462451059005217 -0.0704533250255014 -0.28104168892606624
-1.2157288185943225 -1.0856565285307969 -0.41481753285487377
-0.1885559880762309 -0.06438480251168012 -0.17588946405500486
-1.199838496331437 -1.0697662062679114 -0.2660580858579154
-0.18172482594367698 -0.057553640379126206 -0.09127713726765975
-1.1819757227968057 -1.0519034327332801 -0.14216822658824754
-0.17601862475213326 -0.051847439187582486 -0.020111765847955817
-1.1725947612130347 -1.0425224711495091 -0.03231070578851918
-0.17051020113557294 -0.04633901557102217 0.044367964681763086
-1.1601320964516102 -1.0300598063880846 0.07331994163511694
-0.16484669027735646 -0.04067550471280569 0.10644289986040649
-1.150023626641694 -1.0199513365781685 0.18182738984653005
-1.1392969509940605 -1.0092246609305349 0.3013468003838086
-0.1597743873719636 -0.03560320180741282 0.17126231201936948
-0.15434142505894025 -0.03017023949438949 0.24392301602807429
-1.1207647909461544 -0.9906925008826288 0.4407948919086012
-0.1479759630157797 -0.023804777451228942 0.3322992038462933
-1.0993043413476111 -0.9692320512840855 0.62109196565402
-0.13919811719482653 -0.01502693163027577 0.44891997988528587
-1.07099447052715 -0.9409221804636242 0.8841324794687307
-0.12489224781037706 -0.0007210622458262844 0.6173930603477124
-1.0186641297327925 -0.8885918396692669 1.3339431879633905
-0.7424343757045877 -0.6123620856410621 1.9438477708042827
-0.10136312095293026 0.022808064611620493 0.9443794837915543
-0.0346378393428138 0.08953334622173696 1.917
-0.0844860766359488 0.045586213427576815 2.012
-0.04358308797499667 0.08553662632208323 1.899
-0.08869243512108364 0.03673760950704835 2.0109999999999997
-0.04358308797499667 0.08553662632208323 1.899
-0.08869243512108364 0.03673760950704835 2.0109999999999997
-0.946628999731314 -0.821198955103182 1.9458152280621819
-0.13292781029004624 -0.0038080959929663594 0.960119141854747
-0.164613264035592 -0.035493549738512126 0.6286183887176707
-1.348257347552057 -1.222827302923925 1.3807153895048838
-0.18365870818328284 -0.05453899388620295 0.4566304375550713
-1.4111132193187215 -1.2856831746905895 0.9098340050346823
-0.19554989464619743 -0.06643018034911755 0.33830009240333697
-1.4505479424329832 -1.3251178978048512 0.6398447423947814
-0.20443895078044155 -0.07531923648336167 0.24887576762255295
-1.4765079139559452 -1.3510778693278132 0.4531767708947979
-0.2110950897047424 -0.08197537540766248 0.1740698909049329
-1.4968677553998528 -1.3714377107717208 0.30883367741197776
-0.2179885784696185 -0.08886886417253859 0.10825212762007345
-1.5089289453658783 -1.3834989007377463 0.18604892128575298
-0.2255658560644222 -0.09644614176734229 0.045119964083148896
-1.52340331875964 -1.397973274131508 0.07507460690501719
-0.23233141787288697 -0.10321170357580708 -0.020386516747518055
-1.5374425536100986 -1.4120125089819666 -0.033025058127381005
-0.2397801873981309 -0.11066047310105101 -0.09244436408693929
-1.5511903237394835 -1.4257602791113515 -0.14543646168223023
-0.24909597825037783 -0.11997626395329794 -0.17831552562817735
-1.5680906314387595 -1.4426605868106275 -0.2709102090042604
-0.2580851560750539 -0.12896544177797398 -0.28610043932673546
-1.5942412863711815 -1.4688112417430494 -0.4238108669005079
-0.08845945397314364 0.044263914720814236 -0.08017867230765247
-0.08845945397314364 0.044263914720814236 -0.08017867230765247
-2.274712342723048 -2.155230987312797 -0.6426027860061055
-0.3340470651360556 -0.2013236964420977 -0.29678002350592597
-2.251884559402613 -2.132403203992362 -0.43898711810251545
-0.3213671768419706 -0.18864380814801268 -0.18438067956110857
-2.2174505499369985 -2.0979691945267476 -0.28101879889247905
-0.3088655711127497 -0.1761422024187918 -0.09547915381706608
-2.1858661204698815 -2.0663847650596305 -0.15033881432320428
-0.29771127634039496 -0.16498790764643712 -0.020936018546642534
-2.1719977540223447 -2.052516398612094 -0.03423396208545485
-0.2884559159961749 -0.15573254730221703 0.046247963185227614
-2.152083990234826 -2.032602634824575 0.07783193804343184
-0.2792446474568081 -0.1465212787628502 0.11126750721951839
-2.135568746915006 -2.016087391504755 0.19328583232442084
-0.2694883186041074 -0.13676494991014948 0.17828125923327806
-2.1162261340651924 -1.9967447786549415 0.3205319227684921
-0.2599742023899953 -0.1272508336960374 0.25382851921703165
-2.0850491140160234 -1.9655677586057725 0.4698923075261634
-0.24849607231468426 -0.11577270362072638 0.3450510920300111
-2.042320767116561 -1.92283941170631 0.6615979634140647
-0.23224834365873304 -0.09952497496477515 0.4634841777059917
-1.9873880598732545 -1.8679067044630036 0.9415325532326891
-0.2070465062934295 -0.07432313759947161 0.6351664969334798
-1.8944326393945172 -1.7749512839842663 1.4265521470155473
-1.2814494204088116 -1.1619680649985606 1.947782685320081
-0.16483171012265507 -0.03210834142869719 0.9561842273389488
-0.05207438751965959 0.08064898117429829 1.898
-0.09197499834838273 0.027506357061868335 2.0109999999999997
-0.0600232950082279 0.0749213191044795 1.92
-0.09429957606995418 0.017988606200229268 2.0109999999999997
-0.0600232950082279 0.0749213191044795 1.92
-0.09429957606995418 0.017988606200229268 2.0109999999999997
-1.9572089071796557 -1.8449207249094723 1.9458152280621819
-0.2065495333003627 -0.0716049191876553 1.0014357442706272
-0.2605195136608415 -0.12557489954813408 0.6622943738275459
-3.116509992598157 -3.0042218103279734 1.5257092142835134
-0.2934939649016772 -0.15854935078896978 0.4840453981587529
-3.2523897971460087 -3.140101614875825 1.0006460620343776
-0.3148622459781861 -0.17991763186547868 0.3608034244922508
-3.328747658904526 -3.216459476634342 0.6998536279652182
-0.32993186246662587 -0.19498724835391848 0.2655913042539184
-3.395953543938666 -3.2836653616684823 0.4965133473464862
-0.3425271774949955 -0.20758256338228812 0.18670399588996836
-3.443858567531048 -3.3315703852608642 0.3383132557103938
-0.354873575728711 -0.2199289616160036 0.1163936525385748
-3.4730704779227906 -3.3607822956526068 0.20383966092247816
-0.36603429071217 -0.23108967659946258 0.048253294922256454
-3.5008546216367162 -3.3885664393665325 0.08209326798461813
-0.3783996575349981 -0.2434550434222907 -0.021870171605154143
-3.517507677854537 -3.4052194955843533 -0.03593741766274073
-0.39344180176628046 -0.2584971876535731 -0.09991461573032831
-3.5502972022114365 -3.4380090199412527 -0.15827595669430514
-0.408806823489788 -0.2738622093770806 -0.1924675514716835
-3.59431278054335 -3.482024598273166 -0.29517082473598516
-0.4264502126059112 -0.2915055984932038 -0.31083210795222926
-3.6365731809600583 -3.5242849986898745 -0.4592221197051923
-0.4556785558725527 -0.32073394175984526 -0.48616127805920434
-0.5927940547763746 -0.4570337400855527 -0.5254470379023723
-0.5542325183667278 -0.41847220367590593 -0.3361258599555752
-8.461046848705431 -8.357121401445507 -0.492385038998468
-0.5292277001636794 -0.39346738547285753 -0.20742826450624713
-8.385351096660525 -8.281425649400601 -0.31740972249006627
-0.5076657727624161 -0.3719054580715942 -0.10738486737371736
-8.268951260168786 -8.165025812908862 -0.16994822488710049
-0.48705674920174136 -0.3512964345109195 -0.023463726822615123
-8.211809907927062 -8.107884460667139 -0.03868492665836311
-0.47168083226235025 -0.3359205175715284 0.05188795869562123
-8.171451000748402 -8.067525553488478 0.08835992966283325
-0.45498623854583353 -0.3192259238550117 0.12453517745707615
-8.098945220182697 -7.995019772922774 0.21921809687964733
-0.43709334979724623 -0.30133303510642434 0.19887017106074323
-8.003772857015475 -7.8998474097555516 0.36264560605194357
-0.4198701659276779 -0.28410985123685606 0.28230684088528396
-7.8935561336318845 -7.789630686371962 0.5324207964064566
-0.3993594357287764 -0.2635991210379545 0.38255664551153407
-7.74648117949661 -7.642555732236687 0.7516112917697199
-0.36945643724531685 -0.23369612255449496 0.5097469237247043
-7.563602933850581 -7.4596774865906585 1.074323768656772
-7.217428975462345 -7.113503528202422 1.6323498337981182
-0.32518954863175564 -0.18942923394093375 0.6931640268449315
-4.20291367136478 -4.098988224104858 1.947782685320081
-0.2535812066213299 -0.11782089193050804 1.0358662462838613
-0.06734701687400232 0.06841329781681954 1.951
-0.0956419561433224 0.008283491116600311 2.01
-0.07396927130647592 0.061192703015874025 1.977
-0.09598815671823942 -0.0015079024619351056 2.0109999999999997
-0.07396927130647592 0.061192703015874025 1.977
-0.09598815671823942 -0.0015079024619351056 2.0109999999999997
22.52564179297905 22.620122047235355 1.9458152280621819
-0.3198085849658103 -0.18464661064346038 1.1135808079708744
44.523607156510856 44.61808741076716 1.8549855131356265
-0.4153641433973335 -0.2802021690749836 0.7474197806330639
70.92233034432995 71.01681059858625 1.8530799933051014
-0.47486565636087963 -0.3397036820385297 0.5508693646302267
-0.5160312356996807 -0.38086926137733074 0.4148114215056438
74.45772488425781 74.55220513851411 1.3284467043155428
-0.5457639653582894 -0.4106019910359394 0.3076896928069871
168.17276391849703 168.26724417275335 2.083870233376899
-0.5696554291141281 -0.4344934547917782 0.21711943381690557
262.0646140717291 262.15909432598545 2.1805529344542673
-0.5914543926809137 -0.45629241835856377 0.13539054401507794
381.06098451925635 381.1554647735127 1.8936583884514242
-0.6136365690615135 -0.4784745947391636 0.05639995510393612
387.16917643033185 387.26365668458817 0.7685433882163029
-0.635208453385485 -0.5000464790631352 -0.02555183365928813
-0.6604905387574895 -0.5253285644351396 -0.11648923656409774
143.87852802785028 143.9730082821066 -0.5429939163288403
-0.6908774085305667 -0.5557154342082168 -0.22562372630504074
83.6256822020835 83.72016245633979 -0.5814460903703379
-0.7248186763588937 -0.5896567020365439 -0.36591627898173823
3.8640942265521314 3.9481452082638517 -0.6667920197013955
-0.9896140447123221 -0.856458219561396 -0.4131312827213174
-0.9325874362952651 -0.799431611144339 -0.2519060600144093
11.294966343111152 11.379017324822872 -0.5960024598093728
-0.8903977982355773 -0.7572419730846512 -0.13002906766774036
18.8249895087808 18.909040490492522 -0.5376246729601545
-0.8538915530522746 -0.7207357279013485 -0.028464193194647852
-0.8237081769664605 -0.6905523518155344 0.06279195001571554
47.264856978160736 47.348907959872456 0.7081327696383091
-0.7918666421373548 -0.6587108169864287 0.15046744201230264
-0.7583398837521403 -0.6251840586012143 0.24004799471567362
35.10362310462334 35.18767408633506 2.205821144424338
-0.7238908774436933 -0.5907350522927672 0.3392634842217886
22.417591104054516 22.50164208576624 2.100585770008264
-0.679593310809888 -0.546437485658962 0.4545673081960581
10.945359407284307 11.029410388996027 1.482219473589787
9.552952083249606 9.637003064961325 1.8967725867672192
-0.6217146424488967 -0.4885588172979706 0.6014156982432647
6.053856318385935 6.1379073000976545 1.9260792594786962
-0.5363588600608146 -0.40320303490988846 0.8072881986061754
-0.4067807577709985 -0.27362493262007237 1.1962140128026355
2.910198509130756 2.9942494908424764 1.947782685320081
-0.0798210827810445 0.053334742369881595 1.9969999999999999
-0.0953345718676729 -0.011283590155952719 2.0109999999999997
-0.08484150048851469 0.04492126216901482 2.014
-0.09368800914611967 -0.020941751174068456 2.012
-0.08484150048851469 0.04492126216901482 2.014
-0.09368800914611967 -0.020941751174068456 2.012
-0.5592110101918759 -0.42944824753434646 1.375252623271451
1.4961413305873932 1.5688875885594444 1.9458152280621819
3.2334840631391444 3.3062303211111956 1.9681742408660405
-0.7450957320401542 -0.6153329693826247 0.9251541464907386
5.010487532914703 5.083233790886754 1.8950591517294888
-0.8700064363622957 -0.7402436737047662 0.6905143202052298
6.767164431283351 6.839910689255403 1.7395075704730343
-0.9603910387985947 -0.8306282761410652 0.5258278598109517
7.108589266635378 7.181335524607429 1.269142596085158
-1.0281602502920757 -0.8983974876345461 0.3937437517610539
-1.0763123345391425 -0.946549571881613 0.27795030967077994
-1.1292832115626528 -0.9995204489051234 0.17489201676780666
7.392279875875161 7.465026133847212 0.5291991197025875
-1.1753806480069313 -1.0456178853494018 0.07294394193442404
7.509404301547347 7.582150559519398 0.21469582909565013
-1.2201037819466345 -1.090341019289105 -0.03308000830729345
7.629726358207872 7.702472616179923 -0.09500886106862187
7.74090144950866 7.813647707480711 -0.420435100304489
-1.2840676434723428 -1.1543048808148133 -0.15243982259790745
-1.3441105101973858 -1.2143477475398563 -0.29476648114045645
5.962053480441762 6.034799738413813 -0.5984285213825453
-1.4407298724641704 -1.3109671098066409 -0.487888371975651
-1.2356201557176791 -1.1058573930601496 -0.5998093690340832
1.313592137512356 1.3742759673469718 -0.6667920197013955
1.313592137512356 1.3742759673469718 -0.6667920197013955
-2.1302615684567945 -2.0052434404377157 -0.3655266103579871
3.9525300111591113 4.0132138409937275 -0.5964068034049015
5.210514344268807 5.271198174103423 -0.4246371168538953
-2.0095111960122876 -1.884493067993209 -0.18675629108472583
5.137437043554969 5.198120873389585 -0.09599796430704594
-1.905794784864619 -1.7807766568455405 -0.040498282595473875
5.05053074500477 5.111214574839386 0.21670116083267899
-1.8231631538891742 -1.6981450258700956 0.08873592936352616
4.964488430646283 5.0251722604808995 0.5334206511418104
-1.7367540560093002 -1.6117359279902217 0.21107657196114601
-1.657773465656552 -1.5327553376374734 0.3364415364533515
4.878415479980067 4.939099309814683 0.8778363315528337
4.779131648524453 4.8398154783590694 1.2809053811220448
-1.5625076681914822 -1.4374895401724037 0.4705114014754732
4.652338374945539 4.713022204780155 1.795015789625688
-1.4490179123316007 -1.3239997843125222 0.6248425210021723
3.3379708771583867 3.3986547069930024 1.9001994568426794
-1.2987218306385429 -1.1737037026194643 0.8138816429217969
-1.0995504014766557 -0.9745322734575772 1.0832441877009862
2.1487104268207338 2.2093942566553495 1.977528681174339
-0.7969017746353617 -0.6718836466162832 1.5700308918034591
0.9751854919342824 1.0358693217688981 1.947782685320081
-0.08897823318145173 0.036039894837626874 2.0269999999999997
-0.09106561868404833 -0.030381788849432614 2.0109999999999997
-0.09218819382498662 0.026783146179765707 2.0349999999999997
-0.08749471455700258 -0.0395053784260908 2.0109999999999997
-0.09218819382498662 0.026783146179765707 2.0349999999999997
-0.08749471455700258 -0.0395053784260908 2.0109999999999997
-1.2634308860264238 -1.1444595460216715 1.8631820232304208
0.6991623851239397 0.7471517212548515 1.9448314994332323
-1.8624407050184741 -1.7434693650137219 1.3610710648574567
1.5643398857045907 1.6123292218355025 1.9737869050510195
-2.2279302818945843 -2.1089589418898322 1.0306311751946542
2.590148225232615 2.6381375613635267 2.0081458642196757
3.2636094491254437 3.3115987852563555 1.7162541273144898
-2.49363233487474 -2.3746609948699877 0.7913671784601342
3.3545487268947722 3.402538063025684 1.2251869256841599
-2.703362127155433 -2.584390787150681 0.5980447550332988
3.427859017479182 3.4758483536100937 0.8404019464119878
-2.8998999687283846 -2.7809286287236326 0.4318992185625083
3.481222374501056 3.529211710631968 0.5095991523061953
-3.0622269560070503 -2.9432556160022982 0.2728918537497673
3.5358373151328246 3.5838266512637365 0.20667450214753477
-3.237293779549877 -3.118322439545125 0.1154319081127226
3.5900771546314085 3.6380664907623204 -0.09138214919440034
-3.408721439248451 -3.2897500992436988 -0.05302692361551192
3.644625900105945 3.6926152362368567 -0.4045608155622873
-3.6298818081842046 -3.5109104681794525 -0.246751749595694
2.908412530048565 2.9564018661794766 -0.5980241777870166
-2.958946013268244 -2.839974673263492 -0.5660179614970974
-2.186980055782556 -2.068008715777804 -0.5991078376083123
0.7247818443660432 0.7595768434742138 -0.6676101694188205
0.7237919003284745 0.7585868994366451 -0.6667920197013955
-4.636686125958726 -4.525000745714625 -0.5637696279856889
-6.4645022143527715 -6.35281683410867 -0.5143250535125659
2.234815694368613 2.2696106934767837 -0.5951937726183153
2.7160115051525833 2.750806504260754 -0.39032064836707697
-7.048723896713984 -6.937038516469882 -0.06989662884863332
2.2826375121746616 2.3174325112828322 0.17358652848655895
-6.841358352632876 -6.729672972388775 0.1556638760868637
-6.353959115257093 -6.242273735012992 0.3615440139734486
2.21015123068553 2.2449462297937006 0.42124853004245844
-6.119042767279909 -6.007357387035808 0.5825726187544125
2.179478763205852 2.2142737623140225 0.6958116338054711
-5.882219434067177 -5.770534053823075 0.8333004557710354
2.130247701498064 2.1650427006062345 1.013456795020197
-5.366612683537791 -5.254927303293689 1.0921617173819482
2.4263114950755935 2.461106494183764 1.6532447974655313
-4.717612057942121 -4.60592667769802 1.4024465783820856
2.008205028286015 2.0430000273941857 2.017569756927191
-3.7814588271101317 -3.66977344686603 1.7820208787308967
1.2034654005298462 1.2382603996380168 1.977528681174339
-2.077634864341467 -1.9659494840973655 1.9831969159622642
0.5291092888332947 0.5639042879414653 1.9467989566911312
-0.0944379483791555 0.017247431864946147 2.0389999999999997
-0.09570406403838032 0.007532073189872785 2.041
-0.07766563145999471 -0.05642738422007775 2.0109999999999997
-0.09570406403838032 0.007532073189872785 2.041
-0.07766563145999471 -0.05642738422007775 2.0109999999999997
-4.7412147923114105 -4.637978655083157 2.001887759912305
0.41121049936178994 0.4324487466017069 1.9448314994332323
-10.0170381927687 -9.913802055540447 2.0663958641031765
0.9488839394533873 0.9701221866933043 1.9737869050510195
-16.080132568500943 -15.97689643127269 2.0895340285118555
1.588512818683071 1.609751065922988 2.0107160167762705
-20.321156904359533 -20.217920767131282 1.8055173446005146
1.883853501748878 1.9050917489887949 1.6164893550536388
1.6593342815251886 1.6805725287651054 0.9948839765409019
-27.147104710635208 -27.043868573406957 1.1272429225537186
1.692194964738374 1.713433211978291 0.6808378797491327
-30.491696919433206 -30.388460782204955 0.7565587415007361
1.716271823431079 1.7375100706709958 0.41220239124412367
-34.34624007183383 -34.24300393460558 0.34053039559420983
1.7398531187153772 1.761091365955294 0.1668185338740866
-35.88575052624542 -35.782514389017166 -0.15501445753301465
1.7652738085162973 1.7865120557562142 -0.07368819126259221
1.7879975840928144 1.8092358313327312 -0.3254228372151347
-22.372005776070363 -22.268769638842112 -0.42090199103220083
-14.924337177469448 -14.821101040241196 -0.5159424278946809
1.7879482294969935 1.8091864767369104 -0.5992372085736027
