0.08553662632208328 0.043583087974996534 0.651
-0.08553662632208316 -0.043583087974996826 0.645
0.08553662632208328 0.043583087974996534 0.651
-0.08553662632208316 -0.043583087974996826 0.645
-0.5167837840292524 -0.2633144898489392 0.556195594467471
0.5343662599493704 0.2722732087953601 0.5756429928754245
0.4431447619046545 0.225793534000571 0.43481118380392336
-0.557246051390979 -0.2839310448139869 0.5506420319484111
-0.41433336260852527 -0.21111339282364902 0.34598471434801387
0.3466290228819597 0.17661630869174538 0.2866730490312115
0.3010916584113399 0.15341386259106118 0.19044242174276102
-0.3457656407982343 -0.17617639354745124 0.22100725486196957
0.2789576226147156 0.14213600805266038 0.11403966284479641
-0.31050139196439164 -0.15820836130930396 0.12819894984230468
0.2662678744760427 0.135670258428332 0.04427095360638492
-0.29767619884689805 -0.15167359902126015 0.050059028812873406
0.26880058722186834 0.13696074002858907 -0.022439301378164207
-0.3002374697398279 -0.15297863172425724 -0.02534228792009454
0.2857506682133791 0.14559723766475557 -0.09455920027873453
-0.31993462468805434 -0.16301483345301382 -0.10691988005373251
0.3250891975944248 0.16564121953008268 -0.18391949478001476
-0.3630586460949683 -0.18498761984437925 -0.20690943162751663
0.2823520807743499 0.14386557087223809 -0.2135462479183379
-0.31050139196439164 -0.15820836130930396 -0.23688077169749405
-0.12193648695257926 -0.07472277530755575 -0.09037985742153394
0.11396389840174603 0.0698371667600892 -0.07929553528493073
-0.12130585662948846 -0.07433632454854078 -0.08952721725717985
0.11396389840174603 0.0698371667600892 -0.07929553528493073
0.2693816713443049 0.1650773005102424 -0.21283914113715136
-0.297131334832654 -0.18208231616652198 -0.23688077169749405
0.31355950725123605 0.19214951317232642 -0.18548699047416264
-0.3532287640593547 -0.21645886500926853 -0.21056692158052828
0.27507392752939336 0.16856551958675903 -0.09517723426748442
-0.3110909957916876 -0.19063680740438407 -0.10877398201998222
0.25884335461432706 0.15861941171244376 -0.0225962195696199
-0.2922168391177236 -0.1790707093191023 -0.025813042494461622
0.2564179740062544 0.1571331365642775 0.04458382253646538
-0.2881267803817076 -0.17656431810213305 0.05068476667303433
0.2677575219417886 0.1640820204763234 0.11442234627716147
-0.30123186934277923 -0.1845951269461217 0.13011236700413012
0.2873093727090422 0.1760634100360908 0.18985463649046855
-0.3341827378905059 -0.20478744516206412 0.22335839587113945
-0.4014993720049549 -0.24603913160232624 0.3505471501416141
0.3300510494389264 0.20225554322258602 0.2851522371000114
0.42239005464267343 0.2588409583874996 0.43302917075554664
-0.5374643500358919 -0.3293585772991137 0.555097064569353
-0.4945312953253724 -0.3030491675352523 0.556195594467471
0.513881777802975 0.3149071584484129 0.5785601026366175
0.08185345577799281 0.05015986221273114 0.651
-0.08185345577799266 -0.05015986221273141 0.645
0.07766563145999492 0.056427384220077474 0.652
-0.07766563145999471 -0.05642738422007775 0.645
0.07766563145999492 0.056427384220077474 0.651
-0.07766563145999471 -0.05642738422007775 0.645
-0.4692298567374681 -0.34091544632963644 0.556195594467471
0.4843958430005541 0.351934180328911 0.5746706229550268
-0.5179636141078152 -0.3763225936086887 0.5640071298112367
0.408719356960437 0.29695199485076185 0.4419392359974303
-0.38967418614464694 -0.2831148682999659 0.3589116157632144
0.31943880048299234 0.2320858736459137 0.2912354848248117
0.2772663062006435 0.20144576303772432 0.19338134800422338
-0.3241493955153778 -0.23550832126915427 0.2286484631417717
0.2579127906602487 0.1873846109312148 0.11633576343898692
-0.2912742074882803 -0.2116230990512951 0.13279115103068576
0.24713582282531657 0.17955468547619072 0.04536599486166653
-0.27881993431323393 -0.20257453993422747 0.051779807928315935
0.2494410757776817 0.18122954978389394 -0.022988515048259137
-0.28192936421547776 -0.20483367299605917 -0.026283797068828704
0.26486504728076016 0.1924357210316232 -0.09672231923935917
-0.30064207945012955 -0.21842925642848765 -0.11093710098060687
-0.3414559710467578 -0.24808228440683894 -0.2147469100982559
0.30064207945013033 0.21842925642848657 -0.18757698473302645
0.25637032450649594 0.18626394367250457 -0.2135462479183379
-0.2834851421629773 -0.20596401183905053 -0.23829498525986714
-0.2272392790655008 -0.19408067922848857 -0.2412971665122086
0.10163587387813346 0.0868052368295148 -0.07929553528493073
-0.2272392790655008 -0.19408067922848857 -0.2412971665122086
0.24096591976806578 0.20580433792884462 -0.2135462479183379
-0.265720271521568 -0.22694655164268124 -0.2375878784786806
-0.33354009584586586 -0.28487015368958996 -0.22362938569842702
0.2906661128286355 0.24825231288568275 -0.19332446894490188
0.2562297322062692 0.21884086531885122 -0.09981248918310867
-0.2914022102116008 -0.24888099944309533 -0.11464530491310625
0.24024135676119607 0.20518550265927588 -0.023616187814081906
-0.2730397484310352 -0.23319797549875304 -0.02714684712183502
0.23734534728591625 0.20271207690152018 0.046461036116948136
-0.2701100708958991 -0.23069579450135705 0.05350058704375846
0.24749666454617808 0.21138212090552175 0.11901454746554255
-0.2818430119829351 -0.2407166728674753 0.13700066878670172
0.26718289527388045 0.22819575033962977 0.19867141527485563
-0.3142786465210219 -0.2684193218472072 0.23628967142157387
0.3068876387749697 0.2621068048851913 0.29807913851521195
-0.3774441055765312 -0.3223677204149516 0.37031770524721486
-0.4860891789548686 -0.4151593791581515 0.5631161232870483
0.39013494915315505 0.33320672479598185 0.4490672881909373
-0.44103546004801636 -0.37667986803150844 0.556195594467471
0.4567913764656369 0.39013669192557215 0.5766153627958222
-0.07299897269760271 -0.06234701263969794 0.644
0.07299897269760293 0.062347012639697684 0.651
0.0678822509939085 0.06788225099390863 0.652
-0.06788225099390827 -0.06788225099390886 0.645
0.0678822509939085 0.06788225099390863 0.652
-0.06788225099390827 -0.06788225099390886 0.645
-0.41012193308819583 -0.4101219330881994 0.556195594467471
0.42337749113527473 0.4233774911352755 0.5746706229550268
-0.4513186235909152 -0.4513186235909191 0.5622251167628599
0.3787776392555397 0.37877763925554037 0.46956043824726973
0.29637813684548303 0.29637813684548353 0.3102456339648125
-0.3662628837324345 -0.36626288373243765 0.38704663649041554
-0.3046440545948652 -0.3046440545948679 0.24686980596283836
0.25799224794555337 0.2579922479455538 0.20690040880695026
0.2423396376988294 0.24233963769882982 0.12590284924811415
-0.27371609379062706 -0.2737160937906294 0.14350628713690822
0.22879794579497412 0.2287979457949745 0.048338249697430884
-0.2614048584093253 -0.2614048584093276 0.0558471040193619
0.23150053995617356 0.23150053995617398 -0.02455769696281607
-0.26413727491590316 -0.26413727491590544 -0.02832373355775272
0.24573563030216009 0.2457356303021605 -0.10321167612123312
-0.28194414340432633 -0.2819441434043287 -0.11958957682310543
0.2757716446627533 0.2757716446627538 -0.19750445746262948
-0.3225926223582913 -0.32259262235829406 -0.23303435986331417
0.22407588000496595 0.22407588000496634 -0.2135462479183379
-0.24777509963674613 -0.24777509963674826 -0.23829498525986714
-0.19469581628517799 -0.22795951202142947 -0.2421498066765627
0.15232568268221666 0.17835045947627007 -0.1824649951717761
-0.19469581628517799 -0.22795951202142947 -0.2421498066765627
0.15232568268221666 0.17835045947627007 -0.1824649951717761
0.20518550265927543 0.2402413567611964 -0.21283914113715136
-0.2962878515246995 -0.3469085024021142 -0.23303435986331417
0.25202601159469756 0.295084546324726 -0.19645946033319758
-0.27157879820665165 -0.317977918045626 -0.12576991671060445
0.23632860326541888 0.27670524259329865 -0.10846496502560726
-0.25391425420537544 -0.29729539436615565 -0.029735997280853965
0.22195546229288973 0.25987645672193854 -0.025734583398733777
-0.25076769402997323 -0.29361124575003894 0.05850648992504579
0.2194634771073831 0.25695871694872924 0.05068476667303433
0.23132114213001678 0.2708422588955877 0.1312604173012254
-0.2614760433771823 -0.3061491119370003 0.14962922205474963
-0.2918450731408439 -0.34170667725904263 0.25803772575639533
0.2469952620766041 0.28919429543424546 0.2163049728436298
0.28360289049351023 0.3320563212825891 0.32393294134561296
-0.3510865932620044 -0.4110695853887514 0.40453597369921623
-0.41515937915814716 -0.48608917895487236 0.5631161232870483
0.36003797229615603 0.42155030364699353 0.48648956220684875
-0.376039393251561 -0.44028556042981687 0.5552232245470734
0.39141894977397346 0.4582927075110836 0.5785601026366175
0.06234701263969756 0.07299897269760304 0.65
-0.06234701263969729 -0.07299897269760328 0.644
0.056427384220077335 0.07766563145999501 0.65
-0.05642738422007709 -0.0776656314599952 0.644
0.056427384220077335 0.07766563145999501 0.65
-0.05642738422007709 -0.0776656314599952 0.645
-0.34091544632963244 -0.469229856737471 0.556195594467471
0.3530945923721318 0.48599301315714205 0.5766153627958222
-0.37632259360868425 -0.5179636141078184 0.5640071298112367
0.3484535539206577 0.4796051717403215 0.521238816650195
0.27448060871546703 0.3777901473558921 0.34750552627921394
-0.3385969584820682 -0.4660387319812514 0.43191058846081737
0.2389338013263182 0.3288641643349964 0.23217517465552656
-0.28138711082788675 -0.38729613199712515 0.2756712833251695
-0.2520906722338916 -0.3469730435821559 0.15996167472860703
0.22126972645748125 0.30455165104368 0.13929676938089222
-0.24121907559141453 -0.33200957451679525 0.062417351551051534
0.21105665220652134 0.29049456029222903 0.05412632490391937
-0.24464932748475762 -0.33673091120545473 -0.031775933769777984
0.2127563400324151 0.29283397988623416 -0.027382224409018562
-0.26126508988702574 -0.35960054617078147 -0.13411337555872807
0.22581971972157067 0.3108141795106383 -0.1149543219074812
-0.2675817716780609 -0.3682947127853318 -0.23251186129859822
0.2286665946157454 0.3147325666448237 -0.19698195889791353
0.18570386462386243 0.2555994418299112 -0.21283914113715136
-0.20709485431714153 -0.2850416133047277 -0.23970919882224023
0.1462856019537047 0.23871640635080418 -0.2242443632251267
-0.1551539230964935 -0.2531881911696661 -0.23959188618350039
0.1462856019537047 0.23871640635080418 -0.2242443632251267
-0.15663806339361883 -0.25561008801746593 -0.2421498066765627
0.16457958345104798 0.2685694709215467 -0.2121320343559648
-0.18409234277100017 -0.30041140013835127 -0.23970919882224023
-0.23683944136377738 -0.3864868419681243 -0.23146686416916631
0.20225554322258546 0.3300510494389267 -0.19593696176848163
0.21645886500926678 0.35322876405935577 -0.12453384873310464
-0.2506446909091957 -0.4090149617300494 -0.14523798735622626
-0.23428686489255537 -0.3823214157470354 -0.03436508392879693
0.20326805924310637 0.3317033254152587 -0.02957907908939827
-0.23071551132539908 -0.3764934964031379 0.06742325443233887
0.20174940943263153 0.32922511415987754 0.05850648992504579
0.21087203157652545 0.3441118804964293 0.1500119054871147
-0.24092623551294176 -0.39315588389538636 0.17259022799665494
0.22714689902486362 0.37067005039979745 0.24922094697200822
-0.26858713330902523 -0.4382943666314226 0.2968315524076985
0.26191722664369194 0.42741006818660326 0.374119735075215
-0.32419551774952665 -0.5290390025991621 0.4661288569128187
-0.33504016045922586 -0.546735851101294 0.5648981363354251
0.3303914228560111 0.5391498008004644 0.5568790776177297
-0.303049167535248 -0.494531295325375 0.556195594467471
0.31542299709986016 0.5147235499766274 0.5795324725570152
0.050159862212731 0.0818534557779929 0.65
-0.0501598622127307 -0.08185345577799309 0.645
0.04358308797499638 0.08553662632208338 0.65
-0.04358308797499605 -0.08553662632208354 0.645
0.04358308797499638 0.08553662632208338 0.649
-0.04358308797499605 -0.08553662632208354 0.645
-0.2628667720273709 -0.5159050883291522 0.5552232245470734
0.2736177051764277 0.5370049826714697 0.5785601026366175
-0.287520466738895 -0.5642906885695067 0.5577700841419181
0.30413467045859927 0.5968978993303957 0.5907373255368877
0.2507869162181778 0.4921970364130373 0.4136608452864166
-0.31087577519007126 -0.6101280622950991 0.5155552446768207
-0.2561536544363402 -0.5027298532203037 0.3268086002746146
0.21822591844354508 0.4282924801108131 0.27684685382975444
0.20135131232227996 0.3951742008609566 0.16570192621408333
-0.22935822907286907 -0.4501408699024754 0.18981098245308392
0.19293901888025589 0.378664145376248 0.06476386852665497
-0.22000559489065427 -0.43178529180231384 0.07430637089410896
0.1938236395465553 0.38040031118931417 -0.0326389838227843
-0.22312143572646043 -0.43790047376014907 -0.037817284140822194
-0.2387251964234896 -0.46852457842952727 -0.15976178609184888
0.2048986425818625 0.40213622849490965 -0.1362764945193527
0.17573654999920083 0.34490239922966376 -0.19593696176848163
-0.20622965065545482 -0.40474847892305793 -0.23198936273388227
0.14343297994520296 0.2815030732763658 -0.21283914113715136
-0.1599548407147596 -0.31392905079319416 -0.23970919882224023
0.10714111012280096 0.25866152114617635 -0.2242443632251267
-0.11508595831531068 -0.27784208140353145 -0.24300244684091676
0.10714111012280096 0.25866152114617635 -0.2242443632251267
-0.11508595831531068 -0.27784208140353145 -0.24300244684091676
0.12053981416485451 0.29100885416272537 -0.2121320343559648
-0.13483116387513075 -0.32551122445789427 -0.23970919882224023
0.1473927483712841 0.3558375721134003 -0.19489196463904973
-0.17346369245969695 -0.41877839891552154 -0.23146686416916631
-0.22573132985249333 -0.5449636379824114 -0.17984789072622057
0.19295785141365784 0.465841461849227 -0.15296341221559998
-0.2106428107438013 -0.508536730514081 -0.04252482988449301
0.18319987610259209 0.44228362551195016 -0.036797315896360185
-0.20725231668678365 -0.5003513537784835 0.08337956986644228
0.18282498223982135 0.4413785516639986 0.07321132963882736
-0.21629740191254895 -0.5221881212033469 0.21315467182735434
0.18995327809405138 0.45858778019188867 0.18636683156179812
0.20499298118768067 0.4948968353745933 0.30976282795813287
-0.24198214552275027 -0.5841965775731714 0.3673657826827952
-0.2904930248825071 -0.701312200446143 0.572585692096823
0.23442007627417286 0.5659401274336456 0.46004560918801846
-0.24349524624636434 -0.5878495258613571 0.5604431037144832
0.257501309189491 0.6216631529740992 0.5934103451094528
-0.22120161696636992 -0.5340279436990759 0.5542508546266757
0.23139693507981893 0.5586416189612675 0.5805048424774129
0.036737609507048505 0.08869243512108359 0.649
-0.0367376095070482 -0.0886924351210837 0.644
-0.02966563145999448 -0.0913014255643349 0.645
0.029665631459994818 0.09130142556433479 0.65
-0.02966563145999448 -0.0913014255643349 0.644
0.029665631459994818 0.09130142556433479 0.65
-0.17831565868427138 -0.5487991671531531 0.553278484706278
0.18654800817209027 0.5741357336440799 0.5795324725570152
-0.19631701539890622 -0.604201646360605 0.5595520971902949
0.2073206967814633 0.6380674954000154 0.5916283320610761
0.21986749162919852 0.6766825593472056 0.5360862057480215
-0.23396015209365492 -0.7200553084536728 0.5710648801656228
0.18959949160475303 0.5835272339687491 0.35619786288923816
-0.22691191752861403 -0.6983630729666965 0.4279076636689198
-0.20151154345967429 -0.620188759856626 0.24683081387548214
0.17587845503807753 0.5412982256145119 0.2146854055568147
-0.1920415691568631 -0.5910431758473909 0.09605076153470085
0.17405119891499854 0.535674509526309 0.08682112809732732
-0.21160332149754207 -0.6512480589845991 -0.053195266903480184
0.17131139641710666 0.5272422644834356 -0.042838666267404395
0.17252892305555373 0.5309894261746564 -0.16995934690622222
-0.2168059797052177 -0.6672601944999124 -0.2147668110905899
-0.14037400966122537 -0.43202677858164096 -0.23198936273388227
0.11961831913604044 0.36814733154956913 -0.19593696176848163
0.09763029927352393 0.30047516480361924 -0.21283914113715136
-0.1091735655506767 -0.336001685390047 -0.2404163056034268
0.06513920488727803 0.2713243151408536 -0.2233917230607726
-0.07020498182422469 -0.29242479465165105 -0.24300244684091676
0.06513920488727803 0.2713243151408536 -0.2233917230607726
-0.0704262529905144 -0.29334645538972526 -0.24385508700527087
0.073309650129146 0.3053566688283428 -0.21142492757477824
-0.08224999424567776 -0.3425958821214668 -0.23970919882224023
-0.10558855354995357 -0.43980797782581044 -0.23094436560445036
0.08991283881981585 0.3745139268643582 -0.19489196463904973
-0.15107648984127667 -0.6292788684019499 -0.19777087639996765
0.12964627410227073 0.5400155957112711 -0.16903229592309738
-0.1411572520163708 -0.5879622693703965 -0.04684008014952458
0.13747077973433097 0.572607007221563 -0.04558473461787903
-0.14000495237656113 -0.5831625959456219 0.09260920330381579
0.13102608465026913 0.5457629202696173 0.08650825916724686
-0.14669157589744536 -0.6110143873598427 0.23764641149871998
0.13217626200587723 0.5505537537444949 0.21353735525971942
0.1441543551589542 0.6004461024011283 0.35854900389840805
-0.16424751956064831 -0.6841401554639038 0.40968632084785317
-0.17767032662012405 -0.7400501706227074 0.574106504028023
0.16771713161590163 0.6985921297599439 0.5414090475072216
-0.14876826681573438 -0.619664427564341 0.5613341102386715
0.1577747015538443 0.6571789281083162 0.596083364682018
-0.13516809113133715 -0.5630156189129308 0.5552232245470734
0.13585878387059275 0.5658925612209474 0.5581403343082664
0.02241075493016678 0.093347512358177 0.65
-0.02241075493016648 -0.09334751235817706 0.644
0.015017708643862022 0.09481808069713325 0.651
-0.015017708643861677 -0.09481808069713331 0.645
-0.015017708643861677 -0.09481808069713331 0.645
0.015017708643862022 0.09481808069713325 0.65
-0.09042345105537448 -0.5709112010630343 0.5542508546266757
0.09104055794798695 0.5748074606409692 0.5581403343082664
-0.09969135325662934 -0.6294264326240692 0.5613341102386715
0.1055718244100547 0.6665542662759969 0.5951923581578296
-0.11921414775217563 -0.7526885059410183 0.574866909993623
0.1091344278600873 0.689047659204827 0.5254405222296211
0.09366453992236336 0.5913746308061684 0.3473810841048511
-0.1072753835150182 -0.6773101151553148 0.3991061863065887
-0.09629046449698696 -0.6079540660666352 0.23267152687797385
0.08579913459399462 0.5417144160006466 0.20664905347714785
0.08487517653932386 0.5358807744334728 0.0835360043314825
-0.091966436986906 -0.580653230825364 0.09073198972333305
-0.09273819832386711 -0.58552594013557 -0.045898571000790415
0.08918959808491426 0.5631209600018913 -0.04409401179904995
-0.09922743056036762 -0.6264973399978546 -0.1937536554730933
0.08780210975289533 0.5543607034440127 -0.17088639788934706
-0.07090900111909496 -0.447701813219795 -0.23146686416916631
0.06040315336355721 0.38137050104031195 -0.19541446320376568
0.0491256528329179 0.3101671649832387 -0.21142492757477824
-0.05526721388899442 -0.34894345540351973 -0.2404163056034268
0.021892759091335826 0.2781738792542692 -0.2233917230607726
-0.023669693130194902 -0.3007519669547024 -0.24385508700527087
0.021966445120343066 0.2791101490250309 -0.2242443632251267
-0.023669693130194902 -0.3007519669547024 -0.24385508700527087
0.024564088166106918 0.3121163333960076 -0.21071782079359175
-0.027568074562110016 -0.3502855995683207 -0.2390020920410537
0.0302189767729999 0.3839685057954531 -0.19489196463904973
-0.03548745750998811 -0.4509109006882366 -0.23094436560445036
-0.04868164025574906 -0.6185588879823891 -0.189427417551844
0.04349578662476958 0.5526663700153037 -0.1687232789287224
-0.04550627552214735 -0.5782120535652144 -0.04487860275632841
0.04365034260457073 0.5546301899378573 -0.04299558445886009
0.041488172749289766 0.5271572170822715 0.08134592182091929
-0.0451194377374347 -0.5732968134729669 0.08869834167781007
0.041796832689957035 0.5310791134822455 0.2005261185593064
-0.04720943184814165 -0.5998527065410104 0.2273139588248626
0.045119437737436416 0.5732968134729668 0.3332742380498318
-0.05232792318558306 -0.6648893054148816 0.3879382665130317
0.05256086027649697 0.6678490517826573 0.5041491551928202
-0.05979139077949149 -0.759721652704893 0.574866909993623
-0.049999809353958785 -0.6353078144211416 0.5613341102386715
0.05341514598350442 0.678703780879082 0.6005383973029598
-0.04542890047698391 -0.577228910399897 0.5552232245470734
0.04589320596273712 0.5831284709619843 0.5610574440694595
-0.007532073189872665 -0.09570406403838032 0.644
0.007532073189872951 0.09570406403838029 0.65
-1.6465195194651677e-16 0.096 0.651
4.939558558395502e-16 -0.096 0.644
-1.6465195194651677e-16 0.096 0.651
4.939558558395502e-16 -0.096 0.644
2.979242347927544e-15 -0.5790138167608784 0.5552232245470734
-1.0032305518496493e-15 0.5849316199351853 0.5610574440694595
3.268831121562478e-15 -0.6352952069707436 0.5595520971902949
-1.1625672562431166e-15 0.6778325751983303 0.5978653777303947
-1.1286209926826408e-15 0.6580402723238146 0.49502428360561984
3.921139221540147e-15 -0.7620708628467565 0.574866909993623
-9.694095479736873e-16 0.5652123494758409 0.3273963855269071
3.3502348311321995e-15 -0.6511159650937766 0.37853370247635215
-8.951323328173155e-16 0.5219051637989416 0.19631660080329044
3.0147673765194644e-15 -0.5859180830116102 0.22119102390702122
-8.850191990672311e-16 0.5160087208565375 0.0793122737753963
2.8778097435292266e-15 -0.559300455926866 0.08619539023716641
2.9031581625450968e-15 -0.5642269047112164 -0.04362325722468287
-9.305589701073757e-16 0.5425605956941584 -0.04189715711867023
3.1010897578164848e-15 -0.6026947817925753 -0.1838651116530949
-9.5420131108657e-16 0.5563452165697123 -0.16934131291747231
-6.622513021718122e-16 0.38612433230761306 -0.19541446320376568
2.3373365294228185e-15 -0.4542598375379448 -0.23198936273388227
1.798026455482766e-15 -0.3494452746854649 -0.2375878784786806
-0.010324453841598729 0.13118462430053568 -0.07673761479186844
-0.010324453841598729 0.13118462430053568 -0.07673761479186844
0.011104664812551311 -0.1410981446348636 -0.08867457709282575
-0.0302189767730013 0.383968505795453 -0.19489196463904973
0.03564081607870703 -0.4528595060603717 -0.23198936273388227
0.04635764153046915 -0.589029684372301 -0.1801569077205955
-0.043109471345342945 0.5477577689821707 -0.16717819395684766
-0.04210556916015095 0.5350019822820283 -0.04142640254430315
0.04341851498960368 -0.5516845407985416 -0.04276020717167655
-0.03994608306386833 0.5075631098177393 0.0782172325201147
0.04303222127390993 -0.5467762137586394 0.08447461112172389
-0.04017726277037902 0.5105005264995129 0.19248976647963956
0.04504208150929393 -0.5723139094005232 0.21659882271864014
-0.043418514989602155 0.5516845407985417 0.3203429624993974
0.049999809353964766 -0.6353078144211411 0.37030470894425754
0.05979139077949864 -0.7597216527048924 0.574866909993623
-0.050154942424466845 0.6372789669763145 0.4805765702592193
0.04992224700308932 -0.6343222913110989 0.5604431037144832
-0.05372586479034192 0.6826518376541075 0.6041024233997132
0.045583654273295894 -0.5791952438194677 0.5571679643878688
-0.046202815463130244 0.5870624326622169 0.56494692375105
-0.0075320731898733 0.09570406403838028 0.652
0.007532073189873565 -0.09570406403838025 0.644
-0.015017708643862348 0.0948180806971332 0.652
0.015017708643862733 -0.09481808069713313 0.644
-0.015017708643862348 0.0948180806971332 0.652
0.015017708643862733 -0.09481808069713313 0.644
0.09088627015989172 -0.5738333258851591 0.5571679643878688
-0.09196643698691011 0.5806532308253634 0.5639745538306523
0.09922743056037461 -0.6264973399978535 0.5586610906661065
-0.10665584350809167 0.6733984934981496 0.6014294038271482
-0.0996913532566338 0.6294264326240685 0.4790557583280192
0.11874859767135626 -0.7497491384130337 0.572585692096823
-0.08595315846448688 0.5426868844462512 0.31799182149022753
0.09845433940535872 -0.6216162345468902 0.3656024269259177
-0.0793386503495015 0.5009245238164325 0.19057634931781411
0.08857285703335098 -0.559227010253394 0.21353735525971942
-0.07903145966308502 0.49898499815477637 0.07759149465995378
0.08456726221743674 -0.533936679917242 0.08322313540140204
-0.08333597400752606 0.526162632116931 -0.041112566161391764
0.08533711560132506 -0.5387973428858444 -0.04213253440585377
0.09104055794799126 -0.5748074606409684 -0.177375754771221
-0.08672340726118363 0.5475500439530719 -0.1687232789287224
0.07121480361019346 -0.44963257416112723 -0.23251186129859822
-0.060403153363558525 0.3813705010403118 -0.19541446320376568
0.055116681851636276 -0.3479930335246174 -0.23970919882224023
0.034259250492058566 -0.14270004819803805 -0.09464305824330442
-0.03269902135710071 0.13620122614091207 -0.08696929676411758
0.034259250492058566 -0.14270004819803805 -0.09464305824330442
-0.03269902135710071 0.13620122614091207 -0.08696929676411758
0.08202540619742377 -0.3416604055756939 -0.2390020920410537
-0.034970863520142566 0.14566412978031193 -0.08131727983645318
0.10604485305917247 -0.4417086020666323 -0.23198936273388227
-0.08968678004532542 0.37357232430294063 -0.19436946607433378
0.13447749814250282 -0.5601390920952878 -0.1755216528049713
-0.12803706771820508 0.5333127687296862 -0.16686917696247272
0.12596903053212144 -0.5246987739139453 -0.041661779831486695
-0.12436132133331328 0.5180021831577859 -0.041112566161391764
-0.1177085601896175 0.49029143869548364 0.07743506019491356
0.1250502557309865 -0.5208718014460132 0.0824409630762009
-0.1177085601896175 0.49029143869548364 0.18942829902071884
0.131026084650273 -0.5457629202696163 0.21162393809789398
0.1455381603406142 -0.6062100658061277 0.3620757154121629
-0.1271178065808626 0.5294837705256606 0.3150528952287651
-0.1462301833728958 0.6090925491833973 0.47069129270641885
0.1755862993770715 -0.731369572426325 0.5672628503376227
0.1480759602795693 -0.6167807633083926 0.5586610906661065
-0.16008582847140393 0.6668054645266671 0.6049934299239016
0.1356285419681991 -0.5649335346778244 0.5571679643878688
-0.13793144560472864 0.5745258186656103 0.5668916635918454
0.02241075493016744 -0.09334751235817683 0.644
-0.022410754930167098 0.09334751235817691 0.652
0.029665631459995505 -0.09130142556433457 0.643
-0.029665631459995147 0.09130142556433468 0.652
0.029665631459995505 -0.09130142556433457 0.643
-0.029665631459995147 0.09130142556433468 0.653
0.17953461871420617 -0.5525507403697372 0.5571679643878688
-0.1822781212559281 0.5609943729766004 0.5659192936714477
0.1954006601218756 -0.6013813948102612 0.5568790776177297
-0.21129736080340233 0.6503064087932063 0.6032114168755249
0.23273411370668728 -0.7162819502941302 0.5680232563032228
-0.19570610068692876 0.6023214442089188 0.4760141344656191
-0.16948560974328555 0.5216230708950158 0.31740403623793506
0.19234688284760262 -0.5919828347670316 0.3614879301598704
0.1731377849081747 -0.5328633102748684 0.2112412546655289
-0.1564203001791643 0.4814121827414218 0.190193665885449
-0.15611690249888713 0.4804784206956156 0.07759149465995378
0.16492390715910116 -0.5075835939501752 0.08212809414612043
0.1664440231127568 -0.5122620297953384 -0.04158332073575884
-0.16492390715909916 0.5075835939501757 -0.04119102525711961
0.17740159403153935 -0.5459859654195052 -0.1749036188162214
-0.17009413723623631 0.5234959259419889 -0.16748721095122263
0.14037400966123023 -0.4320267785816394 -0.23198936273388227
-0.11901969158389043 0.366304945387413 -0.19489196463904973
0.10857891571219035 -0.3341715413717408 -0.2390020920410537
-0.04442220059408226 0.1367174754535027 -0.07566042558696078
-0.05360300809245688 0.12940910912080342 -0.08696929676411758
0.05501199126908678 -0.1328106954149775 -0.09123249758588804
-0.05332498302719311 0.12873789723756393 -0.08611665659976349
0.05501199126908678 -0.1328106954149775 -0.09123249758588804
0.1344630001054376 -0.3246223984919172 -0.2390020920410537
-0.1165376300451992 0.2813467269819365 -0.2043538597629128
0.17346369245970128 -0.41877839891551977 -0.23146686416916631
-0.1470221736624548 0.3549429256254687 -0.19436946607433378
0.22082425740942688 -0.5331169171387973 -0.17583066979934625
-0.20800560744781146 0.5021699585501576 -0.16532409199059797
0.2072523166867888 -0.5003513537784814 -0.041818698022942385
-0.2064991147371406 0.4985329634164397 -0.041661779831486695
0.2053694804715109 -0.4958057850518303 0.08259739754124112
-0.19558830054281215 0.4721919278119593 0.07853010145019516
0.21516612076479058 -0.5194569669135565 0.2120066215302591
-0.19558830054281215 0.4721919278119593 0.19210708304727445
-0.20988921662461418 0.506717393371005 0.31740403623793506
0.23933475886997366 -0.5778052208111757 0.3632512859167478
-0.24198214552275427 0.5841965775731698 0.47525372850001907
0.2897338194003207 -0.6994793162744002 0.5710648801656228
0.242738668245813 -0.5860229849914158 0.5586610906661065
-0.2628051828673919 0.6344678367403952 0.60588443644809
0.22233380483452073 -0.5367612870055043 0.5571679643878688
-0.2268641506640258 0.5476985093493411 0.5688364034326407
-0.0367376095070488 0.08869243512108345 0.653
0.036737609507049115 -0.08869243512108332 0.644
0.043583087974997006 -0.08553662632208306 0.644
-0.04358308797499667 0.08553662632208323 0.654
0.043583087974997006 -0.08553662632208306 0.643
-0.04358308797499667 0.08553662632208323 0.653
0.26376222911453834 -0.5176625218156418 0.5571679643878688
-0.2686887456789101 0.5273313549804278 0.5678640335122431
0.2866230108681458 -0.5625293322493314 0.5559880710935413
-0.3108757751900757 0.6101280622950969 0.6041024233997132
0.34507220304058867 -0.6772423308452556 0.573346098062423
-0.29290656435178825 0.574861500328237 0.48513900605281945
-0.2548116470028055 0.5000960153327735 0.3250452445177372
0.2870717305292609 -0.5634099941702627 0.3673657826827952
0.2574958715137695 -0.5053641025571209 0.21392003869208454
-0.23649375672300044 0.46414513143093755 0.19593391737092536
0.24587054172507025 -0.4825481081838582 0.08337956986644228
-0.2351552467686903 0.46151815773288524 0.07962514270547677
0.24810487354174734 -0.486933231280053 -0.04221099350158162
-0.24989280127729524 0.49044223703692796 -0.04252482988449301
0.2642099897151516 -0.5185413014743566 -0.177375754771221
-0.24810487354174549 0.486933231280054 -0.16625114297372282
0.2062296506554593 -0.4047484789230556 -0.23198936273388227
-0.17485707985190876 0.34317634187930735 -0.19489196463904973
-0.14343297994520393 0.2815030732763653 -0.21283914113715136
0.15951807538955023 -0.31307185057748926 -0.2390020920410537
0.15713313656427874 -0.2564179740062536 -0.24300244684091676
-0.07242968506422265 0.11819450377025795 -0.08526401643540939
0.15713313656427874 -0.2564179740062536 -0.24300244684091676
-0.07242968506422265 0.11819450377025795 -0.08526401643540939
0.18308710562117825 -0.2987710021994429 -0.23829498525986714
-0.16358461299206917 0.26694582669941663 -0.21071782079359175
-0.200231512479617 0.3267481314562104 -0.19384696750961783
0.23683944136378135 -0.38648684196812183 -0.23146686416916631
0.30923440920702283 -0.5046246923827484 -0.18046592471497047
-0.28348713252162916 0.46260895548472064 -0.165015074996223
0.2896603111698673 -0.4726826674767922 -0.042838666267404395
-0.2948077478857342 0.4810825207659715 -0.04362325722468287
0.28760211959312393 -0.4693240040798493 0.08478748005180434
-0.27834612274820336 0.45421959001241025 0.08197165968108021
0.3015034041003752 -0.4920088386562643 0.21774687301573542
-0.2778321940948737 0.4533809346724104 0.20014343512694133
-0.29841255741209805 0.4869650352733462 0.3309230970406619
0.3360734163629702 -0.5484219714910423 0.3738314204580124
0.3961076747487312 -0.6463889773233709 0.571825286131223
-0.3402071572251395 0.5551676234911301 0.48970144184641967
0.329874990509904 -0.5383070598051736 0.5559880710935413
-0.35985701768448647 0.5872332814335606 0.6076664494964668
0.3040798001037037 -0.4962131348210078 0.5581403343082664
-0.3097499998232732 0.5054660597997478 0.5688364034326407
-0.0501598622127313 0.08185345577799272 0.654
0.05015986221273155 -0.08185345577799258 0.643
0.05642738422007789 -0.07766563145999461 0.643
-0.05642738422007763 0.0776656314599948 0.654
0.05642738422007789 -0.07766563145999461 0.644
-0.05642738422007763 0.0776656314599948 0.654
0.3409154463296373 -0.46922985673746753 0.556195594467471
-0.34845355392065946 0.47960517174032025 0.5688364034326407
0.3705122416129399 -0.5099663506692912 0.555097064569353
-0.4036574297475938 0.5555867883684479 0.60588443644809
0.4438525974456538 -0.6109106904783599 0.5695440682344228
-0.3972563054001767 0.5467763965459752 0.5087115909864204
-0.3467135899969761 0.4772103168534904 0.34209101683421883
0.38911250517564566 -0.5355674171529978 0.38499934025156934
-0.324117068052103 0.4461088725830371 0.2077971037742431
0.3484535539206611 -0.4796051717403191 0.2238698079335768
0.33222348343548136 -0.4572663961565452 0.08713399702740779
-0.32238078712921725 0.44371908691191814 0.08447461112172389
0.33396135251242826 -0.45965836773420077 -0.043937093607594256
-0.34323437841662924 0.4724215929368071 -0.0451924391392398
0.3571568152820716 -0.4915841833272997 -0.18541019662496966
-0.3206448017112805 0.4413297079684685 -0.16594212597934788
-0.22581971972157183 0.31081417951063744 -0.19436946607433378
0.2675817716780647 -0.3682947127853291 -0.23251186129859822
-0.18570386462386337 0.2555994418299105 -0.21283914113715136
0.20652937064067958 -0.28426329179611776 -0.2390020920410537
0.19531117549604976 -0.22868000508647726 -0.24300244684091676
-0.08771396389173518 0.10269985656464853 -0.08100081561363892
0.19531117549604976 -0.22868000508647726 -0.24300244684091676
-0.08725836646733036 0.10216642051796215 -0.08014817544928482
-0.20456685718435547 0.2395170159753071 -0.2121320343559648
0.22694655164268157 -0.2657202715215677 -0.2375878784786806
-0.2482523128856833 0.2906661128286351 -0.19332446894490188
0.29565297650336597 -0.3461651592588429 -0.23251186129859822
0.40745606610328483 -0.47706975820694775 -0.19159053651246866
-0.34853039614100734 0.40807666309872775 -0.16316097302997332
0.3818047576515118 -0.4470359348359707 -0.04550627552215118
-0.39719044813041154 0.4650502638575349 -0.04738929381961951
0.3792420723607848 -0.44403541587524004 0.09010625186317214
-0.3721971976437513 0.43578692736948693 0.08838547274772962
-0.3709167184293895 0.4342876788369353 0.21545077242154487
0.3978318582666821 -0.46580125863728467 0.23152347658087857
-0.3984732944418465 0.46655228390466763 0.35619786288923816
0.4447178202763191 -0.5206976669130365 0.3985184010542962
0.49041584836144975 -0.5742031832687098 0.5695440682344228
-0.4517923053195065 0.5289808246563252 0.5239197102984211
0.409381574749398 -0.4793242391697953 0.555097064569353
-0.4479332220365216 0.5244624186688502 0.6085574560206551
0.376679868031509 -0.44103546004801586 0.556195594467471
-0.38564966641580023 0.4515377445943828 0.5698087733530385
0.06234701263969804 -0.07299897269760262 0.643
-0.06234701263969782 0.0729989726976028 0.654
-0.06788225099390874 0.06788225099390839 0.655
0.06788225099390897 -0.06788225099390816 0.642
-0.06788225099390874 0.06788225099390839 0.654
0.06788225099390897 -0.06788225099390816 0.643
0.40942459623232463 -0.4094245962323197 0.5552232245470734
-0.4191902909180995 0.41919029091809734 0.5688364034326407
0.4436304768610948 -0.4436304768610895 0.5524240449967879
-0.48630083281853553 0.48630083281853304 0.6067754429722784
0.5325528142823052 -0.5325528142822987 0.5680232563032228
-0.5171271603774079 0.5171271603774052 0.5512943250600221
0.5080157477874117 -0.5080157477874055 0.4185030996322402
-0.45271679889308397 0.45271679889308164 0.37206806470113496
0.4527167988930856 -0.4527167988930801 0.24223861268710106
-0.42337749113527623 0.423377491135274 0.22616590852776733
-0.4240754649823553 0.42407546498235316 0.09260920330381579
0.41360911498660435 -0.41360911498659936 -0.04527089823496765
0.4184925327888206 -0.41849253278881554 -0.18046592471497047
-0.3794733192202065 0.37947331922020455 -0.16316097302997332
-0.2702924342263401 0.2702924342263387 -0.19332446894490188
0.32328393093378655 -0.3232839309337826 -0.23355685842803012
-0.22340210383969136 0.22340210383969022 -0.21283914113715136
0.2484552273549517 -0.2484552273549487 -0.2390020920410537
0.22868000508647948 -0.1953111754960472 -0.24300244684091676
0.22868000508647948 -0.1953111754960472 -0.24300244684091676
-0.23951701597530828 0.2045668571843541 -0.2121320343559648
0.26572027152157024 -0.22694655164267863 -0.2375878784786806
0.3476519193496827 -0.2969227895808635 -0.23355685842803012
0.4118179274683341 -0.351725737778295 -0.16470605800184807
-0.4080766630987297 0.34853039614100506 -0.16316097302997332
0.40433653236988326 -0.3453360227243872 -0.04103410706566392
-0.42604454418841653 0.3638764163384107 -0.04330942084177148
-0.4170575440125403 0.3562007930679381 0.08447461112172389
0.41930373574084767 -0.3581192220389314 0.08494391451684456
-0.42754294538800447 0.36515617186205407 0.2120066215302591
0.4440354158752443 -0.37924207236077984 0.22042565704229103
0.49962549049728894 -0.4267204813989405 0.382060413990107
-0.4695566869246369 0.4010392970325458 0.35854900389840805
0.5704322080976522 -0.4871951313024761 0.5657420384064227
-0.552337454237294 0.4717407515221312 0.5474922952320219
0.47706975820695235 -0.40745606610327956 0.5524240449967879
-0.5252154334678656 0.4485763574322236 0.6094484625448434
0.44103546004802013 -0.3766798680315041 0.556195594467471
-0.45228816434561947 0.38629058543131733 0.5707811432734361
0.07299897269760332 -0.062347012639697226 0.643
-0.07299897269760316 0.062347012639697406 0.654
0.07766563145999529 -0.056427384220076954 0.642
-0.07766563145999512 0.05642738422007719 0.657
0.07766563145999529 -0.056427384220076954 0.642
-0.07766563145999512 0.05642738422007719 0.657
0.4684320177374544 -0.3403357823656179 0.5552232245470734
-0.47800856572935385 0.34729355175321924 0.5668916635918454
0.5067682711071516 -0.3681887008030914 0.5515330384725995
-0.5547857265304248 0.40307542425470305 0.6049934299239016
-0.541971951220985 0.39376567154809006 0.5041491551928202
0.592459003622755 -0.43044666223160827 0.5520547310256221
-0.462050705177578 0.33569948740637506 0.3309230970406619
0.48918776485534887 -0.3554157153472927 0.3509077956186059
-0.4190497181360565 0.30445744157450244 0.19478586707383008
0.4341640786499893 -0.31543866727147757 0.20205685228876677
0.4095136623995125 -0.297529091532472 0.07774792912499401
-0.4087193569604381 0.2969519948507603 0.07759149465995378
0.3960185703500217 -0.28772433323917 -0.0376603659493665
-0.4182547442985779 0.30387985927292266 -0.03985722062974621
0.4047487039145826 -0.29406714654899047 -0.15172734423810016
-0.4405333398484763 0.32006620640415473 -0.1656331089849729
0.37066753800352636 -0.2693057301106019 -0.23407935699274607
-0.25559944182991157 0.18570386462386196 -0.21283914113715136
0.28426329179612025 -0.20652937064067617 -0.2390020920410537
0.2564179740062555 -0.1571331365642757 -0.24300244684091676
0.25561008801746615 -0.15663806339361838 -0.2421498066765627
-0.2685694709215471 0.16457958345104748 -0.2121320343559648
0.2995911105972988 -0.1835896686937396 -0.2390020920410537
0.39148813212126526 -0.2399042359113377 -0.23460185555746202
-0.32592274840822666 0.19972571709729273 -0.19332446894490188
0.39649234523139404 -0.24297082164924474 -0.140602732440602
-0.44499730463877984 0.27269469900278787 -0.15852571811434907
0.3864868419681247 -0.23683944136377671 -0.034757379407436166
-0.41068588722987315 0.2516686353724118 -0.03703269318354373
-0.39983005697497803 0.2450161740362988 0.0718034194534653
0.3973266571723099 -0.24348208866419255 0.07133411605834461
0.4223900546426753 -0.2588409583874966 0.18598414812943304
-0.40901496173004903 0.2506446909091965 0.17986121321159163
0.4752021501727462 -0.29120425215164497 0.3226941035085673
-0.44667359824542036 0.2737219330460911 0.3027094049306232
0.5762592378867069 -0.35313211514988535 0.5087115909864204
-0.5223010861144984 0.320066517217305 0.46004560918801846
0.5340938261749094 -0.32729311762065155 0.5515330384725995
-0.5872332814335626 0.35985701768448325 0.6076664494964668
0.4928496169274063 -0.3020186336875738 0.5542508546266757
-0.506307464933198 0.3102656135521926 0.5698087733530385
-0.08185345577799301 0.05015986221273085 0.657
0.08185345577799318 -0.05015986221273056 0.642
0.08553662632208361 -0.0435830879749959 0.642
-0.08553662632208345 0.043583087974996236 0.657
0.08553662632208361 -0.0435830879749959 0.642
-0.08553662632208345 0.043583087974996236 0.657
0.5141478240509215 -0.26197140115612383 0.553278484706278
-0.5273313549804292 0.2686887456789073 0.5678640335122431
0.5554852246365444 -0.28303385877044424 0.5488600189000344
-0.609245868177654 0.31042627483584034 0.6032114168755249
-0.5132692559080156 0.26152374832820074 0.43191058846081737
0.5651714152952269 -0.28796921941969805 0.47677454043121914
0.4658967382370222 -0.23738624496820293 0.30212161967833073
-0.44052231206581677 0.22445732906765864 0.28507584736184904
0.41433336260852754 -0.21111339282364455 0.1741209617261153
-0.4012656562234994 0.20445506385395396 0.16838071024063897
-0.3934346229910571 0.20046495312618798 0.06742325443233887
0.38908735865494165 -0.1982499113112558 0.06664108210713772
-0.40387764041988883 0.20578593627569158 -0.034757379407436166
0.3786641453762491 -0.19293901888025378 -0.032482065631328605
0.38821819900698723 -0.19780705235094942 -0.1313322226093535
-0.4387743512371635 0.22356669854074043 -0.1492552082831006
0.4108467700899395 -0.20933688520340707 -0.23564685268689392
-0.34145085941897735 0.17397790262571214 -0.19384696750961783
0.31392905079319444 -0.15995484071475904 -0.23970919882224023
-0.2806543261660601 0.14300052169231675 -0.2121320343559648
-0.25952958436081347 0.10750067367930033 -0.2250970033894808
0.2769666953252667 -0.1147233615293803 -0.2421498066765627
-0.2586615211461766 0.10714111012280053 -0.2242443632251267
0.2769666953252667 -0.1147233615293803 -0.2421498066765627
-0.29012906562448565 0.12017539382029464 -0.21142492757477824
0.3246223984919188 -0.1344630001054337 -0.2390020920410537
0.415167449393898 -0.17196798819479503 -0.2293768699103025
-0.3531540842464194 0.14628121130231628 -0.19332446894490188
0.3800459058359032 -0.15742016852159646 -0.12360679774997979
-0.4323321887994411 0.17907785605117246 -0.14152978342372685
-0.39713604073875464 0.16449913418114476 -0.032874361109967845
0.3701714476640157 -0.15333003402571488 -0.030520588238132435
-0.3854382891456697 0.15965376682201754 0.06351239280633314
0.3800459058359032 -0.15742016852159646 0.06257378601609176
-0.39353472622201285 0.1630074208659392 0.15881362443151176
0.40434376983105536 -0.16748467332508518 0.1634058256198928
-0.42781209166871753 0.17720557051638308 0.26626671928848994
0.45405647882603817 -0.18807635161311365 0.28331249160497163
-0.4958057850518321 0.20536948047150666 0.4014943498368161
0.5522574429677048 -0.22875252279870528 0.44863951970401794
0.5768923077657321 -0.23895661790527548 0.5497510254242228
-0.6344678367403965 0.2628051828673887 0.60588443644809
0.5331169171387999 -0.22082425740942047 0.553278484706278
-0.5476985093493422 0.22686415066402302 0.5688364034326407
0.08869243512108377 -0.03673760950704805 0.641
-0.08869243512108364 0.03673760950704835 0.657
0.09130142556433495 -0.02966563145999433 0.642
-0.09130142556433483 0.02966563145999468 0.657
0.09130142556433495 -0.02966563145999433 0.641
-0.09130142556433483 0.02966563145999468 0.657
0.5487991671531535 -0.17831565868427043 0.553278484706278
-0.5619327708103823 0.1825830251950229 0.5668916635918454
0.5910431758473912 -0.1920415691568621 0.5470780058516577
-0.6324204039136925 0.20548584553112678 0.5862822929159459
-0.4870161605891387 0.15824114295913766 0.3824842006968153
0.5403608192939907 -0.17557387326116375 0.42582734073601713
0.4450497395956028 -0.14460542619793396 0.2692056455499523
-0.41995041761632096 0.13645016212477576 0.25333544373805555
0.3949255742377685 -0.12831909761593885 0.1546041066754958
-0.3856789226539023 0.12531467839213922 0.1507772723518449
-0.37736815221437714 0.12261434538546732 0.06022726904048832
0.3709120413551107 -0.12051662780622696 0.059132227785206715
-0.38937605768532385 0.12651595038348074 -0.031226720099683056
0.36170168514011203 -0.1175240016626528 -0.02887294722784765
0.3718339082904977 -0.12081616053084006 -0.11711744086810584
-0.42366445530676733 0.13765692612295316 -0.134422392553103
0.4051110048347158 -0.13162854463150025 -0.2168369043571197
-0.36446317286038804 0.11842126341387729 -0.19384696750961783
-0.29956921580321394 0.09733593859950924 -0.2121320343559648
0.33600168539004716 -0.10917356555067613 -0.2404163056034268
-0.2731511548911635 0.0655777903075701 -0.2250970033894808
0.2924247946516512 -0.07020498182422419 -0.24300244684091676
-0.2731511548911635 0.0655777903075701 -0.2250970033894808
0.2924247946516512 -0.07020498182422419 -0.24300244684091676
-0.3062826336114027 0.07353195460521426 -0.2121320343559648
0.34259588212146697 -0.08224999424567718 -0.23970919882224023
0.39715687290900903 -0.09534892920813154 -0.20743193019223258
-0.3707484696306465 0.08900883251977634 -0.19280197038018593
-0.41892783805432937 0.10057567550419767 -0.1297871376374788
0.36416519265483166 -0.0874283275527409 -0.1118641519637317
-0.3839383883864624 0.09217545184704011 -0.030049833663765353
0.35477513194977206 -0.08517397343098329 -0.0276176016962021
-0.37168959447925637 0.08923477660557005 0.057880752064884876
0.3632253965278812 -0.08720270246479435 0.05647284187952281
-0.380166795149091 0.09126997242285706 0.14503702086636858
0.38582506280355977 -0.09262840229988385 0.1473331214605591
0.4341084497847474 -0.10422021793051207 0.2562743699995179
-0.40850763670932455 0.098074006495924 0.24040416818762117
-0.4721674545918135 0.1133573765764179 0.36195323962561454
0.5275696032460456 -0.12665825567569622 0.4060567856304163
0.6167807633083944 -0.1480759602795619 0.5586610906661065
-0.610053450127499 0.1464608752791512 0.5524240449967879
0.5610978878077658 -0.13470768462735877 0.553278484706278
-0.574525818665611 0.13793144560472556 0.5668916635918454
0.0933475123581771 -0.02241075493016632 0.648
-0.09334751235817704 0.022410754930166598 0.656
0.09481808069713332 -0.015017708643861514 0.642
-0.09481808069713327 0.015017708643861838 0.657
0.09481808069713332 -0.015017708643861514 0.642
-0.09481808069713327 0.015017708643861838 0.656
0.5689633531113342 -0.09011494224770618 0.5523061147858803
-0.6040519724754276 0.09567243358745069 0.5873114319201966
0.6245447896396111 -0.09891817696467067 0.5568790776177297
-0.5962497079020149 0.09443667627972678 0.531039888416267
0.514508841645046 -0.08149019492597247 0.3893278543872156
-0.46315843658717687 0.07335708976044561 0.349026338210414
-0.4014937918630423 0.06359036951800241 0.23217517465552656
0.4236020158163387 -0.0670919681954132 0.24569423545825342
-0.3708569150965589 0.05873796493805125 0.13891408594852714
0.37563334151598654 -0.0594944765632423 0.14082750311035258
-0.36227029636047997 0.057377978135257246 0.05537780062424121
0.35465026347020195 -0.05617108349067478 0.05412632490391937
-0.37467772016591433 0.05934312101055025 -0.0287944881321198
0.34514302348289927 -0.05466528460625486 -0.02636225616455655
-0.4082153072298603 0.06465495296750863 -0.12422483173872968
0.3556020956945838 -0.05632183890481635 -0.10722889704810747
0.38711335407551944 -0.061312731927402477 -0.1985494545920614
-0.3785011934020536 0.05994869967915201 -0.19384696750961783
-0.3101671649832388 0.0491256528329173 -0.21142492757477824
0.34989408370640784 -0.055417778620703406 -0.24112341238461335
-0.27911014902503095 0.021966445120342584 -0.2242443632251267
0.29980703895319494 -0.023595325683649374 -0.24300244684091676
-0.27911014902503095 0.021966445120342584 -0.2242443632251267
0.29980703895319494 -0.023595325683649374 -0.24300244684091676
0.35220399480962944 -0.02771905554196462 -0.2404163056034268
0.3781787214091663 -0.029763310859650817 -0.19175697325075403
-0.3810728733289732 0.02999108555555049 -0.19332446894490188
-0.40137159649472604 0.03158862971505559 -0.12082564480060524
0.34645136474717214 -0.027266313737318654 -0.10321167612123312
-0.36854268888924846 0.029004938653316922 -0.028009897174841338
0.3368813641248505 -0.026513138354029343 -0.02542074701582239
-0.3550831461289048 0.027945649664998986 0.05365702150879869
0.34549334881237537 -0.02719091624808497 0.05209267685839639
