-0.9514376773272097 0.2562722731928913 -0.1560636669912398
3.228613225800627 -0.8696355739883047 -0.5295872039988332
-0.9461667622982518 0.2548525381871553 -0.12378869779429728
3.742969657886577 -1.008178849310706 -0.48969944654142433
-0.8954469752070742 0.24119102840731357 0.1468795506812437
5.082128959984962 -1.368884975097363 0.8336181134277726
-0.8852951889915465 0.23845661774393723 0.22011558282535165
5.04649113280618 -1.359285831401038 1.2547355398891784
-0.8837048709425124 0.2343101008740301 0.23473703947370467
5.043349620100933 -1.3372199215881773 1.3396564823623553
-0.8924299140678672 0.23662350414027183 0.17612258732257535
5.084327452078196 -1.348084996863762 1.0034008178563931
-0.9445439581779556 0.25044129256025077 -0.10399937523981179
4.137912724526597 -1.0971476787919845 -0.4556064695790001
-0.8283098972859146 0.2092101089770645 0.5563945042503581
3.137812103657288 -0.7925318945320862 2.1077394047394016
-0.8579217941781088 0.2131088811621187 0.36616225890176773
5.093591816400343 -1.2652547824938811 2.1739523323375396
-0.9390972700232805 0.22545730724271043 -0.07600868401497514
3.3582263559444843 -0.8062388162452692 -0.27180822912350466
-0.9120924032232706 0.21897401233224031 0.07382296326698405
5.412806292730625 -1.299499817899775 0.43810188387430027
-0.8024326026563483 0.19264702349116097 0.7048163182944578
2.3516110480115886 -0.5645718622456973 2.0655365141362823
-0.7991101850165294 0.1918493815870474 0.7419176012115597
2.1959636380118677 -0.5272042251989314 2.0387977843479415
-0.7766095805250831 0.18644746438218857 0.8846891558406867
1.7799342132242586 -0.4273243971551106 2.0276449531882457
-0.8884269131906429 0.20960595378686914 0.19277698009783956
5.372559650395979 -1.267544322530476 1.165774932548215
-0.9067745628702845 0.21393470222272767 0.0991556116227305
5.409907155931005 -1.2763556939590108 0.5915722328718002
-0.9066440896999343 0.2101488162085908 0.09905033901156356
5.413909106662738 -1.2548767512537489 0.5914664182835117
-0.8873470227775888 0.2056759962607202 0.19236591623754312
5.373683800448953 -1.245553025903868 1.16494852781323
-0.8501488183762939 0.1970539154366953 0.38991504334208416
4.774346440458031 -1.106634085006832 2.1897219157662087
-0.8347314521420884 0.19348036182290085 0.49321471226397917
3.6474141222598 -0.8454251990646786 2.155134207775988
-0.9330531909975872 0.21241266220176425 -0.06020468175797827
3.38972117980997 -0.7716813005647714 -0.21871966876887883
-0.8605548519967376 0.1959081742036987 0.33746308536645364
5.312193928915722 -1.2093386159117006 2.083155244732311
-0.8399158056761216 0.19120962666475252 0.4389080974944044
4.177918245525178 -0.9511169840644231 2.1832213850940585
-0.8847579881416331 0.18685098103132053 0.21709678327235366
5.358028131111402 -1.1315555509076607 1.314721864665275
-0.89485144479448 0.18898260606648173 0.14485670972914186
5.383496786070584 -1.136934245678947 0.8714693771843866
-0.9486933088639623 0.2003534049253526 -0.15357251984506926
3.2744196911162144 -0.691520777199679 -0.530056318829943
-0.9129521879797562 0.1778733653180482 0.05851810295462635
5.418042825380152 -1.0556144379480101 0.3472838907038147
-0.9036697119983467 0.17606483113297666 0.116306607099262
5.39860542746999 -1.0518273881716607 0.6948262977058192
-0.9123693388374605 0.17033327551906127 0.05839319138600546
5.412433425083479 -1.0104652519318595 0.34640495619638184
-0.9021145928338107 0.16841878277794903 0.11593263131613205
5.394998458650334 -1.007210259885649 0.6933225249056936
-0.8912578877898416 0.1663919082954726 0.1729540699323988
5.370521753255105 -1.002640622101463 1.042182748238381
-0.8816647224937172 0.16460092826367237 0.2302842841463869
5.3498600468004724 -0.9987832191962808 1.3973437518019565
-0.9233191780656598 0.16488388464660378 -1.608659695337756e-15
4.29314013227521 -0.7666575537017799 -7.479755279963447e-15
-0.9222538559195349 0.15350513099421087 -1.603541431365151e-15
5.145100116156475 -0.8563794688843426 -8.945889628786095e-15
-0.9449196443917891 0.14966056902865008 -0.12467790389846813
3.757200355243021 -0.5950820754522884 -0.49574571509707305
-0.9391957054253555 0.1487539861589997 -0.07483768109967776
3.3865242644728957 -0.5363727502739777 -0.2698475104570054
-0.9295913370369886 0.14723280364713756 -0.03697901615764741
3.511777176967754 -0.5562108627184931 -0.13969801545599028
-0.9261213443163988 0.14668321079215677 -0.022097313712082234
4.033713495520314 -0.6388774544174856 -0.0962446585236248
-0.9253317657027623 0.1465581538253437 -0.011037704866285886
4.059237164623819 -0.6429200064634727 -0.04842010559461233
-0.9107905648647154 0.14425505386896306 0.07257428185435313
5.341543479101879 -0.84601737440669 0.42562878552348926
-0.8965375373497582 0.14199759608307636 0.14376761397984766
5.30087235642393 -0.8395757014039729 0.8500411181305528
-0.881677669691325 0.13964402426069877 0.2143105999617206
5.283956212360035 -0.8368964473939636 1.284378480900843
-0.8457456749335739 0.13395295538124835 0.3947541755013904
4.73943478246397 -0.7506527254751632 2.2121445315592294
-0.8365551209160736 0.13249731462691416 0.47433320702408116
3.771943419892152 -0.5974171474954094 2.1387210171059596
-0.759274749954354 0.12025730632406992 0.9751410330600553
1.5621909754183212 -0.24742674332166129 2.006331070140417
-0.7778495590719431 0.1138226248184115 1.08201962714686
1.4335477597773223 -0.20977085725301797 1.9941218638500384
-0.8504922422274395 0.12104297079081419 0.3838274939775377
4.8249146085107775 -0.6866870372580642 2.177485920377222
-0.8329426750606116 0.11854529751351024 0.48427834196906433
3.705043667001804 -0.5273058002140475 2.1541367223717396
-0.8903650091971583 0.12315240325039625 0.17146322046140391
5.312557294559626 -0.7348157120643873 1.0230727546585436
-0.8798516766319912 0.12169823315364184 0.22805825390710086
5.29216163528729 -0.7319946505566702 1.371732502184656
-0.8392381045203596 0.1093703836871829 0.4312290842385199
4.240934281307343 -0.5526829716624794 2.1791362863452344
-0.7766347080636794 0.10121184387147573 1.077985015151407
1.436083429780845 -0.18715188797546073 1.993313460932852
-0.8270259969347518 0.09788497724290693 0.5103396238038305
3.4141366353777194 -0.40408969983621684 2.1067889190561977
-0.7940924977279633 0.09398704074232059 0.7218923335405811
2.234604130426392 -0.2644828279454231 2.0314303369801534
-0.7712542930094455 0.0912839610840915 0.8602761498282387
1.8111726662118988 -0.21436641154233016 2.020226872103563
-0.8602399121573031 0.09839219962063356 0.33106837448691595
5.2625045129195565 -0.601912777147412 2.025305720183498
-0.9655798535464313 0.10276461236826749 -0.23312438926472653
2.424851996376562 -0.25807184619978946 -0.5854431807337369
-0.897731773574046 0.09554368536499078 0.14298974404646528
5.287709424517265 -0.562759679927815 0.8422206269849072
-0.8818854226317897 0.09385719190093242 0.21291765750641986
5.292708631769106 -0.5632917349344486 1.2778430109177583
-0.8534399191270623 0.0908297973974669 0.35550281622671953
5.14358964113402 -0.5474213175753062 2.142576837521335
-0.8389375424861178 0.08928634026292591 0.4298741086060037
4.254549858296336 -0.45280270231762215 2.1800440858029666
-0.8198309579494221 0.0677625237440207 0.5357522195601003
3.2195090204761323 -0.2661061458203132 2.1039204324853804
-0.9208603618096443 0.07611303467745255 -1.584775965582625e-15
1.5407295418978542 -0.12734786501244227 -2.651554186418098e-15
-0.91537630330746 0.07204167745710356 0.05776867708659999
5.377558912874187 -0.4232230649931034 0.3393735048957814
-0.9104052007322275 0.07165044319963253 0.07187200059138978
5.370587594695572 -0.422674410353629 0.423981403524079
-0.90306856232685 0.07107303723477428 0.11443686082351716
5.354603885122465 -0.42141646512883657 0.678535479064816
-0.8931493379629346 0.07029237734695784 0.17090418889917364
5.333874044072526 -0.41978499125600344 1.0206371750458605
-0.8816490690597774 0.06938728655533732 0.22706898399058234
5.311594317103283 -0.4180315387159376 1.3680027204486478
-0.8401909937794114 0.06612446526910915 0.42942245989798866
4.261835670259398 -0.3354137414554289 2.1782284870388366
-0.8217727999335199 0.06467492197681085 0.5051401981200038
3.439265749927107 -0.27067608474269245 2.114101832582032
-0.7797716344095601 0.06136935856145206 0.7821828430744302
2.017931221045176 -0.15881463135092871 2.024171064905333
-0.9253971212299446 0.06917490888560239 -1.5915994952821349e-15
4.205359848823908 -0.31435734745630667 -7.23283924200228e-15
-0.9066523494974795 0.06419442929129635 0.0967346494213167
5.360087183526647 -0.37951452713797323 0.5718908188497276
-0.8901544953884849 0.063026318570969 0.18846128914730112
5.324771308827029 -0.37701402909975457 1.1273472981093537
-0.8494129556686688 0.050092503259418546 0.3801754487857172
3.28230988165936 -0.1935679428341212 1.4690777012358078
-0.9423832037818354 0.05557524569412936 0.5433841084315226
3.7315633666221504 -0.22006180722554317 2.1516430098611146
-0.9342967470533738 0.051417461115278555 -0.047810387343580334
3.425682300624719 -0.18852670422023127 -0.17530104672360453
-0.8408057884222899 0.042961204137579395 0.42897081613394256
2.905712375733784 -0.1484681769058942 1.482465780365189
-0.8580593095638174 0.043842777568756736 0.35588345300943924
3.3182022816721144 -0.16954446265192655 1.3762373680038067
-0.8847447463518306 0.04520627733664191 0.21268551030147279
5.3224615245431774 -0.27195264259461926 1.2794768774555243
-0.8986827461889403 0.04591844329044107 0.14252304469133126
5.34910754547346 -0.27331412839836006 0.848320608129233
-0.9452749284301248 0.0482990837189933 -0.10073484101008993
1.6433502974739393 -0.08396743763122828 -0.17512643778127904
-0.620918240684482 0.031725989114379315 -0.6217282364506233
0.6497064443394667 -0.033196930336483174 -0.6505539946845321
-0.8482803888438789 0.036665890949887855 0.37936393389953244
2.901992061177858 -0.1254350870914229 1.2978151315911899
-0.9422773842254328 0.04072879706867056 0.5428871855796698
3.7371565625218857 -0.16153405971205562 2.153139237195903
-0.17774439138772288 0.006983596157636176 -0.2448329240827611
0.5018226017034809 -0.019716663719793612 -0.6912324714532081
-0.9830753348114638 0.03862513510133992 -0.3196669908259698
1.880053645870075 -0.07386750892638219 -0.611337778789801
-0.9412504029578274 0.03698182905322218 -0.07413516879056814
3.398213074657671 -0.13351615533813935 -0.2676515187503718
-0.8185918937069082 0.032162563099352726 0.5020207974698041
3.444685665519539 -0.1353420684060255 2.1125347784791138
-0.9542791952968233 0.033741060799287056 -0.15123742341030028
3.343567245345414 -0.11822064891250487 -0.5298999471824691
-0.8075994163601768 0.022205641893560585 0.5869770797593347
2.8727832473043104 -0.07898965097691626 2.087988038530451
-0.8433567035417612 0.023188819318103626 0.4298741086060037
2.8647800395310394 -0.07876959588250577 1.4602300078648711
-0.9268056729545988 0.018200125801028935 -1.589893583027713e-15
5.275856149095859 -0.10360450785281682 -9.050494705847263e-15
-0.8947618010041479 0.017570864977893213 0.17071784958738828
5.273726483058173 -0.1035626865833413 1.0062110871176737
-0.8842048312164333 0.017363552718353905 0.22706898399058234
5.259214499472336 -0.10327770782825596 1.3505971137262518
-0.9652685589442537 0.015163650248357979 -0.20387906421413063
2.714446134160866 -0.042641927383849365 -0.5733313621005893
-0.927914589865382 0.010932241991461826 -1.5915994952821349e-15
1.7714800063599818 -0.020870722719608326 -3.0385196168043647e-15
-0.9558509527456936 0.0037536372091250443 -0.15139308551863379
5.2601878989592175 -0.02065681575959708 1.3505971137262518
-0.8949274076129041 0.003514389777017196 0.17071784958738828
5.283541675083138 -0.020748526295408576 1.007897249880287
-0.8853316969557486 0.003476707315680277 0.22731629697779152
3.350567219972863 -0.013157714340740399 -0.5306818057901109
-0.9414015757322687 0.007393902717648651 0.5418933505879209
1.2629624078260504 -0.009919487517582263 -0.0645334036419368
-0.9279503657735203 0.007288254989374679 -1.5915994952821349e-15
1.771548306079232 -0.013913993955841697 -3.0385196168043647e-15
-0.9336948567566911 0.007333373043759639 -0.047708868210255426
3.73359911902072 -0.029324221867008334 2.149149298783033
-0.941911264473538 0.01109714405848753 -0.07413516879056814
3.4505135779577585 -0.040652286149012236 2.1146241840951334
-0.857281297495232 0.010100074620372016 0.3551221838431873
2.891978609108159 -0.03407189663165167 1.1979798956246148
-0.8183183252826549 0.009641031680874436 0.5015009162650844
3.3338371497690162 -0.03927766076690297 -0.2623968829553542
-0.807804971121186 0.012690014543065634 0.5869770797593347
5.341639202948731 -0.08391317408598245 0.3361089179656628
-0.8110077373614089 0.012740327615675295 0.5653106526434588
2.8600890929753127 -0.04492986980995851 1.528938091304718
-0.8149744193094309 0.012802641235184532 0.5399979520782086
3.510501979174058 -0.05514737190505189 2.1137548631728778
-0.8247441595154452 0.01295611657852665 0.496597634295982
3.05264649463454 -0.04795480319708348 2.0226682168971215
-0.838478929102306 0.013171879580778308 0.44823162208813383
2.9877511274591484 -0.046935345304802714 2.082603484518286
-0.9151162364082961 0.014375794608566004 0.05758133717870913
2.871088579829815 -0.045102663557385105 2.0862253273582034
-0.15354441005149716 0.0030152249393049567 -0.21137649481553783
0.5026969365459809 -0.009871699917157606 -0.692036371535508
-0.9845909654677326 0.019334883198267924 -0.31997467557765774
1.8849405606134295 -0.03701547835940035 -0.6125723935308814
-0.9689104473923437 0.019026957373118852 -0.23265966523462944
2.4303045519013655 -0.047725051615622925 -0.5835769910267105
-0.9140355650504312 0.0179493530909228 0.07195002812060787
5.336327764265828 -0.10479201785151596 0.42005907360784456
-0.9097356097432235 0.01786491281415961 0.09683989495692347
5.30089971356088 -0.10409630029331454 0.5642722632164668
-0.8922109419988684 0.01752077254087913 0.18846128914730112
5.270563432204262 -0.10350057224250793 1.11329858468279
-0.8507247115120632 0.0167060876118764 0.3801754487857172
2.8767692779849874 -0.05649249274979095 1.2855827937183388
-0.7542836041781522 0.01777567832343959 0.9342190694522124
1.6097660427374743 -0.037936239357702545 1.9937781043518181
-0.947234374200799 0.022322815237438398 -0.10084013215132138
3.383302362107695 -0.07973193918920901 -0.3601776567606851
-0.9276283991513099 0.025505942209180867 -1.5915994952821349e-15
5.310860213681654 -0.14602667815594766 -9.11222903842007e-15
-0.9055187979833742 0.024898019672340312 0.11443686082351716
5.265016183235241 -0.144766157033188 0.6653775995995603
-0.857016891752106 0.02356441796447793 0.3551221838431873
5.130977924460015 -0.14108065960203175 2.1261238877803565
-0.847867869392574 0.023312857710623882 0.40729422622603073
3.2965111627494212 -0.09064041515538063 1.5835603774434737
-0.8206101087074648 0.022563382091483553 0.5030605761493506
3.446893124167424 -0.0947752967747226 2.113057129773968
-0.8156470940060162 0.022426919725438837 0.5314074249680463
3.2217308167672987 -0.08858426510138555 2.099010331624969
-0.9352487978011886 0.0293913775364211 -0.047810387343580334
3.4231861962919283 -0.10757796012057329 -0.17499499425040213
-0.9029007380555913 0.03192443977464996 0.12496434436967603
5.1951408190300565 -0.18368792183634605 0.7190240731847327
-0.9080966923032974 0.03210815645740509 0.0894956072481614
5.198464358564125 -0.18380543435264157 0.5123239942076934
-0.9146575891134895 0.032340134288695525 0.05758133717870913
0.5480248744669077 -0.019376866539730326 0.03450034794942627
-0.9219743820822105 0.032598838824674244 0.028992317799877147
5.231027106725594 -0.18495677629839802 0.16449437559799476
-0.9693172180076802 0.038084577219895284 -0.23289202616627494
2.443462685908606 -0.09600391039858076 -0.5870761038915483
-0.9541393367186182 0.03748823663989838 -0.15123742341030028
3.3124948839143613 -0.13014827845133145 -0.5250524446732352
-0.9144976452231937 0.03593071033907825 0.0720280565874382
5.247586887907898 -0.20617825035791051 0.413312693897074
-0.88521591120849 0.03478022787627052 0.21268551030147279
5.195119324916128 -0.20411679419353257 1.2482001178541762
-0.8800258162808176 0.034576308491182324 0.24465494389119394
5.1911209143442445 -0.2039596962143027 1.4431774301789626
-0.8566798138533842 0.03365904155760722 0.3551221838431873
2.975764886207574 -0.11691812080874166 1.233553199112458
-0.8019548839897407 0.03150889320727763 0.6075323478579998
2.749699438258893 -0.10803598516810271 2.0830739845592348
-0.7853496989467501 0.03085647371005643 0.7265299225733441
2.209729703838443 -0.08682051652182386 2.0442291539563158
-0.7773565208617699 0.030542420887766226 0.7779562969730361
2.021904338312721 -0.07944083781156486 2.0234643559993817
-0.7659563331512562 0.03009450629271265 0.862624609199436
1.7865981026074353 -0.0701956306311338 2.0120774819076446
-0.8904204027106967 0.041991160249517226 0.188255807074895
5.282339494340294 -0.2491088069454861 1.1168107578434743
-0.9079130958602111 0.04281609471755136 0.0967346494213167
1.5484829316377806 -0.07302460133223809 0.16498490242059077
-0.540639966395868 0.02762414850265225 -0.6338338371805172
0.5851184007594656 -0.02989678639920872 -0.6859793285921124
-0.9480464792006956 0.04844069687160442 -0.11992235889006812
3.6019039010467817 -0.1840402753020585 -0.4556198686303306
-0.938582456879629 0.047957130035485365 -0.062833791199951
0.4555797934557414 -0.023277975457724632 -0.030498977907687488
-0.9332629187344988 0.04768532676376979 -0.029367228786465308
1.7813795682937477 -0.09102008137167826 -0.056055137611762305
-0.9247548265908466 0.04725060344426143 0.007272631647921564
1.748299498128208 -0.08932984604404834 0.01374930726991292
-0.9169742358064297 0.046853052007766766 0.03968680366030772
5.373821277100248 -0.2745768833461013 0.23257991511866444
-0.9117416941866805 0.04658569384755924 0.07545764514178366
5.374491143257444 -0.2746111103425378 0.44480410196371156
-0.9055505641772026 0.04626935634864815 0.10731878857605576
5.361387579083716 -0.2739415801095768 0.6353898311540158
-0.8937683758616881 0.045667342180358436 0.17071784958738828
5.337511782066451 -0.2727216396622937 1.0195130619868158
-0.8671717357699315 0.04430837950420972 0.3011012258152986
5.235738526522817 -0.2675215070426551 1.8179643355011996
-0.8629642616741647 0.04409339745244366 0.31877963450362456
3.178535025211569 -0.162408125582464 1.174153181764662
-0.8593221069701046 0.043907300551237274 0.33677093911257205
3.044275130736339 -0.1555480791681036 1.193060653716886
-0.8488732122594008 0.04337341138817508 0.379769689012905
2.9145885447821396 -0.1489217072165758 1.3039313401189616
-0.8470526024176054 0.043280386825136546 0.3910060061608116
2.9026712819298774 -0.1483127913774997 1.3398954231481561
-0.7594752051008716 0.038805595504988744 0.8903912278288076
1.7101999860831987 -0.08738314094633604 2.0049990509422635
-0.7699575905161705 0.045406775179433444 0.8543585509458762
1.8166401692137728 -0.10713287687717281 2.015776039715468
-0.7923442368824659 0.04672698480019244 0.716552998158981
2.238892691816546 -0.1320344111940413 2.0247326808226065
-0.8422121795015005 0.04966785126745514 0.4298741086060037
2.9355745297517637 -0.173119889116936 1.498348652438693
-0.8615646459778054 0.05080912593671063 0.3300027174474274
5.234487853151977 -0.30869390217738657 2.004951368478276
-0.9126261884597429 0.053820382671303124 0.07195002812060787
5.359940469368281 -0.31609223009878074 0.4225693634177837
-0.9156234487420563 0.05399714035960906 0.05770622970432181
6.153865925461803 -0.3629124642754432 0.3878410946685343
-0.9345850697447194 0.05511536566514616 -0.03678374475030496
3.5703250435937988 -0.21055308573979387 -0.1405221732410601
-0.9691168532617672 0.06097166435286495 -0.23312438926472653
2.43470417209456 -0.15317860284838442 -0.5856764550626538
-0.920325298636898 0.0579019599288532 0.03985859662985736
1.4947233221927314 -0.09404002045201479 0.06473534310179374
-0.7939261733502443 0.05308047225030175 0.6795908289074558
2.4001531686331092 -0.16046991261981405 2.0545009550360973
-0.7998969086315113 0.05347966484408387 0.6474541381518198
2.5479206396381247 -0.17034937925974097 2.0623429644682942
-0.8441216168845659 0.05643644908675218 0.41858168034765314
3.089198968693312 -0.2065382722444129 1.5318670549112512
-0.8572648004971045 0.05731517864177116 0.35588345300943924
3.041455178126605 -0.20334620850427196 1.2626245360097357
-0.8874981640916317 0.05933652681138821 0.20617028233948861
5.276859407047184 -0.3528013041093316 1.2258409513784392
-0.9096062229521766 0.06081463175898451 0.07895631533129195
5.328968630513487 -0.35628523282088387 0.46256909524629264
-0.9451312770094332 0.06691888348009332 -0.10084013215132138
3.3896716962995534 -0.2400016281316707 -0.3616586924157299
-0.9256616343795194 0.06554035884733243 -1.5915994952821349e-15
1.751242511533657 -0.12399462003364786 -3.0111183114356107e-15
-0.9083694486494569 0.06431600643181647 0.08969055734548695
5.323708013942851 -0.3769387437841691 0.5256521337491981
-0.9012088122992272 0.06380900618622036 0.12496434436967603
5.301981969227534 -0.3754004573152376 0.7351888836439538
-0.8398002280340611 0.059461045225579 0.42897081613394256
2.9626488445729793 -0.20976678864096446 1.513324062497405
-0.9462493564170775 0.06699804774798042 0.5312517454825209
3.8059440149180173 -0.26947528905394896 2.136767002716726
-0.8503326249663327 0.06356371821896455 0.3809869822501112
2.9703355777959115 -0.22203731591534434 1.330842960540777
-0.9344607582611384 0.06985243019123569 -0.058955315845110816
1.7890268137731107 -0.13373260408694987 -0.11287005893926606
-0.9730776883469566 0.07273910722841698 -0.2628323319551008
2.2031288392597297 -0.164687390119033 -0.595074265245823
-0.9690754364321748 0.07626789088902083 -0.24958567130973472
2.289377540992699 -0.18017792004205851 -0.5896298770648741
-0.9584201320270213 0.0754293002455994 -0.18339375995318444
2.8952375425762815 -0.2278601362634486 -0.5540039082523281
-0.947340965398808 0.07455735092176471 -0.12004706035877463
1.6208795845623505 -0.12756598986222498 -0.20539788358075242
-0.9341792438438289 0.07352150097063753 -0.058955315845110816
3.3672712943613003 -0.2650099982077548 -0.21250583761464176
-0.9221436838222802 0.07257428185435155 -1.586481818113809e-15
4.192133048646157 -0.3299280261643167 -7.212263096813557e-15
-0.8670178579726323 0.06823578526986779 0.29395392762328076
5.28297345460556 -0.41577902798657435 1.7911404963931612
-0.8546978969934206 0.06726618331279116 0.3551221838431873
3.129072532053301 -0.24626334905060515 1.3001120921151084
-0.8523864604120468 0.06708426930862019 0.35810197279204015
3.0697286255777563 -0.24159288232133969 1.2896449296299217
-0.8342040556198709 0.06565328301729989 0.45575568018008256
3.966835644883881 -0.3121967359450718 2.167224991675747
-0.8729394467834594 0.0687018244163934 0.4903812614397566
3.802840601696261 -0.2992900461354302 2.136278499253942
-0.8102309997717887 0.063766562604254 0.5904875549090307
2.865009807413624 -0.2254811619127051 2.087988038530451
-0.7947554960112478 0.06254861404432868 0.6808842577421282
2.3996115884133653 -0.18885352772425015 2.0557992532877303
-0.9627572735904181 0.08338381652585394 -0.2040847159645412
2.717320394343557 -0.23534545146452812 -0.5760159658894307
-0.8204814400935307 0.07430870714008782 0.5228244662458088
3.322481774387121 -0.3009078732153386 2.117140833932034
-0.8289630267688736 0.07507686070157421 0.4878521960977364
3.619965044004067 -0.327850100157755 2.1303819826536246
-0.8483248369141574 0.07683040564419212 0.3805812132030658
4.860033405472422 -0.44015962015802795 2.180340983991829
-0.8521831510202124 0.07717984235165577 0.3742781706857023
5.001924351337944 -0.4530102859097709 2.196841246961746
-0.8739743022043642 0.07915340591136764 0.26620228665251006
5.250139938564486 -0.47549047678004663 1.5991308364175787
-0.9241964050397377 0.08370188117136587 -1.5915994952821349e-15
5.3190926921194865 -0.48173533464037427 -9.160244725007623e-15
-0.9442772830878561 0.08926048360215662 -0.10094542441996099
3.3939618421861355 -0.3208238520470708 -0.362822366650915
-0.9019003672423956 0.08525468565521845 0.12893163359649948
5.282838059295971 -0.4993752242165761 0.7552108478382852
-0.8544507333775099 0.08076937467571997 0.35550281622671953
5.142324557478975 -0.4860927876384104 2.1395158207768845
-0.9404017557975034 0.09262148864803423 -0.0743693319426433
3.406277028092754 -0.3354890047201014 -0.2693769396208766
-0.9502775245521947 0.09359416697191458 -0.15123742341030028
3.331511418713713 -0.3281252349295066 -0.5302126905144766
-0.8213240231952184 0.08741177082599921 0.5379247449629765
3.214844962699356 -0.342149119207965 2.105557134354655
-0.8297509492058363 0.08830863065769161 0.4803071392800417
3.7110233464407356 -0.3949563304224675 2.1481518147540304
-0.8460893490560653 0.09004749184163181 0.39225535385373
4.748992686680441 -0.5054252020627636 2.2016797739397775
-0.8993708251281342 0.09571812613960806 0.12510059646804766
5.291315012150575 -0.5631434149592948 0.7360108262640869
-0.9026218803042696 0.0960641290349008 0.10743567521429212
5.292816516972097 -0.563303216927393 0.6299839708013393
-0.90552953356264 0.09637358439366818 0.08969055734548695
5.293211920566706 -0.5633452988919035 0.524280114239435
-0.9324315124494796 0.0992367048513823 -0.047911908764062046
3.422518725501088 -0.36425139656492794 -0.17586214400747918
-0.9449338186998298 0.10056729874354746 -0.12004706035877463
3.682997129846489 -0.3919735597340791 -0.46789835435906246
-0.9212086522112344 0.10170238203694261 0.018200125801030528
5.309573075769484 -0.5861823248281146 0.10490011974682438
-0.8495977330434148 0.09379646295798003 0.3738795468383675
5.01847088624114 -0.5540443439047521 2.2084611902719113
-0.849360939912058 0.09377032075289851 0.38179853417424736
4.8658796234875075 -0.5371981116610385 2.1872747149265206
-0.9433256835455409 0.10789535297184767 -0.10105071781248458
3.3978717916667773 -0.3886405116597886 -0.36398604381489263
-0.905981939750408 0.10362406418119152 0.09705038984290851
5.366356381745617 -0.6137911074412066 0.5748535992095722
-0.8875691151774382 0.10151804900407653 0.18866677372962468
5.328793585128602 -0.6094947639086425 1.1327188794490053
-0.8428770158579411 0.09640627274775113 0.41149017814924665
4.457911416579925 -0.5098853282583007 2.176339760688411
-0.8440901482663705 0.09990465264725434 0.40815546300287103
4.49744413332874 -0.5323075916280373 2.174716049391749
-0.9118132540205726 0.1079202104291605 0.07226214758322948
5.3755890902756835 -0.6362428964979081 0.42602101962814326
-0.9662915141637288 0.11436813742796165 -0.24983322196302696
2.2939939549992943 -0.27151207690292256 -0.5931086970552361
-0.8477832761782297 0.10709993433659822 0.38179853417424736
4.855030055527681 -0.613332929251953 2.186458981508254
-0.8016213760166354 0.10446813245794419 0.6581410022282039
2.517996870933948 -0.32814797423260167 2.0673063790773445
-0.9159072511636405 0.12302172366113327 0.03994449615788951
5.368581417867186 -0.7210906331422122 0.23413427456422536
-0.9110183060556397 0.12236505623841466 0.05783112521196918
5.362001577166394 -0.7202068500480193 0.3403779951892067
-0.9007321947967337 0.12098345877291461 0.11481078329147294
5.335154254328903 -0.7166008037731822 0.6800392419175872
-0.876665031815092 0.11775083465090513 0.2457196836471572
5.27969454783574 -0.7091516339168883 1.4798410190512226
-0.8425959644759506 0.11317478682263045 0.41235847060112013
4.44525803002552 -0.5970727977941426 2.175467104009598
-0.9434619488171696 0.13049659990221865 -0.10136660469833642
3.398603229602019 -0.47008378709473236 -0.3651497238796619
-0.8983527258159315 0.12785452629879124 0.12550936269457158
5.328904619616469 -0.7584154377821611 0.7445042503330268
-0.9044981304629816 0.12872914689878923 0.0899829913243689
5.342897601755611 -0.7604069340524957 0.531532230254226
-0.9315627570467884 0.14005419488860268 -0.059267631785754143
3.3973652684753954 -0.5107710176469787 -0.21614624699256443
-0.7769316167453253 0.11992826760386469 1.08201962714686
1.4254709385209543 -0.22003771823911605 1.9852294592777713
-0.9534096647433875 0.15100525615038188 -0.18413968553480942
2.8858891244840486 -0.4570799338200518 -0.5573750041791828
-0.9463709804065631 0.14989043807107288 -0.12104471908837035
3.8364825564337006 -0.6076391425155709 -0.4907018103317673
-0.9414250359844147 0.14910707743189466 -0.11281392237424609
4.075506129727545 -0.6454967573960855 -0.4883807149595059
-0.939238417169606 0.1487607510347081 -0.08612452998027202
3.4008484632225637 -0.5386414804760413 -0.31184464995779965
-0.9242994563217052 0.1463946520817832 -0.014701050481303534
4.071852934556653 -0.6449181481235476 -0.0647631188506581
-0.9224414506145897 0.14610037288774194 -0.0036675918685621393
4.176002990554464 -0.6614138964525293 -0.016603627906187763
-0.8941965324394846 0.1416268173305657 0.15800761369635455
5.299677702516696 -0.8393864868134941 0.936471342435129
-0.8755404042716263 0.13867197691207672 0.24625207269619823
5.267230666388978 -0.8342473811562158 1.4814467300870138
-0.8735576397921142 0.13835793786969383 0.2569555039092892
5.269542440751635 -0.8346135302448017 1.55002700629686
-0.8455308479497617 0.13391893012965064 0.4069500034626938
4.5367747147904085 -0.7185545240805549 2.1835282418969935
-0.8334578843803174 0.13200676055164573 0.45104564085350163
4.02518138463976 -0.637526100810882 2.1783230457244915
-0.8342484530503037 0.13213197432797963 0.4600387591750994
3.9344484672208586 -0.6231554184664777 2.169615999023632
-0.8201036914461504 0.12989166417778183 0.5548063543737793
3.126606320107709 -0.4952057921253955 2.115172839866282
-0.7574555535181737 0.11996917391468516 1.013100923775467
1.4890285483102796 -0.23583895325136994 1.9915837844404836
-0.8254487115448467 0.13739233702455733 0.5449860276519785
3.1750789958058063 -0.5284780476002139 2.0962825009042696
-0.8608603443589417 0.14676298612397573 0.33391030743925537
5.275795516860388 -0.8994391591013446 2.0463743214160273
-0.929258684200126 0.16218160285313432 -0.03335304385867795
3.6527116404143523 -0.6375002339769459 -0.13110348454877185
-0.9229796244280746 0.16108573149292368 -1.6069535881081143e-15
5.036766782898378 -0.8790565253108199 -8.769262332586888e-15
-0.9162447680836878 0.15991031089638824 0.04020220675895465
5.356797321107853 -0.9349107955277716 0.2350409857394374
-0.9048834341326426 0.1579274406988218 0.09047040458976438
5.330099220588016 -0.93025123107165 0.5329042557314619
-0.8997163188656224 0.15702563472123915 0.12632693935691514
5.337576762982265 -0.9315562711337134 0.7494359298720766
-0.965476002309558 0.17241213826769747 -0.2518137080111303
2.2645039114421404 -0.40438908947849167 -0.5906238222202036
-0.8498170205251685 0.15520414632826285 0.3778659876043896
4.973116266807074 -0.9082523015413259 2.21126600696609
-0.9085000039673546 0.16592156211208844 0.07998611140442526
5.400948459749565 -0.9863883339737572 0.47551003115527846
-0.8462574760618747 0.1579906313092273 0.3846391095922222
4.81947575355068 -0.8997640061348126 2.190537649574037
-0.83213332627979 0.1553537466684416 0.4872569555076771
3.6788165582592676 -0.6868105357425645 2.1541367223717396
-0.904766114788003 0.17627844675984952 0.09810293950416259
5.404123825473512 -1.0529025551267044 0.5859640674625108
-0.886418977585078 0.1727038159290085 0.19072175581349926
5.365369022573912 -1.0453518341746648 1.1544118824717278
-0.8628075965578279 0.16810353580654405 0.31257679467843225
5.315649042008379 -1.0356647329406894 1.925746302901374
-0.8228354338590652 0.1603156327905023 0.5553897250300411
3.1414604096003966 -0.6120606779042158 2.1203934119584367
-0.8222310603886485 0.1601978807937303 0.5741164710416836
3.0055904452720745 -0.5855887025708729 2.0986302548830684
-0.8193831890018153 0.15964302099467562 0.5818163760405072
2.9353854709636606 -0.5719104451476252 2.084318252951428
-0.932347598533937 0.18545546804512125 -0.04857185275615973
3.4354404397375995 -0.6833515908599955 -0.17897370836142867
-0.9102600457101804 0.18106198062332465 0.07304251061169252
5.136063015980415 -1.021626453519735 0.4121360034586378
-0.8528126982441915 0.17311922639313146 0.3604514324656037
5.1434783923960365 -1.0441155509230136 2.1739523323375396
-0.9190010866559157 0.18655533331512858 0.018414948735398638
4.368082654521779 -0.8867118085002148 0.087527663811261
-0.8446164741786978 0.1749116631622326 0.41418464678904576
4.436504601007914 -0.9187559349274503 2.175581636544856
-0.940601987276995 0.198644608399491 -0.10231432492266525
3.4133237501523084 -0.7208557592489978 -0.3712855383713845
-0.9298789376114761 0.19638002036920013 -0.029867189126951684
3.711477230201929 -0.7838224360033811 -0.1192105637531193
-0.9145448735616775 0.1931416377275016 0.04775962749010829
5.416145678457204 -1.143829326202424 0.2828435296213277
-0.9064856586496274 0.19143962177190474 0.09125032536041408
5.147866929310106 -1.0871718581265717 0.5182040418724673
-0.9038210429113311 0.19087688476195933 0.09831346425715848
5.396646641004592 -1.1397113478105705 0.5870222106578786
-0.9026251161998634 0.19062431843051691 0.10918914244595838
5.392420328190074 -1.1388187978634412 0.6523126165845065
-0.8993896085412456 0.18994101543890798 0.1271445740173822
5.386602353903946 -1.1375901068343146 0.7614911882281734
-0.877645800589364 0.18534896665085532 0.24161044942078677
5.343318646365664 -1.1284490724219685 1.4709825064734916
-0.7944055534988826 0.16776955845267114 0.7745406327796683
2.0860330244978487 -0.4405468188084358 2.0338696421211764
-0.9121953887774922 0.19639052884541883 0.058705475663661646
5.141663002804008 -1.1069710817315828 0.3308981562452157
-0.9444256170474699 0.20332951544042066 -0.12204245988699779
3.8380194407822623 -0.8263039661978279 -0.49596424026651864
-0.9653681814426692 0.20783833158612 -0.23707488728579312
2.3791733029400755 -0.5122226103395345 -0.5842768111384902
-0.9208148070955701 0.20203310251945575 0.018512604352477743
4.25402863528824 -0.9333631440015228 0.08552550243800357
-0.8858478515018804 0.19436111194131123 0.21021261178730383
5.363653569524827 -1.1768224871498723 1.2728005420575486
-0.8509244063106266 0.1866986678447483 0.3810554581290031
4.945075099593437 -1.084983491646722 2.214471513078246
-0.8442494340155119 0.1852341330092725 0.41504603254674144
4.429774893040872 -0.9719230818265264 2.1777456049772104
-0.8411570754264401 0.184555648263981 0.42608213662849115
4.3405108134429735 -0.9523379287580277 2.198654895119626
-0.8994784108034817 0.20105724560881658 0.131173825463158
5.39401810189235 -1.2057058949995172 0.7866269835322683
-0.8284770071222791 0.18518655156319688 0.5202199436679088
3.3726389677194866 -0.753874126536186 2.117758294697328
-0.9015422592549833 0.20523909378735447 0.1168052616912704
5.401591644968745 -1.2296903033018667 0.6998388807212932
-0.8907066277024115 0.20277232622584127 0.17425867864746059
5.376815088648558 -1.2240498378504427 1.0519251384673274
-0.8820377803979106 0.20079883430497777 0.23226317420652218
5.355626165917324 -1.219226109117768 1.4102737556188352
-0.8783558458540673 0.19996062966020914 0.25024538884838327
5.345443208327035 -1.2169079249545178 1.522927775284588
-0.8333565082199658 0.18971638078308348 0.5009357494429741
3.5550355140234866 -0.8093156585726583 2.136953827021275
-0.9594293049055278 0.22238377214641916 -0.20799246807138264
2.550364218679478 -0.5911426849245919 -0.5528875818279495
-0.868061049834474 0.20120574775916336 0.28952765123377655
5.332714456409359 -1.2360568418460063 1.7786402137948905
-0.840022162219994 0.1947066825725819 0.4393598465276795
4.169811904661644 -0.9665105034403709 2.1809518854118437
-0.8448709362067751 0.1993298219371089 0.4210424245127894
4.346943122975863 -1.0255713169205758 2.16630421675319
-0.9120286681294922 0.21517429968178903 0.0589553158451076
5.416127088141642 -1.2778231583099255 0.3501090418500932
-0.9648666941772589 0.22764033901662062 -0.2545371063712436
2.2341515649688506 -0.527101850165614 -0.5893813912054083
-0.9693958828004514 0.23273136060010247 -0.26852883681787026
2.1304097348922904 -0.5114661254851257 -0.5901370721767907
-0.955734764982895 0.22945161638681627 -0.1874967059459122
2.604389079837355 -0.6252584984491397 -0.5109308475136912
-0.9320773861142014 0.22377198222493225 -0.04897801818819183
3.4244076653715116 -0.8221275428868065 -0.1799428925290969
-0.9174679612252422 0.2202645696267168 0.02594339014768426
4.9153307491742275 -1.1800665067300522 0.13899160376176806
-0.9166189677343629 0.22006074432295944 0.04816572222666438
-0.8960059301472639 0.21511199183817697 0.14594589445526984
5.388624014101763 -1.2936941664548287 0.8777258332341291
-0.8920562796364939 0.21416376464475118 0.17500421673286987
5.376346910705198 -1.290746694706283 1.0547354482786109
-0.8830499357259465 0.21200153277485823 0.21802559738597857
5.362717217806268 -1.2874744949484649 1.3240583320614685
-0.8707691838042362 0.2090531850929233 0.2754955432296658
5.341917156111233 -1.282480841947931 1.690085497032922
-0.8512068729071798 0.20435668976801866 0.3788168460650057
4.980312109820664 -1.1956671511573858 2.216413172767397
-0.8332059241712361 0.2000350443332286 0.4667021201629147
3.875135137166984 -0.9303376349987785 2.170572402293622
-0.8350630365874541 0.20048089757758644 0.48984603155667755
3.6530851164956277 -0.8770281415822867 2.142891217610182
-0.8381981866462318 0.20123358051322776 1.4066818567027843
0.8397197943868348 -0.20159888621139577 1.4092354508715907
-0.8493917326078905 0.2074520679528734 0.40308476041577446
4.639442572588197 -1.1331190531805129 2.2016797739397775
-0.905879994825297 0.2250217601119556 0.09193281487824577
5.409460713764204 -1.34371702435313 0.5489766340248359
-0.9007224791314264 0.22374062655577898 0.12837113233030528
5.398791356434517 -1.3410667422193991 0.7694367307329506
-0.906179504463158 0.22887800025414887 0.09947143655626708
5.328461913092446 -1.345834573715589 0.5849059248417481
-0.8611061520325131 0.21749361259335298 0.3395949402050198
5.207977948022459 -1.3154033745413747 2.0538733298713785
-0.8259102210032143 0.20860401150284816 0.5691859742011751
3.073224699961499 -0.7762187515767544 2.117949808953739
-0.9124363626721991 0.23427383954687755 0.0592676317857509
5.251781641095669 -1.3484283396137347 0.3411313635200307
-0.9114557349255362 0.23784116552805806 0.07413516879056471
5.180817241753382 -1.351916021755168 0.42139266447408213
-0.8898341502452255 0.23219908911789774 0.19421577708872148
5.13106578756815 -1.3389335549202888 1.1199097370574838
-0.8739846613706588 0.22806322078935085 0.27399813687688274
5.088787040121297 -1.3279010646034142 1.595357710019498
-0.8523225536807714 0.22241057004249035 0.39356804090330205
4.735943325947093 -1.2358277394678865 2.186866848205186
-0.8296729006840654 0.21650022282416634 0.5441576346864714
3.232888494629284 -0.8436108722796992 2.120354847063361
-0.8091093366111192 0.2111342331670603 0.6807763340434738
2.4667644867765732 -0.6436935093354641 2.0755104511462474
-0.9023123408696874 0.23924378212781428 0.11792731756232003
5.155329740491533 -1.3669109125143935 0.6737735703131857
-0.932624508556077 0.251204896062648 -0.06076698309682736
3.402087786144436 -0.9163614089850153 -0.22166971712402836
-0.9308678225348884 0.25073172800270654 -0.03787740146753075
3.44765926868479 -0.928636209218063 -0.14028669923041917
-0.915020967784487 0.24646333545675286 0.04841954967028155
5.018253743007983 -1.3516800152292985 0.2655475611187087
-0.9062933063406913 0.2441125165947726 0.09989255289472299
5.14730272278132 -1.3864397017414425 0.5673408441872527
-0.8387960888913537 0.225931961249803 0.4864903597671653
3.682482621167486 -0.9918865048218379 2.135789995845043
-0.8450722110767661 0.23118559611965844 0.42495079504881966
4.309724731439068 -1.179007270727607 2.1671768720604927
-0.8553228226885589 0.23398984612930415 0.36730453427157833
4.918026257277281 -1.3454197370566274 2.1119667288737562
-0.905327693111623 0.24766963068039294 0.09989255289472299
5.07756652197973 -1.389065014604362 0.5602513722186528
-0.9298278880461133 0.2583010649781048 -0.0379164666455332
2.6424975165143048 -0.734071252855113 -0.10775560749889006
-0.9219170306679809 0.25610347237851594 -1.6410793044592283e-15
4.0314393131425454 -1.1199116324285425 -7.176254916549216e-15
-0.9143574597596417 0.2540034652250365 0.059704902944139195
5.015658709524641 -1.3933223587854529 0.3275080366619573
-0.85932459455835 0.23871563844221028 0.34101625349865006
4.881295458406067 -1.355996987817308 1.9371039767587859
-0.8507976443115053 0.236346898637682 0.38623893115316943
4.755298932942382 -1.320995847144706 2.158776049103635
-0.8395060414346707 0.23321015356271432 0.4879494140481615
3.6787811632409926 -1.021945141141436 2.13823251342801
-0.8355715304062798 0.23211716807382235 0.4991731541858962
3.609172976773812 -1.002608370404812 2.156131693408331
-0.88084285635799 0.24842337818353374 0.23498444113382988
4.863272235649138 -1.371584623847042 1.2973861343449797
-0.8888508229523056 0.25068185834191997 0.19503799741396738
4.887236585805592 -1.378343269590568 1.0723923654790204
-0.8923650337895267 0.25167296830157987 0.17686820939922757
4.89521609595718 -1.3805937242020792 0.9702398376564277
-0.9123376704688285 0.2573058344130444 0.0746035027362538
4.93167068738792 -1.3908749823040853 0.4032716389226609
-0.938115129249831 0.26457582967399346 -0.07671137220054679
2.631569990831866 -0.7421794958431958 -0.21518824155401917
-0.9423986350774126 0.26578390325996365 -0.10421002529568697
2.5024596022891594 -0.7057666003433293 -0.2767208787760671
-0.9491852467407819 0.2717263321234867 -0.1563750868916076
3.243030292693934 -0.9283927762519537 -0.5342783672138383
-0.9175111840602709 0.26265889570348605 0.029992192853222428
2.501982424981358 -0.7162506051500699 0.08178640294425513
-0.905928985326598 0.2593432221923008 0.09281038006621643
4.842039149853315 -1.3861462161424285 0.49605598349563174
-0.9007801389281351 0.25786924527227856 0.12959781500980322
4.831008870815403 -1.3829885424685464 0.6950510639540224
-0.8972156471863008 0.2568488266867402 0.14781326961309219
4.8226544831300195 -1.3805969048712687 0.7945161562899781
-0.8851603845384683 0.25339772763802587 0.2210445323268503
4.791786875476341 -1.371760334941467 1.1966173672038916
-0.9060756558207373 0.2632393122469054 0.10041897438630448
4.754380442770237 -1.3812752057456994 0.5269206879560486
-0.9448978441876691 0.2785466192763865 -0.1048419998816838
2.5101753278241374 -0.7399750731334398 -0.2785187870218849
-0.9169244542009554 0.27030033820121085 0.04131915362868731
2.495182486452429 -0.7355553305092761 0.11243982862163082
-0.8576180226764549 0.2528173837166464 0.37035077652301185
4.563716542691159 -1.3453388872901766 1.9707794387784459
-0.8510159643610836 0.2508711616617181 0.39640949616409943
4.511786329847603 -1.3300303697452864 2.101623260566821
-0.8088955072466594 0.2419110524339461 0.681868096530751
2.462189218023589 -0.7363507148791304 2.075531710031283
-0.861595201541445 0.25767160295695857 0.34385906082339646
4.550415388431807 -1.3608627638124342 1.8160518524512979
-0.9104430738488618 0.2722802144440822 0.08230367004527048
2.4814824780129667 -0.742120623089894 0.22432496985242956
-0.9452542568825667 0.2867397439910458 -0.12478665417958844
3.214043775632454 -0.9749695203069016 -0.424298294588619
-0.9109064899351579 0.2763204627982315 0.07491574222405771
2.4839719321279823 -0.7535046477847269 0.20428946660852185
-0.8477154234549653 0.25715166234785436 0.4253840422351357
4.307088910312634 -1.306541136945267 2.1612994647044377
-0.8359021767856628 0.25715708748541694 0.4674642052617593
3.8892973204836396 -1.1965040875313457 2.175023981798723
-0.8846377310519704 0.27215010166837283 0.2222057761650592
4.497246733432763 -1.383533748075645 1.1296309957521988
-0.8933880661588748 0.27484205624524183 0.17450388925119542
4.518301822876352 -1.3900111393642751 0.8825517944208505
-0.8931007255222089 0.2747536587230277 0.17065321880941572
4.522519590510347 -1.3913086941147832 0.8641606743718164
-0.8966956410705365 0.27585959915222824 0.1485914157704669
4.529397624078262 -1.3934246535285428 0.7505663847609079
-0.9007352062184073 0.27710233165967146 0.1265795641778588
4.5355708863379665 -1.3953237969774734 0.6373799781855483
-0.9089076801494131 0.2796165129263471 0.08612452998026855
2.4680576134375594 -0.759273662928316 0.23386346772489655
-0.9336074266004012 0.2872151471150855 -0.0614543103796334
2.590522628820537 -0.7969488210381365 -0.17052004637184678
-0.9493054198104701 0.292044480409551 -0.15730938109592335
3.21851547773895 -0.9901446476245954 -0.5333401319375672
-0.9441853354709396 0.2945329901666103 -0.10526333637665365
2.583621946753834 -0.8059454736796162 -0.2880373755387812
-0.8827115802853606 0.279165015861478 0.23770603683790223
4.348740171644555 -1.375325923108568 1.171075371080128
-0.8942688825682703 0.2828201106253661 0.1789188382925426
4.374686682702765 -1.3835317270573204 0.8752556131832988
-0.9049069792852914 0.29009836631733565 0.12004706035877095
2.4249901735324717 -0.7774121581347272 0.3217048253527717
-0.8584274340799356 0.2751977848875228 0.37339726781531046
4.223769329069569 -1.3540713135311486 1.8372478147172322
-0.9427065346391746 0.30630392087173325 -0.09369790609827891
2.4871052433027625 -0.8081094801531834 -0.24719946768239487
-0.9411588644004585 0.30580105232790095 -0.07788265760480856
2.4848062768303216 -0.8073625006653081 -0.2056223702423862
-0.9297564447177515 0.30209618158827567 -0.015357427375391652
2.4608226346667967 -0.7995697429389773 -0.04064710184083512
-0.9195484311643105 0.2987793969253503 0.04179180202119976
2.451234312221051 -0.7964543081225224 0.11140413665238359
-0.9008200799045256 0.29269418672307784 0.14240188446548244
4.253840246445921 -1.3821564806984876 0.67244822892182
-0.8964471156856105 0.29127332451743065 0.1645065931916203
4.245085656505782 -1.3793119419944941 0.7790136941031688
-0.8804422049579922 0.28607301378557815 0.25716872771070987
4.207910214054209 -1.3672329085258055 1.2290902344019865
-0.8774997597158156 0.2851169553713082 0.2680568847436701
4.2057175716520065 -1.3665204758225342 1.2847542553559852
-0.8623569072102311 0.280196744335094 0.3467021041915078
4.167155091344562 -1.3539907664350526 1.6753636766653732
-0.8500694592439079 0.2762043104743987 0.42489303752371843
4.118607084023225 -1.3382165626434912 2.05861704036966
-0.8407126081021202 0.27316408524371255 0.4814599600289689
3.7818457124660183 -1.228796160094149 2.165790387835415
-0.8290516433146319 0.26937520810717924 0.5824623335242566
3.0153884961645194 -0.979759114197953 2.1185052030487723
-0.7848943685242685 0.2550276397958215 1.0902356319617619
0.9355480441614357 -0.3039779863202163 1.2994969183874265
-0.8908296837963813 0.29720326666653124 0.19832723653089646
4.175672154962863 -1.393109623036632 0.9296384417990368
-0.9213559095067493 0.3114137595598532 0.019098648480693748
2.418881026424238 -0.817569873481387 0.05014062205888283
-0.8922471978176606 0.30157515837489324 0.17966458147807135
4.168979874476844 -1.4090946645528362 0.839473663991773
-0.8825382478709697 0.29829358111134036 0.23919067814739572
4.154851772844959 -1.4043194357848516 1.1260722303493769
-0.8529355015543624 0.2882879986554938 0.393816023060792
4.088897031492589 -1.3820270580474203 1.887919033400506
-0.8471585655051211 0.28633542272336115 0.41225039791992846
4.076217701851214 -1.3777415070767507 1.9835983935244288
-0.841254162829496 0.28433976369930825 0.4524625203278887
3.961323120906748 -1.3389077045952267 2.1305692409178287
-0.8370834820117156 0.2829300941242962 0.5086086963294659
3.5560139756967546 -1.201915209739026 2.1606203815680742
-0.9594134949271413 0.3284806591303643 -0.21416396132162263
2.554537944975675 -0.874613826442844 -0.5702337610791413
-0.9466778452049832 0.3241202716255944 -0.12640849227564058
2.4261427773450364 -0.830654335029115 -0.3239592561323908
-0.8522830082044378 0.29180169528662275 0.40249899944452916
4.039058020308351 -1.3828786522097187 1.907484716018824
-0.8320620168716363 0.2848785025273084 0.5389453023056262
3.279222929745528 -1.122728953776085 2.124026523700686
-0.8975294668976733 0.31123609073124386 0.15045913690006155
4.0798868407278315 -1.4147814392357205 0.6839399433064105
-0.9024844572971653 0.3129543316341072 0.12067058733796879
