-0.16344677666467877 1.0319623337353563 1.3469814003724785
-0.8355935521579778 5.4132279435938875 1.6615329206146716
-0.24384852969406998 1.5797245820473513 0.3704971517317788
-0.1779696130498588 1.152941020169514 -0.21305825691900104
-0.172621389354747 1.118293608302582 -0.46869847617293114
-0.17917194074281811 1.1917522872953243 -0.2397183793054138
0.09469703783805626 -0.6298721271629523 0.28458842992629835
-0.3674937873019429 2.4443646687544573 -0.2728931703787917
-0.3583082638212985 2.383267665659671 -0.09469119229615934
-0.19984165404946486 1.329235745970883 0.05810030068772025
-0.2796433999200733 1.8600326596905887 0.4515728886519829
-0.24867803078831865 1.6540682138252452 0.43647403246494104
-0.3625656220427199 2.4115852491896574 0.6877810375429353
-0.8110206808323054 5.3944593523885995 1.6314161794862403
-0.26390706074975756 1.755363267138783 0.678728858725102
-0.7873609628740361 5.237088042591812 2.267109955049366
-0.7381052856922588 4.909466620954584 2.3361828021295628
-0.2895897073928374 1.9261899755720056 0.9924726592597138
-0.5439885280604256 3.618309707930175 2.222504744390194
-0.15828329028868354 1.052812580251797 1.350495120642404
-0.37756300862973985 2.5802183024073364 1.3676200811762964
0.09443298880293521 -0.6453432155460429 -0.12441681869602013
-0.7680615422145071 5.248836361881286 2.197292723686108
-0.7756559715514947 5.300735740590949 2.1210599761011566
-0.7884520442663269 5.388182498517711 1.769371000259612
-0.789712892141636 5.396798974946986 1.5151667802576905
-0.20722212631937642 1.4161300518646853 0.16939500160689533
-0.19411546888119274 1.3265607968465147 0.06850282483937027
-0.3507689301327133 2.397110926541593 -0.10471563163376267
-0.35035006246323364 2.3942484373613087 -0.12363759106736666
-0.35349417792059523 2.4157349285231637 -0.5861430041290504
-0.33617040402160675 2.3620563740205838 -0.018738874263953202
0.09100030008214899 -0.6394014353298193 0.11533321240269807
-0.20646967660109822 1.4507315629910331 0.20855024523081164
-0.2932116154907628 2.0602121930469357 0.560515537841757
-0.7589099743079719 5.332379414360126 1.6107893817020968
-0.7485609876781857 5.259663644199796 2.225059953711174
-0.38523330018192814 2.7067902507004256 2.1728273845715544
-0.3935435936282598 2.8452343284593296 2.1390140383061396
0.0872480401767107 -0.6307842968879754 0.24635533338019205
-0.27319089042214356 1.9751105398140008 0.9671179312296936
-0.647940073355716 4.684465379043989 2.202686944138466
-0.2788476167990129 2.0160074374760497 0.9382403842548882
-0.6955882366272912 5.028951204816013 2.2444426445434775
-0.7232253589987004 5.228761570386955 2.210768536085532
-0.7463538692607179 5.395975653982929 2.10741990202785
-0.7468045048932512 5.399233651297763 2.0596239972783805
-0.7508363821136312 5.428383244027239 1.4070412514417705
-0.7433527237200502 5.3742780264385805 1.370329676638956
-0.2332311780770305 1.6862105369668667 0.4086774309828113
-0.2953882216277292 2.13559240197327 0.4908033120891134
-0.21639028886635292 1.5644545818965834 0.32706743045910747
-0.272164984851156 1.9676934663421135 0.36278594726853547
-0.3169058740782856 2.291160335008945 0.11818200479080661
-0.324871776730403 2.3487520733828617 0.09316129273329855
-0.31854151232678707 2.3029856427230717 -0.0182601844448823
-0.32859063825732676 2.375638630934564 -0.05651802952148159
-0.3244613932750722 2.345785090527991 -0.09304360983207174
-0.3342958019625361 2.4168857199136697 -0.22097450909008207
-0.3244060121609491 2.415230497645465 -0.35659414257257327
0.08509990566251402 -0.6335760738024682 0.2589292659420343
-0.1822738776606143 1.3570446038207176 0.11858826570801821
-0.286611165182268 2.133844630383962 0.4990402121817348
-0.6951932693445311 5.175773330137092 2.333292470587358
-0.13973898490579 1.0722672524890593 1.3716661238570644
-0.540059016194666 4.144066152100729 2.1917554576274947
-0.2593582402935701 1.990148618279112 0.9444118700829437
-0.6861185235699473 5.264833036007791 2.1992058736223834
-0.689527031550455 5.290987737860034 2.1611925482418206
-0.7045055188193173 5.405923032409751 2.01121459362617
-0.7062819210521355 5.41955400262743 1.967658573177756
-0.7065504403993343 5.421614447698324 1.9200352225103294
-0.7083551368194141 5.435462529343116 1.876711243704924
-0.7092507643207546 5.4423349997619015 1.7832748256163569
-0.7096157117649737 5.44513537213887 1.6187459098630637
-0.7106010473694816 5.452696204945388 1.4579815664306455
-0.7103197303416438 5.45053755868986 1.319623507671243
-0.25576759275160044 1.9625962943726507 0.023317886113229602
-0.31144546695462993 2.3898325537197747 -0.2182706720900207
-0.3592577646074851 2.843818033670906 -0.570166510711895
0.08153034347230345 -0.6453791230127884 -0.028117444274548674
-0.05887316820654059 0.4660291131856929 -0.012915716344091378
0.08132781374363927 -0.6437759351307982 -0.01784186251898056
-0.6833748256757164 5.4094687560521075 1.6539865854742464
-0.3850694247828581 3.048138362741342 2.1955443652274322
-0.2555056254804717 2.0884594502522282 2.1040308933093144
0.07723270953296164 -0.6312870090017756 0.29623102613296515
-0.39260728938061035 3.2091050919249344 2.1419264752336074
0.07855271535371344 -0.6420765116812289 0.12076516077836003
-0.5076027959200436 4.149058769724398 2.192219817205204
-0.5436596895053678 4.443781674605271 2.2150599473714716
-0.24196876263791733 1.9778114397548563 0.9280867560106091
-0.6408943260013152 5.238561026722989 2.2103822819137675
-0.6616187325231041 5.407958794658266 2.1077806641234877
-0.6620961181726512 5.411860863621864 1.9629168915414412
-0.6607227904408457 5.400635516726314 1.465521548687146
-0.6628450400454072 5.417982423410289 1.3331327437672393
-0.22999813597512317 1.8799655769393446 0.40776376368074496
-0.23866461052849114 1.9508038633657825 0.3669175525351988
-0.18004669792843567 1.4716710329498754 0.2407998283664521
-0.27955438196440824 2.2850298883834648 0.31841444175593825
-0.17087093367255732 1.3966698992666549 0.16093885953473017
-0.251913229996859 2.0590958216327566 0.17966669665541954
-0.16495124096137123 1.3482833396282226 0.07475375700437815
-0.29295830259303407 2.394591251874555 -0.18986355465875052
0.0766443975800615 -0.6475652454902336 -0.09541954282411448
-0.27975063765495106 2.3636012033345333 -0.09351434289558717
-0.15621913719837893 1.3198888258528196 -0.03132201401345441
-0.200360439105486 1.6928368025901472 -0.013388586102438515
-0.19876595458473287 1.6793650708952983 0.04649789193984653
-0.16250846498546162 1.373027088022035 0.11427866977612035
-0.6353175445703819 5.367770831315277 1.9220613726002522
-0.6353767969433877 5.368271452087085 2.042659526845524
-0.6244817932771254 5.276220030893637 2.200736393905947
-0.6002909017933091 5.071832220734624 2.3544667672197614
-0.5195411616047919 4.389581110680175 2.2522146110346943
-0.4994053054215834 4.219454120787467 2.2925850613415517
-0.4132463989789112 3.4915011958076607 2.231239972168984
-0.3386180960015412 2.8609698476085903 2.1808139113951848
-0.33415300558299177 2.8232444891438204 2.169671247765177
-0.32355495871114326 2.733702043238144 2.17011919660857
-0.31176382402301334 2.634079249270045 2.1594459536176167
-0.12252807785547387 1.0712591377933518 1.3677454916143166
0.07189257321777275 -0.6285545105004957 0.37080410629550664
-0.21183692721532502 1.8520836038018693 0.877206612376041
-0.6159215912071836 5.38498313442236 2.0724423358616124
-0.1629759516359431 1.4248936283527256 0.16974683227725548
-0.2718677349735919 2.37693107130245 -0.3500837284955094
-0.34337308020203366 3.110234451574796 -0.38282317593086307
0.0703895814187256 -0.6375808523825741 0.22809639081495117
-0.2669142242962433 2.4176787986206887 -0.1914315114299537
-0.14869489932719346 1.346861548927399 -0.07991116902513201
-0.16808174084981856 1.5224653626434055 0.030079028308418267
-0.15091415104195596 1.366963279487959 0.0756856099057859
-0.22763815849954386 2.0619206451529277 0.17966669665541954
-0.5938553258255195 5.3790742493469565 1.3217458424376265
-0.5929335403504238 5.370724820964518 1.615946074039342
-0.5986819093553227 5.42279289604158 2.110666761488334
-0.35136996422572075 3.182669320904347 1.4914195057106763
-0.4910129127110138 4.447539324816408 2.279902908845606
-0.30851061701768806 2.794454210447823 2.1631409720352948
-0.29353078103998326 2.65876855358333 2.160318138390378
-0.18823301951883617 1.7686439644053409 2.0825109501597776
-0.3243919319825335 3.047997817116689 2.1363333497646235
-0.39323711784926824 3.6948695656165826 2.1582714060622514
-0.463214011124198 4.352374876081819 2.187040401535829
-0.35918164566235183 3.3748831706029474 1.564629071122058
-0.3377159316327069 3.1731905788502903 1.4408419413027957
-0.33851963311039246 3.180742185743309 1.3991424537307422
-0.34373714171984254 3.229766077167488 1.2859766188311539
-0.3463377213276975 3.254201213144936 1.2808628525925663
-0.5782382749444355 5.433146838864221 2.0157135026409425
-0.5796967411258083 5.446850637568444 1.9720615660643976
-0.5801156810456692 5.450787011551099 1.900842905479243
-0.5815018495454038 5.463811498737094 1.8812454665044582
-0.5804221556767141 5.453666657788653 1.6167668684519576
-0.5794900269247696 5.444908343783014 1.4748831941875447
-0.14747954353361561 1.3857228939467883 0.08767465671933874
-0.1547494781097502 1.4540314507694423 0.07471371492618008
-0.2543880918850275 2.3902393133741455 -0.1417558588129215
-0.24486498407834453 2.3899049551322014 0.08494377556280587
-0.3008500138775682 2.936324038424158 2.1981236112926656
-0.16229033572809223 1.6477614309095319 -0.01300437373477487
-0.18401380660350378 1.8683235321178395 0.3428674646477964
-0.5349831065817865 5.431774635617077 1.8209454641858678
-0.5349800986705958 5.431744095782247 1.9167222991244997
-0.5330664943950665 5.4123149455183395 2.006369617760436
-0.5326056401237262 5.407635813577565 2.053262316369173
-0.5324519913658405 5.406075791558908 2.0770845945245644
-0.5297146671531268 5.378283272421098 2.188969486538872
-0.32332522606914 3.282776110892064 1.381550869111852
-0.33091001874213827 3.359785803255701 1.4925327184814143
-0.19015145447464601 1.9306401167326899 0.9409586409739608
-0.44155252674567347 4.4831580391279475 2.2953357842213356
-0.43158126926872575 4.381918162985781 2.3092396629435687
-0.4273979883426486 4.339444598964086 2.308734833644192
-0.30143949704879414 3.188896786144139 2.1952702605689702
0.06095810813075326 -0.6448694249118672 0.02290270435902801
-0.34256887288807963 3.624000134292246 2.1527818268412577
0.07556847381805214 -0.7994309493330496 0.6537404400932139
-0.3456345682703322 3.6564318038228634 2.1526251901362836
-0.1877471087114829 1.986156948374251 0.8540325518357959
-0.5135568391737237 5.432863874764022 1.9163910068725405
-0.5176952559279712 5.476643751046155 1.3894278844606478
-0.517238336763113 5.471810051180647 1.1382087975327704
-0.20599057564262951 2.1791526693545156 0.39975808483570213
-0.13212944005473046 1.3977834718764506 0.027571304282514746
-0.18444815881836796 2.0365889381520907 -0.1609390372316657
-0.1242897002778771 1.372347820296898 -0.03247353585903703
-0.13814539401385365 1.5253358076744274 0.06620063397700246
-0.4883013206676653 5.391591190325243 0.29793163081727714
-0.12776100129936405 1.4106762769572763 0.08911547664093843
-0.12787346490740034 1.4119180466856307 0.10037831646330732
-0.1568092455570143 1.7314131891978946 0.2057649843375083
-0.16032666553270905 1.77025086943947 0.3390755366698719
-0.2658722174143991 3.06978526321045 1.6159920797402123
-0.26765015039753937 3.0903134422119924 1.580487970810294
-0.29403422496036036 3.3949464123810946 1.3029611397170273
-0.28545381597814035 3.295876215043089 1.23524576261437
-0.4692993115762423 5.4185733459547825 1.510884856851263
-0.4702254357545229 5.429266461550075 1.4678619584473926
-0.4716013430159077 5.445152814308626 1.4033114415882315
-0.12895327238964469 1.4889064343548646 0.12943602001253843
-0.12315145956107118 1.4219181657261781 0.10668855602114917
-0.18184296333443387 2.0995757078013946 0.10768000694660503
-0.12234773081494855 1.4126382391341483 0.06128815628165681
-0.13260586716539005 1.5310796321568225 0.02414216203745785
-0.1277842164467998 1.4754084060910826 -0.023264334567046376
-0.19132851269151277 2.209096739795613 -0.08712057423849592
-0.1190584857280887 1.374660310515184 -0.06507002128808483
-0.3121636211544663 3.604270101064318 -0.3563185543885491
-0.11563199895215952 1.3989840878515687 -0.03859744494706168
-0.44775837868562424 5.4172448168311 1.2599317556254448
-0.4572557212280045 5.532149265548299 1.6838817384536462
-0.24617979035058687 3.1280108181030455 1.6930020179117484
0.05120728553095638 -0.6506502539400493 -0.11655067977622625
-0.253830825677656 3.225226439412489 1.1935281004025142
0.05109691619000766 -0.6492478784973583 -0.033276078833764634
-0.44031458032005455 5.594727205869316 1.002180902962783
0.05083712631441922 -0.6459469351497463 0.0818544046386092
-0.11952253161620331 1.518677757301356 0.18030317222438802
0.05086203628323415 -0.6462634463134805 0.08707244813456257
-0.11381937753228329 1.446212313869119 0.11417132963879945
0.05053418809913535 -0.6420977401639385 0.19814587532806405
-0.11360798139214122 1.4435262712320367 0.07968770812951645
-0.11589912038192489 1.47263795231526 0.07547751516454462
-0.11995046605043332 1.5241151798363413 0.02401675012817984
-0.109722714318415 1.3941592723385545 -0.07145522594626456
-0.12850636782136912 1.6328282194404486 -0.16131682872004696
-0.31066025954154525 3.947312861127948 -0.4686399252256179
-0.29053237361905826 3.691563821690466 -0.5121840394480843
-0.2694361430773166 3.6044200878004586 -0.32735301352538504
-0.11299735083846266 1.5116380325913295 -0.023812961321603224
-0.16009971623060035 2.1417565833665297 0.042176041409926875
-0.1489604230741673 1.992739114669229 0.1414871486208696
-0.2368902803177584 3.169033208499392 1.330963379856495
-0.16266667295889517 2.2974286530981773 2.1290378431188057
-0.19863094122438207 2.8053712998486775 2.128926870320738
-0.2328854664931849 3.2891663293979043 2.1659873538530574
-0.2270922529065038 3.2073456672705003 1.7024534881490874
-0.218428204592561 3.0849786667890364 1.381813209118732
-0.2502711881579351 3.534714199658213 1.4352908621992302
-0.24529018812529005 3.464364865108453 1.2967886508647213
-0.23964203951274396 3.384593033402649 1.1766128042565345
-0.39380180447162266 5.561874062940305 1.7393369560803378
-0.3943196910189069 5.569188452367115 1.386856864746877
-0.3951395788869133 5.580768168396356 1.2505724144610988
-0.39520581438522284 5.5817036478581326 1.1359109788021857
-0.39135533606130085 5.527321277649164 0.9895253885490641
-0.10362651054454175 1.4635727787078463 0.09231071301726472
-0.14417442853169377 2.036252768484842 0.08823489669838032
-0.13766080933039695 1.9442574315407395 0.030619299030272627
-0.13545708267910728 1.9131330182840156 -0.07535537873010642
-0.13572500566147994 2.03004287272779 -0.2977190919731135
0.04339495044348638 -0.6490595408770099 0.02811744427454629
-0.09914059897738495 1.4828488337217567 -0.09350121905318157
-0.1973333611150944 2.951520844156497 2.2029001909075996
-0.2509639045732207 3.988957035430474 2.1972835247393734
0.03727442389936881 -0.5924600021977086 -0.695053064966166
-0.34977247057737276 5.559474218741448 1.6183700534721255
0.03988815262635456 -0.6340040306584788 0.41372433381281704
-0.3500034477679696 5.5631454960552995 1.4545534628435524
-0.35214861501181705 5.597241953010223 1.2767501213657906
-0.3526796393501644 5.605682343169269 1.1172441718210728
-0.1161629159900383 1.8463566773977687 0.3079256351416065
-0.1163731231445967 1.8496978244423983 0.2935425939495509
-0.10745819937422528 1.707999168794593 0.2367120081116042
-0.10430523872057076 1.6578842942941399 0.19661150502517963
-0.09652375523672553 1.5342011561083682 0.13313893972368554
-0.354612898271848 5.636410613794771 0.46679447841733357
-0.2635682210928882 4.189296909578596 -0.06594085399181583
-0.2759302350732063 4.385785495149246 -0.34585126269964017
-0.0986638869876179 1.568217576194706 -0.1547613359935092
-0.24528728125288599 3.898729691503685 -0.4312747873956364
-0.11267337814576367 1.9105898273902564 -0.09779172424132737
0.03721435833969864 -0.6310396976355649 0.4517311053507156
-0.11208368519843986 1.9005904702663128 -0.04486771495423341
-0.12644749039312006 2.1441559028396426 -0.033741613642508
-0.08883663825344033 1.506392904338005 -0.011851981435050382
-0.08864603364493043 1.5031608433838939 0.029569572814685162
-0.0874761142507728 1.483322651522348 0.14634835467573679
-0.10258036698937083 1.739443769994217 0.2062344281070241
-0.11047507749519812 1.873313489983541 0.2595608319799341
-0.32866373843988445 5.57311412535211 1.2940228331971255
-0.3266800088790705 5.539476245832057 1.6833012486364878
-0.2060655433172774 3.4942302903912634 1.2601859662643216
-0.4116205230498885 6.979803011380131 2.673454594215693
-0.1805110050667254 3.060904853374573 1.4135481087100588
-0.1787336911421211 3.0307671406307954 1.4286485946247742
-0.1823873390588908 3.0927216382905276 1.6716413271394586
-0.09453447728736328 1.7177677134999818 0.12180851801515792
-0.09671971640162726 1.7574752710437704 0.11073828664384712
-0.30122158501211244 5.473439195842077 0.23694076504991574
-0.11407462093512101 2.0728278866602854 0.03261185584970146
-0.09866205359837721 1.9309427523837512 -0.17510821281828212
-0.17610935199516867 3.4466855742364464 1.2578330765607253
-0.15577055602053022 3.048629287679627 1.4072707629234191
-0.09269612077062214 1.814181805952859 2.093386682900152
-0.14557234438026234 3.0868541077782887 1.2942787218539686
0.037256077785985026 -0.7900132215563763 0.9260146297084729
-0.10108579677563384 2.1435191439921235 -0.13500867020123805
-0.07761679212708389 1.6458601022746726 -0.2942399655388517
-0.15161323851800604 3.5076343051282453 -0.5137509196036268
0.0256629519006474 -0.5937228921263938 -0.6958092700336892
-0.08154305679640718 1.8865319820348656 -0.18598067278052852
-0.06346156830531169 1.468209347817038 -0.0866656813906015
-0.06466032661498916 1.4959431117791004 -0.04705580179642017
-0.08078039253965201 1.8688874324134825 0.25873981747709657
-0.24134911332949377 5.583710484004183 0.93025202838631
-0.2417891545515393 5.593891017717498 1.113733041011517
-0.24307031432530277 5.623531173265453 1.2814109276908305
-0.24225669863880145 5.604707841470298 1.4638943622153797
-0.24187886273040138 5.595966453139253 1.6272965529074097
-0.15498395021683292 3.5856170993952396 1.4536804984932727
-0.12154534693728407 3.093535655516348 1.3397252989650288
0.02537647840832461 -0.6458745048306458 0.19054437371216215
-0.12361184055079774 3.146131430150155 1.246602638011399
-0.1263066271642399 3.2147183294659554 1.158262793208005
-0.1366218539914729 3.477258383765603 1.1914502094270487
-0.22006826869937485 5.601111461885474 0.06604050762088155
-0.17073801518479922 4.345572669259027 -0.03415708359534154
-0.058454489599558616 1.487766108352554 -0.02338973029240305
-0.024909078567530923 0.6339783844993715 -0.032418294101998577
-0.1364221908738498 3.858351084517735 2.2628318307903514
-0.08815824328816502 2.8052407870075635 -0.5582725598213955
-0.11347090540700347 3.6107027557925013 -0.32717268061155547
-0.047042740527773734 1.4969242754731782 -0.03529439137790825
-0.1755467831780076 5.585989214749135 0.10974889348964359
-0.1750460948613653 5.570057054181552 0.3506112916551926
-0.17714730102092355 5.63691851830394 0.4884510740525928
-0.17323523750992215 5.512434638939951 1.6258139204410402
-0.11958384072429432 3.805219511580731 2.2515115308882914
-0.09291648572269053 2.956650516307297 2.2029001909075996
-0.156103464680117 5.677343963832772 0.5368698395760979
0.018031379411052484 -0.655785208026468 -0.07242672359161895
-0.1536034838513652 5.586421887907705 0.2855476493589845
0.017948388340796612 -0.6527668967241875 0.010258357424162486
-0.15346560246507207 5.581407264703792 0.21937696864479223
0.017790652054854895 -0.6470301685054797 0.1607838727709766
-0.15348809758726037 5.5822253922606215 0.19744891465845615
-0.05392945505365007 1.96136624352982 0.030823248033543055
-0.05185708415236974 1.8859959597804092 -0.11870165338017268
-0.043859455998940505 1.8611086421688199 -0.2724113987409643
0.019065846240219723 -0.8090298978807784 0.6379648249254509
-0.0914285828212385 3.8796314672476817 -0.06096304277922
0.015178667020893264 -0.6440834188610396 0.24344641631320738
-0.13338373105334161 5.659933734565526 0.46794754045452447
-0.07344774496004275 3.1166422332335593 1.291313911791095
-0.07211076963706545 3.0599097391501933 1.3675413796869709
-0.0682122556899636 2.8944822883687205 2.1916741022545896
-0.06529880169392407 2.7708543434457047 2.1849719160450114
-0.06294390145864184 3.205294600021493 1.1541995461540528
-0.10950788508559989 5.576474044197595 0.284986416333464
-0.07064536045345342 3.5974762785686414 -0.028260541083283165
-0.038254352894015006 1.9480278139268137 -0.06123104320668685
-0.0711435345850613 3.622844818123857 -0.18514594589097813
-0.07087378746642312 3.6091084757188594 -0.3555346913375053
-0.04911091891795439 3.1262410538306282 1.2664142256730215
-0.049090401197794654 3.1249349626291676 1.308952486474618
-0.06421128752451011 5.450171206833996 1.6534060985590038
-0.04130595910399701 3.5059964946713564 1.2935201572046167
-0.03706368814891277 3.14591801155166 1.3031723399518769
-0.035416437738025365 3.0061015228005656 1.385927960088139
-0.02835646321046031 3.6103827934854436 -0.32699234776739805
0.005103651958815095 -0.6498037882678563 0.1587103950263695
-0.028353652283730848 3.610024902537533 -0.22713052076074522
-0.03236286161974024 4.120482793381619 -0.06473171273648509
-0.01577895485674908 2.0089976204428663 0.09474484491795025
-0.015678627464403436 1.996223802764985 0.10986223152354947
-5.265181779212299e-15 3.069853984898803 1.4152220714082084
3.3627971392139524e-15 -0.6535574415163985 0.11142114089587982
-5.279323816537396e-15 3.0780994722262194 1.3752889293092811
3.365535274785275e-15 -0.654089596387607 0.11415690910977512
-9.472815112828414e-15 5.523106407672114 0.5439785009825637
-9.575406658495726e-15 5.582922208624545 0.48353346569482286
-9.484616496028937e-15 5.529987181169523 0.3915440921540982
-9.486733925743761e-15 5.5312217444420515 0.32619321545893315
-9.41205427707175e-15 5.487679920687409 0.2803945222079577
-9.408498901258344e-15 5.485606965741827 0.21553008468600493
-9.400226882077916e-15 5.4807839810645556 0.10762877359786541
-9.409452559184159e-15 5.486162994138673 0.08618353522215651
0.02165921620067017 5.515445763057934 0.30353568673199915
-0.005169209779530072 -0.6581506976181304 -0.033629429002342025
0.02434085168339244 3.0991097671208165 2.2147248529502903
0.02333975287601286 2.9716485290278256 2.2130504458467373
0.06466047405101587 5.4882975794351925 0.2804455431297119
0.06537896343918273 5.549282031340306 0.43676827698817594
0.0384780596581618 3.265968039712114 1.3529021407714423
0.04127199335142329 3.5031135254339065 1.4672822668071837
0.05120651860269317 3.2596401005437823 1.3204530689803076
0.04227237347578332 2.6909215366884855 2.1735073797497915
0.10770241714813251 5.484534134272849 0.3667567577242958
0.06149596647038431 3.131561353567722 1.5959178346484413
0.061435424689954526 3.1284783822648583 1.6410632834521108
0.05695469579218024 2.90030606044532 2.195897520006653
0.12958245564259802 5.498632451705741 0.08640340408886212
0.06647282792895935 2.820672343291144 0.11085528827967976
0.07853085848783371 3.3323363475415015 1.25953458512219
0.09109287905035927 3.312966871584384 1.3727944475305465
-0.018124010709538823 -0.6591541258428633 -0.028501905552634543
0.08645928434208683 3.144447159342456 1.4054639284784989
-0.01819365178696105 -0.6616869097970708 -0.12627123361184894
0.11836734618212795 4.304914946885781 2.280196586138397
0.08785550475675964 3.195226452163837 2.2277904591043645
0.06156202693303081 2.238956084195829 2.1366651047560947
0.058080954078127536 1.8481659258535683 0.09447916853568955
0.17258837891585105 5.491851264728116 1.6667573121385706
0.10324517410210167 3.285314709666271 1.626290162447973
0.0639152576709437 1.8076788107000796 0.09954474964959736
-0.02807996335981991 -0.7941696023837141 1.008028847953968
0.1969595385192526 5.570494390862433 0.5268957976264892
-0.023387753969023563 -0.6614625180318148 -0.09685220804553497
0.19455777827864776 5.502566774616632 1.7413208095570407
0.1928563947456134 5.454447513682504 1.9649490404304353
0.19245533039808577 5.443104439287255 2.0336568070381817
0.12019963632461618 3.399537818598864 1.4561976745426808
0.11220176760030866 3.1733386550419573 1.4941929406083634
0.2194439874399244 5.585222442817408 0.2855986705592549
0.13298005803470517 3.384568487144933 1.4030158445258354
0.14980381568880166 3.812761712752925 2.2566007485974233
0.08303802132720356 1.9211185981143926 0.07555143276638163
-0.028169781158729427 -0.6517194126725089 0.2914588660090297
0.23543014197871712 5.446772660078472 1.60715439136057
0.2332966475655863 5.397413393919079 2.188218757203579
0.2634309315645968 6.094582383570745 2.554927535990826
0.1909449570584917 4.417589705994696 2.318991421472628
0.12860702668457782 2.9753761814528636 2.217827047253759
0.2624016307193508 5.564213141734862 0.30655749467416
0.25689232985089844 5.447388698952335 2.0606842779499632
0.2566934739267275 5.443171969263764 2.1574993333636647
0.23518774221085625 4.987144029543913 2.349379951071827
0.2098807531948574 4.107635149134455 0.03230404051400271
-0.028279585903567814 -0.5534677157968124 -0.7029863103871806
0.2690003122092823 5.264680637643454 2.3553177313588565
-0.04180766264004225 -0.8182295038934294 0.6101291652616585
0.32847084845045743 5.569843311450589 0.2192199525758918
0.35160963083428337 5.5886750448305875 0.4628411291063278
0.2809219651990709 4.465126773483517 2.34638929979434
0.3025373798114832 4.5250604236620715 2.243879741881025
0.19404629551940486 2.902356108062536 2.201930983747511
0.18525956319524636 2.7709326961253486 2.1893039733641846
0.3926090899582127 5.545028716267974 0.3935919692343119
-0.047167243594804516 -0.6661682749837786 -0.07372978052866537
0.3858041258382136 5.448918558801716 1.9666424982778277
-0.04689291219298082 -0.6622937454840964 0.0891798714885167
0.38443357621835705 5.429561551555695 2.0567965828793286
0.38257777845017604 5.403351124493894 2.268706871516617
0.3639927967080994 5.140865461051667 2.3514088447802237
0.22282793024714975 2.980912132769764 -0.5338085520182153
0.3551779450000259 4.512963686944227 2.329017687289715
-0.05230215604512056 -0.6645619028526993 0.041939977942666004
0.3987031673803513 5.0660040736961856 2.270480017444444
0.229899287060438 2.7814570994232533 -0.5551528815354276
-0.05437595714686049 -0.6578723839379125 0.2347321489191686
0.38718734350886014 4.4705009525405845 2.3533548806672324
0.5002879761309545 5.523942145078094 0.2179245712828555
0.5148866965665662 5.446932296479305 2.0673993922968656
-0.06285624400163171 -0.664949604973185 0.03675752216910942
0.4680640109588096 4.752333655572493 2.3627073258781217
-0.06566139490796516 -0.6666713303886745 -0.06332391693929902
-0.06577128908300946 -0.667787104672505 -0.03428586247234139
-0.06572762994116663 -0.6673438259663981 -0.021073599760054556
0.5452504107556851 5.321694579393182 2.2405101636073828
-0.06741567535529433 -0.657983244078964 0.26488710279610095
0.5247386208314939 5.121497607323167 2.300254689809576
0.3787891481722133 3.5591159426202967 -0.2816904120004983
0.5964028096255602 5.603821435235036 0.22141818053422718
0.5815883831190883 5.4646245711897405 1.9784967143187993
0.31989878371385566 2.897606933945798 2.2067577629924906
-0.07235464606053663 -0.6553801852392939 0.3899456603030264
0.5003596589921293 4.227517413392247 2.232619253504415
-0.07887585485923294 -0.6664187328476452 0.09550744489286779
0.07485467229332078 0.6118493377691689 -0.6668299377707101
0.6790845878148889 5.550721720023658 0.8857028336015967
0.6784720448949502 5.545714898559647 1.0657893545113066
0.6706169558848993 5.4815087393223925 1.6989054827187762
0.643927925603576 5.26335715301472 2.294640125692191
0.4868055364209215 3.9790655139650233 2.28654105698634
0.2901039316270881 2.3712601099197417 2.156680365737565
0.3430211562701701 2.7152920444115622 2.140203401526677
0.3470326976931249 2.747046664534752 1.696771914430553
0.4606543650109075 3.646454773047334 2.1736471986310737
0.48838659949067564 3.8659780131747206 2.2226411161245916
0.7053098064839335 5.583102008095664 0.22110414757705713
0.3594019138941944 2.757819537693521 -0.5532030927291385
0.64122607157265 4.920357182021351 2.406725228701113
0.2692528547917099 2.004610525369734 1.03057243402072
-0.08832980938811756 -0.6576229832003245 0.4321363867347492
-0.11020823836154058 -0.8205097575396604 0.5916104140221448
0.320498183047714 2.3171319451780827 0.3987950141342617
0.7635055329486928 5.519978440727239 1.0403544180053377
0.7659384883811987 5.537568177743048 1.1119774767790327
0.7659797130782707 5.537866223309508 1.295828990214459
0.7659629417385666 5.537744970182197 1.4353878977840693
0.76221800817705 5.51066991750813 1.5454079617633505
0.7665878116226456 5.542262643125646 1.6972330192656335
0.2768385273511447 2.0014821590607745 0.9507926149983863
0.27041995400565155 1.9550772740162417 1.167237294255457
0.2621873966133775 1.8955576800430358 1.425058192035316
0.25842653760298817 1.815799496501749 0.07206187040678642
0.2876961275795304 2.0214583550508163 0.735103432838529
0.40606170330395336 2.853138239001952 2.1993881154209074
0.36504294361431555 2.494657746521992 0.20838996385433936
-0.09812307074414259 -0.6705607732635178 0.013308356321238637
0.4064134100407111 2.777378331464668 2.1950074587685613
0.37791754088563884 2.513697691124373 0.2000556170842207
-0.10085916924048362 -0.6708592045089851 0.02398657344622852
0.575190746783219 3.631611448729654 -0.2893767272443826
-0.10462568349344897 -0.6605805676306972 0.33091204272772357
0.30651677099684066 1.935270727154625 0.9694569003911835
-0.10445320890253611 -0.659491605921078 0.3568996341684883
0.2928348164816265 1.8488862661104755 1.394025589881418
0.17704402209342684 1.1178119626565464 1.3901323067905804
0.4393844869349048 2.7053617973580204 2.1432822534693674
-0.10955109175861215 -0.6745239017656277 -0.1248041034636679
0.33713698743561754 2.075807301817226 0.11573546312657756
-0.10756335503603992 -0.6622850832539279 0.3757573594125984
0.4363406581320187 2.6215205436481144 -0.42092026476734484
-0.11179806549973216 -0.6716791570658457 0.1271231785074326
0.31925332614591534 1.9180636448192006 1.149945289206251
0.34490877128580055 1.9762381511567815 0.7222442172856399
0.3500781401571156 2.005857299266036 0.19247542899107326
0.3521363174567642 2.0176501234561752 0.11271642846218503
0.35529489795994884 1.9895855429316864 0.3201045186198652
-0.12049331813388718 -0.674740237350888 -0.021540018216176342
-0.12071099639682857 -0.6759591952572509 -0.06490779380055019
-0.1236190599519759 -0.6768735481223497 -0.10897948370611285
0.39556886701132826 2.0302953283024143 -0.36938212101394946
-0.1318209151796593 -0.6765835498731286 -0.10086598218563499
0.34971919191482465 1.7581571046677502 1.3349475952683514
-0.13512403888131108 -0.6793144170035813 -0.12368676957333188
-0.1348303925986274 -0.6778381574499297 -0.13183776976490666
0.4172481087996112 2.014814907941189 -0.3258863336212279
0.36312687722678383 1.7194418972917611 1.3302926117487202
-0.14127367828803847 -0.6689449243969572 0.28634845197157455
1.2439439055086776 5.8901981735616955 2.9785971590865254
-0.14307612782749352 -0.6774797023224088 -0.01903876537570892
0.5880591547300172 2.731419139338094 -0.21989296440714834
-0.15427963143014403 -0.6776954863222524 0.06019653764316394
-0.153914745166456 -0.6760926708914008 0.09313405170654136
-0.15312791674682177 -0.6726364138109732 0.2544977326584492
0.44175921862435824 1.8724219035066973 0.15901260336449022
-0.15963216911465208 -0.6766101472320992 0.10172649235232678
-0.15889492899907112 -0.6734853125204292 0.20398758628318525
-0.16115806160262236 -0.671271636941634 0.30844524411665747
-0.19778849706824922 -0.8238483813649247 0.8082441184134136
0.4701156706910132 1.8612937243164427 -0.38186113705241786
-0.1701974076610452 -0.6738498342520599 0.2688796074527248
-0.17002781628941077 -0.6731783838508056 0.26236121131728224
0.4706627348110772 1.8331103234872004 0.10415436613415592
-0.17517786055614407 -0.6822727207429549 -0.06658567188951542
-0.1751331702858837 -0.6820986636321735 -0.022131103380057162
0.7939637425081054 3.0426305926699566 1.8596614348131708
-0.17646354700395847 -0.6762442135067935 0.21200561378737115
0.5871884086124354 2.250225444881879 1.7318531173276057
0.486457819442346 1.8060256464011442 -0.22137559586532382
-0.1835122050949279 -0.6813082976217869 0.08351211991621253
-0.18301703241708234 -0.6794699171500506 0.1543936447310839
0.7685626822995968 2.8533695206937355 2.2369252964174837
-0.18277142380595549 -0.6785580694359352 0.17163494120755404
0.6232528851695287 2.3138916671131464 2.1633784213567906
0.4301808221193786 1.5485577860203756 1.256810742966644
-0.18816930801801549 -0.6773687529485095 0.25310251687607166
-0.23802194232455914 -0.8314502105463435 0.7212046189220401
-0.19746614247489888 -0.6796829205263952 0.14947658719944384
-0.24105211896665166 -0.8297068356371848 0.7034176873228425
0.3324850925709878 1.1278702574491994 1.3767506475682287
0.791626870946625 2.6470201046283224 2.160523886211101
0.34977363530242733 1.1212704457999605 1.3752319773125123
-0.2687619301649908 -0.861570967147361 0.7708226082976221
-0.21263427624482018 -0.6816423699608951 0.2634223681465484
-0.21482049308449064 -0.6886507321786853 -0.1317472004283083
0.785782884440253 2.418391047235864 -0.4747325575207376
-0.22390691077242605 -0.6891146131440762 -0.0915354863407568
0.7690379447400405 2.366855421989527 0.22539088479525984
-0.2216364619288528 -0.6821268901162121 0.2022799657011176
0.4928497019459819 1.5168354139808866 0.7735796650540833
0.9301905596862007 2.86283217198207 2.2233385881900887
0.6867081509824748 2.113470371122832 2.153494812104304
0.3664367238436909 1.1277762723901679 1.37741998201436
0.17421569976856038 0.4610484714638475 -0.6783717247313605
-0.2578853556828051 -0.6824737908720101 0.40108561192984843
0.2452278062894577 0.5106857543653821 -0.6633011256667071
-0.3371889353418622 -0.7021943735265681 -0.1422627276227052
0.3493944719449374 0.4971380478279545 -0.6573380137920891
-0.4723772579578884 -0.6721248523259901 0.4185844109017352
-0.47211518278946946 -0.671751957079861 0.3785149433497208
0.5181078608752201 0.2639891406990439 -0.6648112349323558
-0.6799262024438313 -0.3464397039232365 0.16115796839092536
0.7095825538949234 0.2460617821147583 -0.6414446184905345
-0.8558629779918767 -0.29678741177437845 -0.11443686082352068
-0.7119622389405003 -0.24688698496109998 0.02960721161554482
-0.7275522721356544 -0.2522931372546864 0.23029516756639626
-0.7437916176415517 -0.2579244514317682 0.2799375053110704
0.728884478026577 0.1810558452562557 -0.6414446184905345
0.6463839049918843 0.1605625964147334 -0.6660274018386949
0.7544856954671192 0.11949879460942836 -0.6370144216753585
-0.85035359497271 -0.1346827782177135 0.5752706430616346
-1.0570141612165078 -0.16741459633939 -0.067330646219093
-0.7197205244448379 -0.11399253245428025 -0.6842872709889521
0.1359224751632609 0.02152800515625879 -0.11567897708522853
-0.7042096522819424 -0.11153585164781456 -0.6748285111271918
-0.8671487457780095 -0.13734286877817706 0.07603939170854584
-0.8699108851326057 -0.1377803486739532 0.13595450506360676
0.7323278295205253 0.1367207255287 -0.6362738351689957
-0.8971943268574343 -0.16750020190888645 0.4741076061563631
-0.8578748146524254 -0.16015951100598416 0.26847669064444124
-1.7297285048003197 -0.3229287849115528 -0.22229102446297389
0.7335855133621737 0.16095370761398706 -0.6414446184905345
-0.6821662566380396 -0.14967196900034976 -0.6983927977864623
-0.8342819391065828 -0.1830471960646508 0.3498676465371291
-0.8111926742720733 -0.17798125253999883 0.4650958169577697
-0.8896917230269413 -0.195204483794062 0.7779433446492396
0.5244861705217769 0.26723905178872037 -0.6783528183257347
-0.6731016180402511 -0.34296240448738957 0.07440430699780819
-0.677137924838197 -0.3450190055229104 0.13571336181011198
-0.7136203505948382 -0.36360772990521034 0.33544062659445406
0.3213440891577848 0.5685524436198098 -0.764658809677425
-0.3920353392498152 -0.693626108698585 0.009386911682817977
-0.39085394838650694 -0.6915358799224328 0.06251654029602287
-0.39133234388537 -0.692382302617209 0.18105729383726626
-0.22382101889041334 -0.6888502651128287 0.011378214132410308
0.545942289505763 1.6802375966596612 -0.3370172626150926
0.8389359540121276 2.6893796336006046 2.203012630794486
-0.21461835765968848 -0.6880027460099054 0.062419404341020904
-0.21336581183713907 -0.683987455916298 0.17797806181726142
-0.21274659112087493 -0.6820024181132808 0.24459883412249742
-0.2115987167495833 -0.6783226736210817 0.41646648547209303
0.656361490094958 2.1335363675705312 1.6897432238580712
-0.20084704185783736 -0.6813219896761125 0.1470979679014624
-0.2010848700450994 -0.682128760700707 0.16189573454499318
-0.19987999994661335 -0.6780415484360482 0.2451278119997562
0.6189340055664325 2.130384820627983 1.7208234112747791
-0.19938811234151255 -0.6862983841989576 -0.03370324172522068
0.6172635562049593 2.1246350962126095 1.730137685307977
0.4411639384992706 1.5184962363268075 1.3081511990703256
0.4328272519635494 1.4898011730562406 1.367744506374612
0.6384917238262114 2.197702928426278 2.149113807361536
0.3273296649979653 1.1266760969365741 1.3737133117954732
0.6101789404887333 2.1314564681961605 1.678282450831443
-0.19356374432627108 -0.6761503347231993 0.3723839439826849
-0.19556423294510972 -0.683138374006825 0.06435520765176733
0.7251827959827761 2.5713042390205993 0.22081988770331076
-0.19142020604854337 -0.6787248538898212 0.2888648082210328
-0.23571495943709583 -0.8357822024442723 0.6205574654896752
0.49602498759151364 1.8415447610093465 -0.18784063693425593
-0.22444116410890683 -0.8332613482367107 0.7311953838668414
0.4725153242644608 1.7542626715661402 0.09998373610182351
-0.2243646217361955 -0.8329771766546576 0.5618278559181704
-0.18269278586435114 -0.6782661178347039 0.3105453580244953
0.6054687918094651 2.247866356340907 1.7336439617682298
0.4822987892881358 1.848267083910047 -0.3411109268051209
-0.17291602008015028 -0.6734634337100867 0.3238580760997952
-0.173946267622412 -0.6774759829641198 0.17666348940013646
0.5749468206998409 2.2392700218853574 1.7500645480817825
-0.17523740505562657 -0.6825046312568649 -0.03600389121055393
-0.1753859661629264 -0.6830832385680413 -0.0778591809646959
0.4552895467457465 1.8328791493091359 0.10393484811106805
0.4510785109118798 1.8159265971759804 0.17687218736246813
0.5472832471723662 2.203222234462161 2.165641898591739
-0.16244228516078876 -0.6766208130332094 0.19036223197372923
0.5417722152737813 2.2566436837212724 1.728271434549049
-0.16398276894503624 -0.6830373897855637 -0.09997287454126104
0.6771935390742817 2.8207140926128407 2.195897520006653
0.4365343394508325 1.9175399158536457 -0.2327626292775917
-0.1518599338716755 -0.6670666165327783 0.40459571128720784
0.5137128723058368 2.2565577296244257 1.751874224280825
-0.18883417345687387 -0.8294812855646531 0.6706410752652039
0.3788474870366289 1.7266891976807481 1.316449389904012
-0.1419609209847051 -0.6721990869510511 0.2782741174010752
0.3805860766309806 1.8021129437811092 2.1057956159445337
0.343000851035574 1.7243817242439297 1.3308955951848378
-0.13520147466064342 -0.6797037129551223 -0.09585626659018198
0.4442042252085169 2.2331654439599586 2.1381662017275516
-0.13460007459704595 -0.6766802706648317 0.03253661339844125
0.39373196212786715 2.0208672369776233 -0.16203626911702523
-0.131481173609021 -0.6748397935231697 0.040545703397524634
0.3450416101693091 1.7709593135817472 1.332646388540425
0.383618854406291 2.0110004599741207 0.16921502453352227
-0.1285055581511567 -0.6736497270217945 0.12246781947810459
0.3854188496660335 2.0204363655708244 -0.24344650952739127
-0.12857633490381634 -0.6740207517525114 0.13648865267736085
-0.1275598234294712 -0.6686920119916859 0.2726251722514873
0.32602497033320177 1.7463128429894894 1.3447643559855387
-0.12353359930259397 -0.66169260220272 0.4536015322213311
-0.12362114528529881 -0.6768849663208528 -0.02974146612339741
-0.12124737455448638 -0.6638874348914908 0.40270156190017536
0.36281631232212685 2.0317040685939243 -0.16242814156379662
-0.12107365891846641 -0.6779900381265318 -0.09801876002724604
0.389314869299908 2.2306736203167374 2.160122480824875
-0.14412756380544953 -0.8258137047770258 0.6345738494091518
-0.11664685727845761 -0.6683563561079064 0.293595456261197
-0.11791728800975769 -0.6756355959783152 -0.035043610479670834
0.30792621290941835 1.8061874637684223 1.3869752316206134
-0.11373461788636194 -0.6671274883742099 0.27721174388860514
0.46538272748888077 2.7297723058479586 2.1654500860515182
0.473829715650921 2.8467535871800633 -0.5153595001972974
-0.11134471381200749 -0.6689554348072884 0.20862881140416334
-0.11005520581490034 -0.661208112519957 0.39287235027529704
0.44317838106148244 2.728721420964361 -0.5498884699009107
-0.10974378607523483 -0.6757103520347203 -0.07557659406845142
0.3051673469466417 1.9267507990137425 0.9461903872146725
-0.10589016438921098 -0.6685641858015923 0.1374088881735089
0.5832437732326669 3.6824562566725736 -0.14648760588644186
-0.10708240189674861 -0.6760916771706608 -0.14456280041762531
0.4265415641806423 2.6930774469174183 -0.3227199388496019
0.9918902120422152 6.425765013310177 0.35781950893395115
-0.1037013407404488 -0.6718086730499856 -0.008008666771135195
-0.10376268121459566 -0.6722060552076956 0.029399410355766684
-0.10248517917520109 -0.6639300103294294 0.2629348387593223
0.408033185236894 2.714010239451895 -0.32483432684324537
-0.12218379874120079 -0.8126988021482424 1.0424892211970258
0.3957179721455074 2.6320962784301942 0.10457756736016062
0.31322114441052495 2.083373176251502 0.19915000168186658
0.2715598638970375 1.855806090669042 1.3739665185716534
-0.09721119900501829 -0.6643291560315343 0.2874173885387522
0.2778214681212921 1.8985971095257042 1.304026168277144
0.29683050791617616 2.0285025061585853 0.552201260482593
0.400688584795157 2.7382555929043653 -0.5504734016669792
0.35428396502981974 2.4893288873764314 0.21777181313468086
0.3495541763476061 2.456095659909223 0.24434194722360128
0.26642787062951717 1.8720197926666666 1.385185217079676
0.26556425370409964 1.8659517038670848 1.4035739617099294
0.3238327069556752 2.341239825589831 0.4220728100433125
-0.09286856402265492 -0.6714194581492506 0.005323629864746465
0.2828416453813476 2.0448833928093815 0.6528686800960544
-0.09210722077480164 -0.66591511255805 0.16698898990035727
-0.09184394296538302 -0.6640116714313039 0.22950640588789137
0.39439363630334434 2.9362943434123587 -0.5290644464410813
-0.09029609241811899 -0.672262128478268 -0.02665044667331819
0.7533931665461077 5.609076540964721 0.2223602801780611
-0.08978040489746529 -0.668422790795093 0.07713917060836561
0.2628548008422241 1.9569764666744451 1.1677458895481483
0.714305672156544 5.481123117053164 1.9900122568543137
-0.1075305601941837 -0.8251204802708947 0.6145969180380363
0.7287936387322668 5.592294470736445 0.46613558619137524
-0.08661782875142636 -0.6646496059383947 0.2502703599476479
0.7299159410297956 5.600906298007444 0.3108429828243536
-0.08686177194593384 -0.6665214693923499 0.1753971590804001
0.7044680141432986 5.576438535584446 0.5313182435205871
-0.08342672806208118 -0.6603905527618358 0.31003918924512214
0.6952141986633747 5.503187043384065 1.2398849073630194
0.6934712843999454 5.489390456359988 1.6074909005454998
0.6932475311697667 5.487619267164482 1.9913670277405413
0.6686173906203896 5.292651628976627 2.3085383945802245
0.5574060249060455 4.412323022263911 2.332458160524708
0.25082556334525263 1.9854887788611881 1.2048621687931136
0.25001652795827034 1.9790846043379402 1.2440791231349513
0.3651731575411275 2.8906431903083796 2.2055510674965646
0.4440391605559992 3.629500444075927 -0.36013990385039335
-0.08138706681222255 -0.6652440175932516 0.14980835227747666
0.4525152814605368 3.698782812208818 -0.14640911226191894
0.6838964672218921 5.590053202460229 0.11059301870178036
0.6814819653736714 5.570317475729808 0.5082494962609831
0.664929466584123 5.435020170798397 2.0444990945174566
0.590254623934928 4.824640729901377 2.3105883030735135
0.538139191443081 4.398658064013256 2.3240994915287403
0.42715885038692875 3.491523664780007 2.2712573202561854
0.3612664440065282 2.952930361614048 2.2154387456873654
0.32530604162528254 2.6589961593953677 2.180903575035533
0.5309446424328012 4.485928633721638 2.2350120983628337
-0.07833591712286526 -0.6618568219469146 0.22235339289259762
0.6483577496948607 5.477946968114691 1.9859479456757418
-0.07798227070883064 -0.6588688784813551 0.3479591447624506
0.44769043999145075 3.9141434611361348 -0.4662898621946395
0.6371270586657294 5.570381870644782 0.46341765860603185
0.35393966860823367 3.094483410336088 2.225768212132662
0.32698167627185265 2.961762972146941 2.2190211986823765
0.4979579636431479 4.510446809189978 2.2452098895008272
0.31489287459118087 2.9587443451929896 -0.5313486400850289
-0.0712496015180814 -0.6694637211546106 -0.029100177685652123
0.3916129542129569 3.6796088678926187 -0.14538869769898202
-0.07082426400660953 -0.6654672351798177 0.11950850400725284
0.5971710962484509 5.6110402829270205 0.1108089580119518
-0.07029456422083774 -0.660490157664688 0.21006528953893897
0.5934766536966498 5.576327172879761 0.5300950127286996
0.588389845057227 5.528531342896276 1.037968969115669
0.5849334551518061 5.496054983751207 1.6766256196979987
0.48667355135037027 4.749978998760966 2.3159663999604567
-0.06824965410345854 -0.666122954010193 0.05534613677116714
0.538349731056886 5.465956547544059 2.0507946234158134
-0.06459674181381249 -0.6558617261200471 0.3006869753711859
0.2208858922238917 2.2426920999682163 2.14977360839615
0.180018137490179 1.8277548227978158 2.0997775543885333
0.5260429103504671 5.56495271062318 0.46201751589927526
-0.06306999007507165 -0.667210802239359 -0.07932163467201926
0.524339149981566 5.5469288085866495 1.1082712882088486
-0.06188969205283828 -0.6547245534012271 0.3221760779312587
0.500659558651862 5.296424898422947 2.302184897373797
-0.07709459629466477 -0.8155756387603071 0.666942876626536
0.49868435131426847 5.2755293874083415 2.3426840590112104
0.376162562824456 3.9793842525703367 2.3007693706072683
0.32601096775779687 3.4488357946083408 2.256136855496555
0.2786845692158983 2.9481747940175222 2.2052884833510302
0.5018880408902675 5.541609299957926 1.2897332131224462
-0.0592410614777945 -0.6541116553452891 0.3746257318663919
0.5011044396916143 5.532957147812176 1.4264363080753009
-0.05983360544390798 -0.6606542443008335 0.1814742657978743
0.4996982704238515 5.517430894830084 1.538985041938326
-0.06015677407347876 -0.6642225187707879 0.06304449294635171
0.2681911587560787 3.0965599748602757 2.2211183724552814
0.45701522063592914 5.529239547611618 0.524449342868086
-0.05532145614815937 -0.6693115882229137 -0.16962763442366394
0.45564497951362004 5.51266156276312 1.630620172535015
-0.05504039380001554 -0.6659111302501156 0.03151065945601321
-0.054614341912000645 -0.6607565033532944 0.2039684214133333
0.4337203215438368 5.510939203775635 0.4569111237086298
0.43056158630399066 5.470803667110779 2.0490458648665317
0.21164144227373036 2.6891594961893768 2.178531868935314
0.28316810648947943 3.788121369308132 -0.449604620592634
0.4110738672781072 5.49919876325545 1.0295281627283313
0.4115868275378866 5.506060961635649 1.6986114829910972
0.35848252835765027 4.7956506932593985 2.332547256778081
0.22390867090299113 2.9953698936519024 2.2185871872203355
0.25413143247999126 3.589234500296088 2.204992044636434
-0.04639550026614475 -0.655268530101503 0.3412368840170561
0.3884932484298338 5.486898479219977 1.049302184624601
0.3672606378031621 5.493128083305032 0.9385816343430107
0.35440594809135856 5.30086011394011 2.299008150571962
0.26861049307312207 4.017614988081565 2.3177271648219055
0.22656993743022885 3.388813169784073 2.250145853883896
0.34539692042929354 5.489926840696525 1.0269592256549622
