0.096 0.0 1.9149999999999998
-0.096 -3.2930390389303353e-16 1.894
0.096 0.0 1.9149999999999998
-0.096 -3.2930390389303353e-16 1.894
0.650230795704724 0.0 2.001204615304792
-0.6273882168109585 -2.1520978026285157e-15 1.9309023862968229
1.494627870595557 0.0 2.05717877892005
-1.4159239207910197 -4.856971611791804e-15 1.9488520853394147
1.5891902836845624 0.0 1.1546143261897361
-2.7380062360188484 -9.392043150046639e-15 1.9892779724115726
1.6450102655965833 0.0 0.5344962357976516
-0.9327105856196422 -3.1994295525719336e-15 0.30305604015274873
1.6887308844217894 0.0 -2.8963837128376586e-15
-1.008579198675047 -3.4596777865520876e-15 -1.7298388932760438e-15
1.7095861899771372 0.0 -0.5554782255313472
-2.062010721926767 -7.073210214581009e-15 -0.6699878973974459
0.8642906929627479 0.0 -0.6279439449966635
-0.949730820869792 -3.2578131974995604e-15 -0.690019831519349
0.18458422341268127 0.0 -0.25405838790942803
-0.18682419295057906 -6.408535008363649e-16 -0.2571414414837967
0.10144163472382837 0.016066776541339627 -0.14136284319483688
-0.09711834388805518 -0.015382034541955856 -0.13533817012872434
0.10144163472382837 0.016066776541339627 -0.14136284319483688
-0.09664347724457131 -0.01530682305439887 -0.13467642508642466
0.8496707963970237 0.1345746335474458 -0.6250169643742621
-0.9388344411198192 -0.1486967675141651 -0.6906056497727736
1.6735304292718998 0.26506118040631116 -0.550541072893406
-1.3847195114387856 -0.21931802482570287 -0.455530985364643
1.665967626475509 0.26386335011811995 -2.8929590175430704e-15
-0.867449620601013 -0.13739052266862625 -1.5063295122313164e-15
1.6144406668751299 0.2557022814601889 0.5311023219642709
-0.8548789339987428 -0.13539952150663048 0.2812294041897982
1.5353072528550613 0.24316877996965053 1.1293704369155038
-0.8560373392929179 -0.1355829948808174 0.6297001867837178
1.4634636360793765 0.23178986893574322 2.039393204492964
-1.3979114604773846 -0.22140742429097124 1.9480437112998314
0.650152737841948 0.10297407750856205 2.0259066505734857
-0.6202737696289777 -0.09824171385067847 1.9328023738525206
0.09481808069713321 0.015017708643862182 1.9149999999999998
-0.09481808069713317 -0.015017708643862532 1.8929999999999998
0.09130142556433472 0.029665631459994988 1.9149999999999998
-0.09130142556433464 -0.029665631459995307 1.8929999999999998
0.6198741719815986 0.20140932766288558 2.005954958028846
-0.5963880881081816 -0.1937782364250367 1.9299523940892094
1.4292962647750824 0.4644065081775481 2.068496986379804
-1.2058763670045114 -0.3918129828615517 1.7451606728210254
1.5321596516720728 0.49782884860160614 1.1704658214950618
-0.8235219232904778 -0.26757849315668436 0.6291147684325571
1.5915918729546272 0.5171395478871805 0.5437526992630234
-0.7413725973764058 -0.2408865591349457 0.2532831172571286
1.6402623341661355 0.5329535393595394 -2.95803042893892e-15
-0.732320928339767 -0.23794549358116018 -1.3206592291098864e-15
1.619590597706171 0.526236885028361 -0.5533182056081412
-1.1186342224956303 -0.36346629176901835 -0.38217107557908525
0.8212229903433715 0.26683152456184756 -0.627358539936686
-0.9063150962990945 -0.2944796257808029 -0.6923631245382448
-0.0894427190999911 -0.02906170112021466 -0.1294427190999919
0.09214797881668337 0.029940693285593085 -0.13335780774134717
0.08295970686045227 0.042270081927998054 -0.1281519692062052
-0.08421484178622328 -0.04290960511522803 -0.13009083830837814
0.08295970686045227 0.042270081927998054 -0.1281519692062052
-0.08337689488678111 -0.042482649844637295 -0.12879642021895096
0.7636275602993742 0.3890876759078732 -0.6226754609006484
-0.8476532160357706 -0.43190088591602827 -0.6911914713660495
1.503790479568494 0.7662195200475806 -0.5483811089536287
-1.117293282348133 -0.5692893619055436 -0.40743876060202355
1.6381227036911508 0.8346652069252638 -3.1532702689843976e-15
-0.7046509760083544 -0.3590376052873481 -1.3564032582243665e-15
1.5596397574312324 0.7946761484545317 0.5687474361413134
-0.6878300476422875 -0.3504669142007143 0.2508281635124693
1.4750199422841426 0.7515601991055751 1.2027574306502828
-0.7291763737114607 -0.3715339195760532 0.594583352126057
1.3667880833545518 0.6964133125348577 2.1113452662518783
-1.1820594322389084 -0.602289363540665 1.8259857669819908
0.5867863145206998 0.2989825606633393 2.026856741240092
-0.5590069943774691 -0.28482829008071237 1.9309023862968229
0.08553662632208328 0.043583087974996534 1.916
-0.08553662632208316 -0.043583087974996826 1.892
0.07766563145999492 0.056427384220077474 1.916
-0.07766563145999471 -0.05642738422007775 1.892
0.5275462065070701 0.3832847545152854 2.0069050293813495
-0.506818569608493 -0.3682252448034188 1.9280524128221883
1.1640376186220287 0.8457228341269901 1.9803790824660228
-1.1255504752665986 -0.8177602876978373 1.9149008432531127
1.266070517916353 0.9198540747200051 1.1370021657340934
-0.9328296107825275 -0.6777403836162005 0.8377331852464017
1.3208543240317803 0.9596568397088632 0.5304852539765323
-0.6444054936662004 -0.46818799642878806 0.25880795917594546
1.3637888652574224 0.9908506098296916 -2.891246674833569e-15
-0.6647107342395935 -0.4829406172467382 -1.4091937168981447e-15
1.3715595768317417 0.9964963622612979 -0.5508496411917978
-0.8304190327011709 -0.6033347433224805 -0.33351524347119027
0.6985740005728682 0.5075437203750308 -0.627358539936686
-0.7729146794166372 -0.5615553851158217 -0.694120629134229
0.08428662921267319 0.061237820665226164 -0.1433969785460592
-0.41433003898667514 -0.3010283939539413 -0.7049003651771015
0.13091654773757075 0.13091654773757097 -0.254828795580391
-0.36213773289536316 -0.36213773289536627 -0.7049003651771015
0.1305207560751595 0.13052075607515973 -0.25405838790942803
-0.36213773289536316 -0.36213773289536627 -0.7049003651771015
0.607157687213249 0.60715768721325 -0.6238462035756209
-0.640778231989505 -0.6407782319895104 -0.6583908526223622
1.208188449697342 1.208188449697344 -0.5551696497791103
-0.6434654689045355 -0.6434654689045411 -0.295676141504392
1.2505942587426175 1.2505942587426198 -3.0333818160148673e-15
-0.6456314738300762 -0.6456314738300818 -1.5660129245532567e-15
1.1987870271234313 1.1987870271234335 0.5508496411917918
-0.6441345775659819 -0.6441345775659876 0.29598360084265
1.1494399175027779 1.1494399175027799 1.1810337641669733
-0.8958169230304963 -0.8958169230305041 0.9204396128070171
1.0323574105565363 1.0323574105565378 2.009481613187342
-0.8405140027882173 -0.8405140027882246 1.6360588076942235
0.4643665423293538 0.46436654232935465 2.021156210867967
-0.4436304625435627 -0.44363046254356653 1.9309023862968229
0.0678822509939085 0.06788225099390863 1.9169999999999998
-0.06788225099390827 -0.06788225099390886 1.891
0.056427384220077335 0.07766563145999501 1.916
-0.05642738422007709 -0.0776656314599952 1.891
0.3823775188895448 0.5262975037941953 2.0021546819733667
-0.36858810893642147 -0.5073180092407544 1.9299523940892094
0.7970482979566249 1.0970428670498218 1.8664008033055368
-0.6182835661478998 -0.8509943221704196 1.447798016114521
0.840073125235885 1.1562614614483906 1.038387488862247
-0.6393153359534028 -0.8799420698862259 0.790237214296524
0.9144508256325202 1.2586335835605413 0.5054959839934939
-0.48929668913655805 -0.6734591166739685 0.2704765575215729
0.9268931740561497 1.2757590069790279 -2.7046224535062876e-15
-0.49169808558061157 -0.6767643553234476 -1.4347475198116233e-15
0.8809698136145165 1.2125509239398828 -0.4869881357410451
-0.491519328205918 -0.6765183169047684 -0.271705202181229
0.5099117694283094 0.7018333404765923 -0.6302856095405939
-0.48765579372818696 -0.6712006179005024 -0.6027757106696615
-0.11542518993877984 -0.1588691445986892 -0.27028433255014506
0.10882488768112458 0.14978460790160633 -0.254828795580391
0.08379948383115912 0.16446574732294242 -0.25405838790942803
-0.08864044750809842 -0.173966673492074 -0.26873493926109826
0.08379948383115912 0.16446574732294242 -0.25405838790942803
-0.08864044750809842 -0.173966673492074 -0.26873493926109826
0.39384298623172326 0.772960382297903 -0.6302856095405939
-0.3561805389689334 -0.6990436676369244 -0.5700126089802904
0.6972473946287027 1.3684250616343918 -0.49901795696587586
-0.35775655073599744 -0.7021367648877638 -0.256045335435791
0.6692406678501653 1.3134587654340217 -2.528315165431537e-15
-0.3558833815073908 -0.6984604632811116 -1.3444869593484585e-15
0.6554444450566371 1.2863821536431537 0.4690997060676961
-0.35389707152972527 -0.6945621104517554 0.2532831172571286
0.586148114153279 1.1503804466192613 0.9380406261514592
-0.42384807812847103 -0.8318486908731157 0.6783041811455129
0.5321799805565989 1.0444620206599111 1.613432228416735
-0.41201136294930096 -0.808617829311804 1.249112021765752
0.2963197658917659 0.5815602855280083 2.0088051748834257
-0.2855289613087885 -0.5603821390906092 1.9356523630141225
0.04358308797499638 0.08553662632208338 1.918
-0.04358308797499605 -0.08553662632208354 1.891
0.029665631459994818 0.09130142556433479 1.9169999999999998
-0.02966563145999448 -0.0913014255643349 1.891
0.19902454382709636 0.6125345620304724 1.9822034812986664
-0.19435054584019093 -0.5981494753733906 1.9356523630141225
0.3419198988513425 1.0523212437274099 1.5229336107557294
-0.25271254714472324 -0.7777692459849536 1.1255982269511724
0.7021602826278314 2.161027142302011 1.6508778354966205
-0.2588649503119299 -0.7967043959267307 0.6086280005151133
-0.22163479390628965 -0.6821217564706298 0.23304061336929977
-0.2238486345409403 -0.688935257345824 -1.242418003723665e-15
0.7635394728934879 2.3499328657077703 -4.237842190201242e-15
-0.22513326148885054 -0.692888932554819 -0.23671911987508773
0.5514769638482533 1.6972715727671703 -0.5798571950240577
0.270566535255192 0.8327181712654562 -0.6361400767474997
-0.22677356547886743 -0.697937269140857 -0.5331766295930505
0.14995844818169643 0.46152464722915776 -0.667924744128363
0.07618783471552869 0.48103105683498576 -0.6703353908317659
-0.07956804442484444 -0.5023728610071094 -0.7000760207505593
0.07618783471552869 0.48103105683498576 -0.6703353908317659
-0.07965942736442201 -0.5029498301802827 -0.7008800496187612
-0.10850986051206753 -0.6851042961652668 -0.5039620159769446
0.13709565030152723 0.865587869746636 -0.6367255471676013
0.27783835655492534 1.7542023445335015 -0.5770797016530937
-0.10762575449929428 -0.6795222704879863 -0.22354234694864802
-0.10681072173552683 -0.6743763561412396 -1.171057066003146e-15
0.4442149384671082 2.8046627405880127 -4.870307344276854e-15
0.3151381111238871 1.9897037264402933 0.654552558551931
-0.1054142386877066 -0.6655593091828461 0.21894895350730503
0.2918429627441529 1.8426239480731654 1.3554322819986153
-0.13041581520795767 -0.8234130508068509 0.6057017937108969
0.15656382140700495 0.9885050645518 1.3775200569072945
-0.1342614542949897 -0.8476934604174935 1.181293637947826
0.09684141512291292 0.611432631415572 1.9052529694392866
-0.09867629848492482 -0.6230176290217414 1.9413523693666332
0.015017708643862022 0.09481808069713325 1.9169999999999998
-0.015017708643861677 -0.09481808069713331 1.891
-1.6465195194651677e-16 0.096 1.916
4.939558558395502e-16 -0.096 1.891
-1.0522260649067865e-15 0.6134983584273778 1.8881537978159808
3.2440290848901173e-15 -0.6304749472402464 1.9404023657227403
-1.7014451377259086e-15 0.9920242747850563 1.365404276482677
4.2802755540854525e-15 -0.8318687759937733 1.1449691434823126
-4.972042043103664e-15 2.8989394325127495 2.1062027838322344
4.1279681680290604e-15 -0.8022679343627693 0.582881773169564
3.3460693615978445e-15 -0.6503064087932071 0.2112973608034
-9.347974983618545e-15 5.450318613403874 1.7709158682397328
3.3858629780479223e-15 -0.6580402723238146 -1.1286209926826408e-15
-6.973925048914612e-15 4.0661334213230145 -6.973925048914612e-15
3.4284554718599827e-15 -0.6663180958532232 -0.2164998732991194
-3.09667975846001e-15 1.8055131038393377 -0.5866467692440138
3.4449913279930193e-15 -0.6695318287607387 -0.4864433474478821
-1.5169181268758895e-15 0.8844361603887204 -0.6425804838281793
-8.393177027759047e-16 0.48936255242609905 -0.6735497697149139
2.6081001356885863e-15 -0.5068825686873393 -0.697664003343246
0.014933576337519492 -0.0942868902205254 -0.13139242988206767
0.014933576337519492 -0.0942868902205254 -0.13139242988206767
0.10410936046136897 -0.6573206323047927 -0.4835243814025848
-0.1382302288237436 0.8727513166097781 -0.6419949713161578
-0.1785108067326048 1.1270728763938334 -0.37077300761652615
0.10290890606570631 -0.6497412615458796 -0.21374529257302602
0.10185697767860244 -0.6430996470984731 -1.116744943710733e-15
-0.3768371190374766 2.3792559311086174 -4.1315868277136045e-15
0.10011025042130933 -0.632071245232015 0.20793238976030828
-0.8512788626114443 5.374763208223786 1.7681351061485462
-0.47601368489238377 3.0054321239952992 2.210792780848598
0.0982042243679323 -0.6200370703504962 0.4560986315562308
-0.1543605848993874 0.9745943767146206 1.3581349751426617
0.12077733752325892 -0.7625580977258652 1.0626542157887022
-0.09645513393543415 0.6089937479830239 1.8976532934271966
0.09882116097529985 -0.6239322547897214 1.9442023864753655
-0.015017708643862348 0.0948180806971332 1.916
0.015017708643862733 -0.09481808069713313 1.891
-0.029665631459995147 0.09130142556433468 1.9149999999999998
0.029665631459995505 -0.09130142556433457 1.8929999999999998
-0.18881838399907858 0.5811232319499952 1.880554281894561
0.19435054584019762 -0.5981494753733885 1.9356523630141225
-0.3058269963050168 0.9412387117517003 1.3621734602579256
0.23024865204270858 -0.708632485848623 1.0255425677330592
-0.3306222353381598 1.0175506107243295 0.77733949604696
0.19498269153953507 -0.6000950197853353 0.45843180215691476
-0.3420809172821769 1.0528168075011577 0.3596851621549802
0.2006647544283646 -0.61758261119548 0.2109914090174689
-0.26863371823630183 0.8267695721460357 -1.4909868386218038e-15
0.2036513429897725 -0.626774385643241 -1.1303177950219404e-15
0.2056124986620094 -0.6328102021695221 -0.21619377517434168
-0.2768189295020911 0.8519610621070566 -0.291064647325525
-0.27579623365811334 0.8488135279445088 -0.6484358351281914
0.2091316869821536 -0.6436411501266491 -0.49169808558061623
0.028340397597263443 -0.08722277512209702 -0.12622998599393534
-0.04100800296297616 0.08048273742492293 -0.12432567180425548
0.22985468230779832 -0.4511152142368272 -0.6968600207396337
-0.04100800296297616 0.08048273742492293 -0.12432567180425548
0.22985468230779832 -0.4511152142368272 -0.6968600207396337
0.303961089530624 -0.5965572275775854 -0.4864433474478821
-0.3517950260063333 0.6904366138244837 -0.5629942645958166
-0.42516056651547085 0.8344245943697801 -0.3042861958601995
0.29950848523757284 -0.5878184996151861 -0.21435736232013602
0.295151441077124 -0.5792673189729394 -1.1150485922671506e-15
-0.41226362095649566 0.8091129135268075 -1.5574850948140303e-15
0.2892492601709343 -0.5676836367210597 0.20701486441731481
-0.42086363924146974 0.8259913997604339 0.30121089735636297
-0.4981873174896246 0.9777476630145618 0.7972727915601121
0.28135548285637635 -0.5521912264353903 0.450266522977708
-0.46049379900499965 0.9037699676471846 1.3960982439129952
0.34997721691746625 -0.686868962609664 1.0610405156459524
-0.27880268000245395 0.5471810687358041 1.8900536880312664
0.28707045146669463 -0.5634074838686329 1.9461024030136547
-0.04358308797499667 0.08553662632208323 1.9129999999999998
0.043583087974997006 -0.08553662632208306 1.8949999999999998
-0.05642738422007763 0.0776656314599948 1.9129999999999998
0.05642738422007789 -0.07766563145999461 1.8949999999999998
-0.37022100741675296 0.5095655011870402 1.9385023615325627
0.37312397745071085 -0.5135610966574456 1.9537025099670016
-0.6558910274051225 0.9027565519196687 1.5358611812711336
0.48861550318340985 -0.6725215446435618 1.1441619911704202
-0.705260831634215 0.9707082578777926 0.8717503297679189
0.36851967373376804 -0.5072238162650875 0.4555153677809762
-0.7309309132879827 1.0060400941630567 0.4040486714943924
0.37891992887680453 -0.5215385394122501 0.20946178507721763
0.3856234123676383 -0.5307650928932106 -1.1252275546739945e-15
-0.5729371734197639 0.7885803670608161 -1.6717986355411875e-15
-0.5933129970765868 0.8166252823567758 -0.32797535839711156
0.39054449170357314 -0.5375383775203955 -0.2158876853661145
-0.4583108196169811 0.6308107260771345 -0.5665033278702338
0.39684734924959014 -0.5462135166940384 -0.49053030036309214
-0.2900425344242412 0.3992093005491614 -0.6791754284275988
0.29484820528625344 -0.40582373903936714 -0.6904285833245773
-0.34933462663926057 0.34933462663925874 -0.6799791447254969
0.35387698859694966 -0.35387698859694544 -0.6888208430957298
-0.3497475368316287 0.3497475368316269 -0.6807828735804233
0.35428996826833303 -0.3542899682683287 -0.6896247071914188
-0.5838031661368555 0.5838031661368525 -0.5998497532025583
0.49673412871067224 -0.4967341287106662 -0.510387510376287
-0.8015324668298351 0.801532466829831 -0.3683088503353728
0.4884839584121833 -0.48848395841217734 -0.22446123217146996
-0.7702080887656287 0.7702080887656247 -1.868180022958231e-15
0.4807000104015006 -0.48070001040149485 -1.1659630294290021e-15
-0.9779286898330307 0.9779286898330256 0.44936394515238315
0.47049189768574806 -0.47049189768574234 0.2161937751743393
-0.9260810149067149 0.92608101490671 0.9515355524932875
0.4569567617717956 -0.45695676177179007 0.46951681092594966
-0.8533841312423749 0.8533841312423704 1.6611104867188695
0.6450413579879237 -0.6450413579879161 1.255571699653269
-0.454107386372035 0.4541073863720327 1.976503216107861
0.4510515618941747 -0.45105156189416923 1.963202734570644
-0.06788225099390874 0.06788225099390839 1.9109999999999998
0.06788225099390897 -0.06788225099390816 1.8969999999999998
-0.07766563145999512 0.05642738422007719 1.91
0.07766563145999529 -0.056427384220076954 1.898
-0.5183059545287916 0.37657131848357744 1.97175302195674
0.5160583784805773 -0.3749383588996213 1.963202734570644
-1.1098711375559511 0.8063685820400812 1.8882255606571285
0.8638153727969338 -0.6275986046817695 1.4696104902732523
-1.251689278205572 0.909405492464676 1.1240870077980143
0.8825534407762481 -0.6412126079613968 0.792582371470214
-1.3062584594719877 0.9490523233731601 0.5246232215198599
0.5741426681321843 -0.4171390655404949 0.2305888042166383
-1.0303827955783038 0.748616921112687 -2.1844223159566276e-15
0.5868452245052492 -0.426368012959912 -1.244118020917035e-15
-1.0774159185280452 0.7827884851605789 -0.4327148321959559
0.5985679096793125 -0.43488504228128677 -0.24039853889352503
-0.735737423872495 0.5345445278884708 -0.6607333734706884
0.608021132653801 -0.4417532107989699 -0.5460369978263285
0.40346127736372084 -0.2931317764081061 -0.6864093234563929
-0.4010989950775861 0.29141547786407734 -0.6823903687838818
-0.4427888760817338 0.22561220111667668 -0.6839979136850955
0.44382955886254505 -0.22614245547834846 -0.6856055079344843
-0.4427888760817338 0.22561220111667668 -0.6839979136850955
0.44434991216246295 -0.226407588727385 -0.6864093234563929
-0.7930648962021934 0.4040867477156721 -0.6466791868711833
0.7952191886178026 -0.40518441452707393 -0.6484358351281914
-1.3396655954644177 0.6825937147012239 -0.488530360345547
0.9854971322600068 -0.502135869290242 -0.35937719888639985
-1.3161261223178684 0.6705997540653664 -2.5334496386548484e-15
0.9714063527427319 -0.4949562585229757 -1.8698884792355145e-15
-1.3075253748160731 0.6662174543285261 0.4768099178499808
1.2542471538507654 -0.6390708448429083 0.4573811674402718
-1.274881905140169 0.6495847757688535 1.039561324326516
1.2050695394076112 -0.614013598738697 0.9826350827015492
-1.2113618812411289 0.6172197070397984 1.8712507116679093
1.1783967167170866 -0.6004231167680224 1.820327788855887
-0.5741339911553139 0.29253587991343954 1.9831535288936502
0.5705584402259215 -0.2907140457189479 1.970802986071587
-0.08553662632208345 0.043583087974996236 1.908
0.08553662632208361 -0.0435830879749959 1.898
-0.09130142556433483 0.02966563145999468 1.906
0.09130142556433495 -0.02966563145999433 1.8989999999999998
-0.6084244617070478 0.1976890912785215 1.9689029172577197
0.6095987700325154 -0.1980706471829136 1.9727030588254746
-1.377904319065735 0.44770825278884363 1.9941218638500384
1.3667325314413246 -0.4440783189475359 1.9779539009139515
-2.4309535948789467 0.7898647036043509 1.8570832963400248
1.705098482138104 -0.5540200808634895 1.3025793320217949
1.7568936117210077 -0.5708493386339102 0.6002265153049646
-2.5702713099071333 0.8351317732511715 0.8781095118347285
1.4143179328892725 -0.4595397531311237 -2.550564866690838e-15
-5.724186295466351 1.8599008723034733 -1.0322932429898494e-14
-1.8562744643978566 0.6031401350970462 -0.6341790679765197
1.4416903592568384 -0.4684335935916306 -0.4925402282257944
-0.8733442228473859 0.28376673959433335 -0.6671756184986809
0.848047028503306 -0.2755471828925066 -0.6478502816598262
-0.4737417545456582 0.15392802697981775 -0.6856055079344843
0.47263093423939057 -0.15356709958333392 -0.6839979136850955
-0.49429617271611775 0.0782888226702009 -0.6888208430957298
0.49083525022393204 -0.07774066639826775 -0.6839979136850955
-0.49371933045163796 0.07819745983098574 -0.6880169910797028
0.4914120486875948 -0.07783202230011503 -0.684801704662989
-0.9045942461877325 0.14327365340323667 -0.665418597579401
0.8751392345239671 -0.13860843786611549 -0.6437515212790722
1.6519572368113407 -0.26164432239242 -0.5434441427657952
-1.926834231171358 0.3051805613022269 -0.6338703894247929
1.7783931296199986 -0.28166980051185153 -3.0881863244576345e-15
-4.721114830976533 0.7477511302120694 -8.198233570735395e-15
1.734502426730649 -0.27471819609927167 0.5705990224294567
-4.6797584848706535 0.741200928480222 1.5394994988310948
-2.809731464689446 0.44501774549706763 2.0668355770420637
1.6781749696912027 -0.265796803341175 1.2344637825531952
-1.4628835087416117 0.2316979857920289 2.0385847746001997
1.4675245367736578 -0.23243305241940984 2.0450522267439175
-0.6352128789384917 0.10060783631760818 1.9793533443279299
0.6352128789384919 -0.100607836317606 1.9793533443279299
-1.318793502132435 -4.5237900904268385e-15 -0.6719588519643644
-3.8215549665750497 -1.3108885098280991e-14 -0.6052748445504489
-1.010926867489225 -3.467730875151637e-15 0.4187396190813841
-4.064780845275679 -1.3943210425196932e-14 2.0711092872854278
-3.37062795443889 -1.1562093166330379e-14 2.0655234670066336
-2.2732003925810274 -7.797643370917799e-15 2.0521932109744103
-1.853950682550603 -6.3595124728027875e-15 2.0536084988795094
-1.0187793633094981 -3.494666891077884e-15 1.999467081223067
-1.0203851357427416 0.028056368613954358 0.3316685317232621
-1.0012327963040906 0.02752975853675127 -1.717887911490706e-15
-1.0092535519775114 0.051568089171272785 -1.7332535988498095e-15
-6.419514052440455 0.3280068447060214 2.088547543233226
-0.08423557357353982 0.006629483415588017 -0.11629883101037261
0.18960288939414935 -0.014922071014197675 -0.2617729476665556
-1.9637805519281633 0.1545528812657309 -0.6400440225181221
-1.2209925898890872 0.0960942008444783 -2.100629845320343e-15
-5.5757163622387 0.438818394478119 1.8172620792090777
-2.9037089636025395 0.22852685155745367 2.116191563354201
-4.999876946511322 0.5321262808147079 1.6337331915006599
-5.116997310610819 0.5445911523350793 -8.825851527461003e-15
-7.730224083113445 1.0074108520623166 -1.3370409327427415e-14
-4.902032158401406 0.6388379354124817 1.6062352910692703
-1.289384493867251 0.20421844142429552 -0.6651634800234626
1.0093724420871921 -0.15986888931898324 2.0056984348059035
-2.430691018703126 0.38498363659916307 -0.6318748065454426
1.641215892339205 -0.2599430605598679 1.661673854882478
-3.1525651547267755 0.4993172676180245 -0.6088802932112425
1.7049655490004076 -0.27004001425103336 0.8795520834066847
-3.9471789124727907 0.6251717229128009 -0.5048603270215984
1.2024616254344336 -0.19045121155615652 -0.6203219933021653
-4.74333612885226 0.7512706380394012 -0.30214532454553983
-4.705403454073241 0.7452626925745137 0.5070284542826023
-4.686860726315821 0.7423258130165645 1.00215064708238
-4.72393839873604 0.7481983394113774 1.9811101054331246
-3.941710071305551 0.6243055435653039 2.0334365743838747
-3.267671981322916 0.5175483979259873 2.0273925318697925
-2.2825850669286596 0.361525958318632 2.0863519342853154
-1.845016073836404 0.2922218382443458 2.0691868172154964
-1.008924449095388 0.15979793419971058 2.0048082392695497
-4.309903979964656 0.8046303517996705 1.424568243520669
-4.5931610046614635 0.876192322071641 -8.019897400822976e-15
-3.8087833946884215 0.8043724084686186 1.2648454770604003
-3.9672321174870393 0.8867814420584752 -6.972210402618076e-15
-3.4616606891652304 0.8310712026111952 1.1567220622424763
1.6556624612268223 -0.397489389146855 -2.9203569449131694e-15
-2.6890908191368013 0.6455935869120861 2.009254709331834
-3.490075424482338 0.8960990633989212 -6.180072197887635e-15
-3.789124808690794 1.0206108621456405 1.2750402551426756
-3.818280454212783 1.1093130184833406 -6.819607845435066e-15
-3.7804436865314557 1.1144377296716015 1.2806010618646502
-1.2373353767015216 0.402034634736083 -0.6628984221096983
1.165472048453765 -0.3786848239515316 -0.6243978766634157
-2.012408822903894 0.6538712634343472 -0.5878053252168899
1.5009705025825875 -0.4876948797536757 0.24996450675850304
-2.125451159118548 0.6906009449786702 -0.5087668473831479
1.7246788840062193 -0.5603821390905955 0.923991128340153
-3.8434828810787645 1.2488232901964749 -0.7380682439431597
1.658293516125905 -0.5388122255246146 1.7436329889056341
-3.697952621529866 1.2015376424711515 -0.5222582719739857
0.9693481276681704 -0.3149602991858711 2.000357272419844
-2.1330936431432885 0.6930841385664537 -0.20313022042347495
-3.717231592162516 1.2078017597527948 -0.1689414080886614
-3.8174557160953686 1.2403665516562663 0.20509186522906647
-2.0031926050163014 0.6508767327178941 0.224167049350443
-3.810121139612744 1.2379834032935348 0.634519499027292
-3.8004109183239203 1.2348283611420159 0.8439080343281861
-6.431648584909549 2.089769304485591 1.8215338959955825
-1.9202320417817116 0.6239212117124008 1.0287580995016132
-1.8720044300824306 0.608251110769032 1.9683419418383568
-0.9736619021884411 0.31636192949261877 2.0092592241407012
-2.570981189375564 0.9142213757493378 -4.680041776792467e-15
-1.9526216570189574 0.702987053141362 0.6743099195890314
-1.5849575743450492 0.5706198384811266 1.2238948024475098
-1.6734173141392787 0.6398527117539486 -3.0727722697073646e-15
-1.5595115929951235 0.6174543197115162 0.5449869304702654
-1.4565555485825836 0.57669113805357 1.1381762891502203
-1.6110392534336357 0.667314308287632 -0.5665872729338263
1.466727295930861 -0.6075383382773678 1.1534401618179058
-1.5491154021653357 0.641664609257928 -2.8758357396402425e-15
1.5013682120340417 -0.6218870755403334 0.528017004621627
1.1573290331304285 -0.4793813816507558 -2.14850887890439e-15
1.175165858283385 -0.4867696365387878 -0.41329472107561505
-1.3561562975074255 0.5868612348586553 1.0736042044213145
-1.4504581262960539 0.6276692802100953 0.5135167948005989
-1.4652694765971948 0.6546795864792041 -2.7525584188872926e-15
-1.3424077609217326 0.6316891431118777 0.48205314011183675
-1.2646892353632022 0.5951175809955521 1.0154984996278629
-1.3827311655801628 0.6573085453067863 -2.625877453708204e-15
-1.2501967787424237 0.6370070756452157 1.4031286469885773
1.2174742620636185 -0.6203341206258527 1.3664033079585236
-0.908951475444013 0.46313390909423147 2.00213765698946
0.9061225093354052 -0.4616924788661342 1.9959063237121504
-1.2180133051782245 0.8849384658883467 1.505547242699476
0.5672126872700619 -0.41210413972589977 0.3572351402377026
-0.7864156553189681 0.571364418278432 1.907781465104058
0.870124010869463 -0.6321820985352558 1.0755324262894157
0.80476191043448 -0.5846937528494836 1.9522880122801118
-1.129587263719537 0.964758664488378 0.4826700041821635
1.282782928110226 -1.0956001225412024 1.2256562857655708
-1.0659010610166406 0.910365508829323 1.0184328983578284
-0.9824515114804564 0.839092860359842 1.7782981187874274
-0.8548486708184115 0.854848670818407 1.2089385840480058
1.0605867479843483 -1.0605867479843354 1.4998961630726295
-0.6886352766540446 0.688635276654041 1.911341913812183
0.630914911314097 -0.6309149113140894 1.7511361310198184
-0.6844546632303138 0.9420710238523844 1.164463825114373
0.4941314881824719 -0.6801136466698611 0.8406666997092239
0.4706186931156061 -0.6477510606400836 1.5713922518358696
-0.04829993115727959 0.07416265908101992 -0.12181550249551358
-0.6210044065828315 1.0133870885966005 0.3861763012801419
-0.045061507363947824 0.07828529800996754 -0.12432567180425548
-0.30173142400547476 0.5921812625941706 -0.6646205684448852
0.3396234904819101 -0.6665486303361153 1.4681995123653773
-0.03820220259598972 0.08286698338057667 -0.12559321152919925
-0.03527404551513205 0.08515907908239713 -0.12686872334359808
-0.28202564407981173 0.8679856818456776 1.79118463375283
0.22290840792517672 -0.6860415373692481 1.4157227308623326
-0.3111385182544608 1.0554574882514225 0.3575294574610836
-0.2970540341760393 1.0076794944751255 0.7632705530767548
-0.2638932909692151 0.9083266653475706 -1.6223092377585143e-15
-0.28519983363610074 1.0588342777316104 0.3562976665577801
-0.26819508580186735 0.995702368916957 0.7492030355550414
-0.27137810339448 1.0569479291800585 -1.871596947710507e-15
-0.02119394748971 0.0882791446061967 -0.12495842995733274
-0.25156481906486455 1.047842883013709 0.35013916422814
-0.23997311843135843 0.9995599750300094 0.7468585935425367
-0.24108697191896727 1.0785611118387972 -1.8955167686495607e-15
-0.22266932043267718 1.0543613893782668 0.35013916422814
-0.21841040131297568 1.0341949835547228 0.7679600462189101
-0.206716243282597 1.0836444964854153 -1.8920995088044074e-15
-0.20750776770229495 1.1114899554725501 0.36738481899343456
-0.5585879989304281 2.9920082362864524 2.2113803746630585
-0.17723955881039113 1.1190465328994292 -0.23927598291191646
0.10495994883838908 -0.6626910359585683 -0.670951563080378
-0.17982161655432766 1.1353490038911869 -0.12233897818388852
0.11723897741104249 -0.7402177712078938 1.4708679999794783
-0.3640140855471253 2.298294483986184 0.11889579640159144
-0.8545993877393406 5.395728178779558 0.5814140583093769
-0.854560727515836 5.395484087734848 0.8652129344777892
-0.35019998538023506 2.2110756881336093 0.47277507504538224
-0.24422712442647904 1.541989376772393 0.4205161989929286
-0.27754902796227665 1.7523755956933882 0.7349056461175397
-0.7165593695530866 4.524177804870338 2.333918134773432
-0.5758204299629573 3.6355871118594103 2.255661584661809
-0.40067987365818686 2.52979315920915 2.187580218063751
-0.3330125106627734 2.1025582436027985 2.1287668965859066
-0.28027008631549205 1.769555681992521 2.097709790949332
-0.14184836789247807 0.8955953476353049 1.7796148498538205
-0.3000661796704316 2.302515209030766 -3.982493973831763e-15
-0.19479720694161803 1.8303212965557014 -0.5980660494814919
0.009952868878300308 -0.09351750035737674 -0.1294427190999919
-0.1431259840651885 1.3448166985449617 -2.3195541823709294e-15
-0.5773114879240264 5.424438715952918 1.772460736598138
-0.2403291618312841 3.053671534301484 2.225482656542236
-0.16814970395082096 2.136544564726243 -3.6757711026965356e-15
-0.09344169144528311 1.8287735789610196 -0.5949797031781398
0.025835755705337096 -0.5056388288313028 -0.6968600207396337
-0.09855620134808597 1.9288710882730953 -3.3125697193891934e-15
-0.2811312370930243 5.502098374550578 1.790072262311903
-0.09799375925999117 3.5639457379632047 -6.114920848633813e-15
-1.8884336969618225e-15 1.1010475901750778 -0.561011768298717
3.6882819447906826e-15 -0.7168152022372589 1.4068290464166415
-3.947442495975432e-15 2.301548661486477 -0.5525529466121802
-5.504542310765752e-15 3.209412676778724 -0.5083210305820764
-6.202042723738407e-15 3.6160889345076646 -0.28459237117537617
-9.46537306083691e-15 5.5187673337483725 0.43433640873393614
-9.433640999114145e-15 5.500266016944215 0.8711565547297674
-9.387380623350302e-15 5.473293994925481 1.3140216303823515
-5.4304572865312965e-15 3.166217547644646 1.2535942090593437
-6.034039964634816e-15 3.518135252918858 1.6555087864972402
-5.37056543824429e-15 3.131297722112179 1.721445490131789
-6.127156701374455e-15 3.5724267849737523 2.267130976807936
-4.4125502395418606e-15 2.5727288257937966 2.197317999045581
-3.671707026639476e-15 2.140781632955591 2.1407816329555875
-3.096217572182713e-15 1.8052436270302505 2.113668717435792
-1.5715376250455282e-15 0.9162819524506849 1.7983045858844826
0.1495432242714058 5.438753863594424 1.7678261326587672
0.125051182872472 3.979193159632012 -6.828180971221556e-15
0.09684983184132832 3.0818116192274774 2.2401725946156064
0.27773452631498813 5.4356203942172945 1.7684440796535281
0.2525526256811854 4.014209034325634 -6.898480836780182e-15
0.1937564320680425 3.079670298292923 2.2419353913180986
0.4328496781530387 5.499876630599958 1.7925440592362787
0.4077773051424872 4.313833291796373 -7.431743506012811e-15
0.2907761624319363 3.0760904889529668 2.2448733877736733
0.5830477707676772 5.4783370280318096 1.790072262311903
0.5505950432749401 4.358408551102233 -7.534626061555884e-15
0.24658622292113688 1.9519309439675074 1.4294323435012934
0.7122000394399796 5.464965843481556 1.7906902114552439
0.1887827719441607 1.1919275123070094 -0.6148876892756124
-0.11043333049364606 -0.6972486076748906 1.3854850625724933
0.42268656628962503 2.668737948143939 -0.42795540750733363
0.32635018360710355 2.060493966063848 0.33041817969670384
0.3059621329088114 1.9317688800862336 0.9965546483541526
0.33754548593861755 2.1311783231166905 2.157743728991001
0.14794929945898685 0.9341151135542989 1.856156501865894
0.22039820721522593 1.1553678631704463 0.38217107557908103
0.453438159751544 1.8887058625633406 -3.3314129007599922e-15
0.5608333812397052 2.3360391539367904 1.7454589624971202
0.3742903164840329 1.1519471451670293 -0.6171519535153501
-0.21996775581280142 -0.676991140774457 1.3970462346377723
0.8017183659581933 2.467435416360589 -0.41091498850099123
0.790571597909376 2.433129191844033 0.27227905607192804
0.6702738884600317 2.062890911911892 2.1690518665997804
0.3034673759974954 0.933976547177269 1.9273640966428784
0.7819828695150833 2.1196573182887035 1.6414787981603949
0.7825841370999187 2.1212871253933483 -3.877963246737444e-15
0.7191324845295441 1.8807590069798645 0.6542438592439973
-0.06932990645353793 -0.18131964390520744 -0.2671863596915689
0.07106579231772125 0.17156799963423303 -0.2555994418299116
0.6295181747143056 1.5197913151556377 -0.5344962357976575
0.7582210478111095 1.8305075369023265 -3.398222617208668e-15
0.5376639988984195 1.2980357181403224 1.0207804360980361
0.6017259158592121 1.3467513513406275 0.47927728909847805
-0.07918870277537507 -0.17723599676002857 -0.2671863596915689
0.6367950856697082 1.381315322027128 -2.6087601807167048e-15
0.5706253355421969 1.2377820383025644 0.9902637790472307
0.29726100523153437 0.5834075717444328 -0.6547736250033307
-0.3984848752436293 -0.7820706024380661 1.7226585201380535
0.5422202158991737 1.0641670920209925 -0.6085479748794151
-0.3157857209099282 -0.6197643733463504 -0.6955778173576286
0.5594238869752919 1.0979311976082373 1.232236990193038
0.4524263428240705 0.8879366933937985 1.9558486221698554
0.6560504029553256 1.0705769569041728 1.7281883138500724
0.7035841309636566 0.9684004773888016 -0.6099064568023993
-0.6280341704643853 -0.8644148776652987 1.0684755495564686
0.8010761511240945 1.1025867313278395 1.3628721510105033
-0.5820278378680597 -0.8010925932525319 1.943386542348836
0.5868265016828796 0.807697387369664 1.959409244481318
0.9943136056626667 1.1641916537699302 1.112346280115388
-0.3447521907909462 -0.40365295300393056 -0.7306368595109678
1.101930199116531 1.2901944955218967 -2.910082624838187e-15
1.0381312893112082 1.2154955696578815 -0.5193784230165024
0.4600111411694271 0.4600111411694279 -0.6505539946845321
-0.851354215353395 -0.8513542153534023 1.203996677736279
0.8344733958208054 0.8344733958208067 -0.6013030045946756
-0.9010946376353293 -0.901094637635337 0.6493087925245539
1.1175313194716288 1.1175313194716308 1.580427948373476
0.7328943012232347 0.7328943012232358 2.0341850669172183
0.8543006727716058 0.620685770472164 2.07246508651783
-1.1921160735854301 -0.8661230257785909 0.7508043495581226
1.2220136758907327 0.8878449053387779 1.5104919728353396
-1.179153995132721 -0.8567055245313557 1.4575144939245013
0.9612106490081883 0.6983604148760837 -0.6053782447093399
-0.7996248754889792 -0.5809614784937401 1.9398259764745913
0.5783946736125135 0.2947068060575998 -0.64914751790329
-0.8798543350927502 -0.4483081755777597 1.93804569830761
1.0483306286197351 0.5341511347662484 -0.5994918334103305
-1.1972959356740434 -0.6100527498021755 1.488470048364166
1.5182490257404166 0.7735865172848655 0.8682164454289878
-0.8489259268975888 -0.4325493644899728 0.860140580324164
1.4786737153504108 0.753421889469516 1.659554307638046
-0.6241537270622611 -0.3180222083350247 -0.7005041041992563
0.9424961179669866 0.4802257581538837 2.0760260809591684
1.0068790949317243 0.32715484966847996 2.077806582078289
-0.8229843247364783 -0.26740381679782355 0.8653369286006454
1.5366708721953846 0.4992946330036802 1.6157513732007145
-0.9395840678919894 -0.30528936992474764 1.9389358369926766
1.125744935636864 0.3657767025228631 -0.603114204591015
0.12203448032781894 0.019328362867017262 -0.12355565547557942
-0.1202893299049165 -0.019051958194004185 -0.12178875153313658
1.1603280447510744 0.18377790796076268 -0.5985862587043852
-1.262884159561951 -0.20002120080694702 -0.20251449023527057
1.4974768952211772 0.23717703994853076 1.5161431330847348
-2.027592482384882 -0.32113910052877487 1.8532809834150563
1.046557079014435 0.165758357227383 2.079587085787477
-1.7312493663225417 -0.2742029619472107 1.9415973751700366
-0.9766699380975306 -0.15468932152738077 1.940716116752258
1.059602544648675 0.0 2.079587085787477
1.590318364353504 0.0 1.590318364353501
1.1854556350659549 0.0 -0.6040198153126873
0.1281119228006691 0.020290935191684203 -0.1107818269634613
-2.1166974280015425 -0.33525193747041826 1.8014488992791282
-0.869177821928439 -0.13766424286863874 0.6881594801375177
