0.5236537542616737 1.0277283593611766 -0.374777487334069
0.5361212620955216 1.0521972212133544 -2.025405183191705e-15
-0.4813909409276642 -0.9447829179196552 -1.818640251433846e-15
-0.5959912760682637 -1.16969873960101 0.4265492438468637
0.5283884624016313 1.0370207472971582 0.37816610434580594
0.6268478317183213 1.2302581398835062 1.003174314424175
-0.5758830611469544 -1.1302341457494924 0.9216129749878346
0.5612345407344436 1.1014848056977808 1.7015181495075273
-0.5577691429230508 -1.0946835795473973 1.691011958524298
0.2870704514666905 0.563407483868635 1.9461024030136547
-0.2894527902492459 -0.5680830869909561 1.9622527076020946
0.04358308797499638 0.08553662632208338 1.922
-0.04358308797499605 -0.08553662632208354 1.894
0.029665631459994818 0.09130142556433479 1.922
-0.02966563145999448 -0.0913014255643349 1.894
0.20522510289569781 0.6316179205971898 2.043958526859567
-0.19673520848082449 -0.6054887123241854 1.9594026326898728
0.35606977613732016 1.0958700881035137 1.5859580904051387
-0.4491602389061753 -1.382373072835264 2.000589105060241
0.3854978112778317 1.1864402673868815 0.9063597130405482
-0.4908371038338408 -1.510641273904219 1.1540272436459396
0.4050860779497511 1.2467267532448467 0.42593270852900117
-0.510977105590355 -1.5726258257489243 0.5372731239788724
0.4213088336267912 1.2966552613196898 -2.338373343662295e-15
0.43822140171757074 1.3487067937040376 -0.4607732497587736
-0.4105207903567812 -1.2634530781492612 -2.2784969043393957e-15
-0.28793094204646835 -0.8861603201797933 -0.3027485087512063
-0.24716795908854736 -0.7607047586040421 -0.5811267247659223
0.25314027731674615 0.7790856640937319 -0.5951684870720471
0.14562964580050838 0.4482019634048902 -0.6486439749693356
-0.15392802697981672 -0.47374175454565853 -0.6856055079344843
0.07372246882693666 0.4654653492216595 -0.6486439749693356
-0.07792337959920834 -0.49198885597311637 -0.6856055079344843
0.07363118128047394 0.4648889823369095 -0.6478407854133565
-0.07792337959920834 -0.49198885597311637 -0.6856055079344843
0.12739194336389315 0.8043210753711855 -0.5916577562068381
-0.13154992779448774 -0.8305735558678672 -0.6109690538728382
-0.27248956867764634 -1.720431426971696 -0.5659700875929774
0.2365423096817407 1.493469366037838 -0.4913064099286359
-0.2830757181122919 -1.787269743999268 -3.1036005985441537e-15
0.47016903513209424 2.9685304577185923 -5.154864248278659e-15
0.586656832643411 3.704005465696835 1.218506163628554
-0.30087079427082286 -1.8996234330489545 0.6249188569455629
0.3844225554904326 2.4271484920029933 1.7854079356264205
-0.2923487572000241 -1.84581740858508 1.357781388268325
0.2380380436039738 1.502913058354888 2.094367500899388
-0.23050350976658268 -1.4553418839267234 2.0280752286031953
0.10442285173214408 0.6592999382905185 2.0544097593728092
-0.0998352114352084 -0.6303347174169712 1.9641527625356823
0.015017708643862022 0.09481808069713325 1.9229999999999998
-0.015017708643861677 -0.09481808069713331 1.8949999999999998
-1.6465195194651677e-16 0.096 1.9229999999999998
4.939558558395502e-16 -0.096 1.8949999999999998
-1.141170469145893e-15 0.665357220141497 2.0477589627701738
3.277382643511046e-15 -0.6369571897114223 1.9603526566602567
-2.7286946307352094e-15 1.5909600915977589 2.1897687062663143
7.557442689611856e-15 -1.4687840818682476 2.021607855359305
-5.451982331283836e-15 3.17876768307769 2.309509908405004
9.212389256410243e-15 -1.7904218730482182 1.3008176338405428
9.461098048922073e-15 -1.838758265458335 0.5974487770584649
-7.725226135890645e-15 4.5041780572780565 1.463496166149701
9.670489602401955e-15 -1.8794533779798845 -3.2234965341339848e-15
-7.299711922143811e-15 4.256082823442233 -7.299711922143811e-15
9.299813849078069e-15 -1.8074127858937532 -0.5872640133600735
-2.6129538589683696e-15 1.5234776599699469 -0.4950078984950577
-1.4036129130554484e-15 0.8183737760794499 -0.59458335212606
4.625398108112227e-15 -0.8989431203807996 -0.6531204072144972
9.872626258409353e-16 -0.19187385058861595 -0.2640916989613599
-2.1011847635054826e-16 0.1225091685290486 -0.16861940465533964
0.01500784158602023 -0.09475578254573463 -0.13204584948067993
0.01500784158602023 -0.09475578254573463 -0.13204584948067993
-0.1275179251901934 0.8051164933177923 -0.5922428648306787
0.14049960164643016 -0.8870795727063541 -0.6525348217714566
0.2828902404409491 -1.7860986840707602 -0.5875726360408215
-0.23654230968174583 1.493469366037837 -0.4913064099286359
0.27792078553946703 -1.7547227806594194 -3.04708267491148e-15
-0.7496279661057191 4.732964706442697 -8.218810923825466e-15
0.27189527646218203 -1.7166792135960247 0.5647357224798938
-0.1385068207865239 0.8744976495337291 0.28768337031464525
-0.5381358252529318 3.397655881791559 2.499312173880359
0.26440612658457513 -1.669394582212657 1.2280049385501541
-0.2509945184838645 1.5847170212526127 2.20836448853972
0.23004409832361045 -1.4524412742326935 2.0240331167576744
-0.10437455860781994 0.6589950275036539 2.053459642954027
0.09983521143521544 -0.6303347174169702 1.9641527625356823
-0.015017708643862348 0.0948180806971332 1.9229999999999998
0.015017708643862733 -0.09481808069713313 1.8949999999999998
-0.029665631459995147 0.09130142556433468 1.9229999999999998
0.029665631459995505 -0.09130142556433457 1.8949999999999998
-0.205606688353797 0.6327923198795993 2.0477589627701738
0.19673520848083126 -0.6054887123241832 1.9594026326898728
-0.49163370567603376 1.513092962279582 2.1897687062663143
0.4524272334700564 -1.3924278482205088 2.015140512697473
0.5245493303780021 -1.614396838540647 1.2332894419843017
-0.24293839239609877 0.7476874908252894 0.57118241706427
0.5385630286834666 -1.657526567110315 0.5662786800320021
-0.2709723482195401 0.8339671351449925 0.2849171879659806
0.5502325050986407 -1.6934415225607506 -3.0539331721653724e-15
-0.732970853334296 2.2558523285362435 -4.0681784200057485e-15
0.5617499819873386 -1.7288886715708918 -0.5906588855262069
-0.44174085474917113 1.3595385563592388 -0.46447382167147716
-0.25338915229346465 0.7798516225123834 -0.5957536272359594
0.2782868349383466 -0.8564788105023389 -0.654291589935631
0.029061701120214858 -0.08944271909999105 -0.1294427190999919
-0.04018004017012249 0.07885776894950096 -0.12181550249551358
0.08685389217260203 -0.1704603612219578 -0.26331856498650025
-0.04038597742742346 0.07926194357415475 -0.12243985106197716
0.08685389217260203 -0.1704603612219578 -0.26331856498650025
-0.3700714325833331 0.7263060813753868 -0.5922428648306787
0.40811163645911164 -0.8009641851335393 -0.6531204072144972
0.8274478176207202 -1.6239577796197113 -0.5922020256021776
-0.5369976909182781 1.0539173096282146 -0.3843277044586592
0.8310382592331154 -1.6310044180476007 -3.1395680729063176e-15
-0.5026445777627483 0.9864955288523652 -1.8989340753332787e-15
0.8127863798267523 -1.59518308777946 0.5817088766990839
-0.3431794289546595 0.6735275525396697 0.24561253126067564
0.7900848392614829 -1.5506288057749114 1.2644102393883982
-0.33279782883549835 0.6531525150818506 0.5325921489889154
-0.5265827185716548 1.0334767754861864 1.5964627759620202
0.6652141106404136 -1.3055562019531222 2.0167573454797734
-0.30276661482956985 0.5942129389807422 2.0525095274060265
0.28931265148581065 -0.5678080491815939 1.9613026816314814
-0.04358308797499667 0.08553662632208323 1.9229999999999998
0.043583087974997006 -0.08553662632208306 1.894
-0.05642738422007763 0.0776656314599948 1.9229999999999998
0.05642738422007789 -0.07766563145999461 1.8949999999999998
-0.39108716150548983 0.5382852984245432 2.0477589627701738
0.37348685220464595 -0.5140605509081574 1.9556025468459244
-0.4455383191646741 0.6132308873753695 1.043290700104594
0.8550440066848017 -1.1768671120081795 2.002205920305383
0.9906267173359036 -1.3634807036768282 1.2244819629546333
-0.42472953120670964 0.5845900478431091 0.5249945726231083
1.0087771062033564 -1.3884625707635112 0.557638269480103
-0.4393233433360919 0.6046767070087437 0.24285197137569361
1.0248886668933521 -1.4106382316077948 -2.9905678220648324e-15
-0.681818731476632 0.9384429750430209 -1.98950893370281e-15
-0.7091898987577324 0.9761161548309194 -0.3920305342420372
1.0344563789740076 -1.4238070575358828 -0.5718334223451741
-0.4810280364424051 0.6620782925990716 -0.59458335212606
0.5307542994306033 -0.7305206219486167 -0.6560483934465017
-0.05149098538181018 0.07087126134676862 -0.12057339150711582
0.11344122873334112 -0.1561384562646037 -0.26563860807265244
-0.33612503635326085 0.3361250363532591 -0.6542667039312329
0.1364700148406679 -0.13647001484066626 -0.26563860807265244
-0.33612503635326085 0.3361250363532591 -0.6542667039312329
0.1364700148406679 -0.13647001484066626 -0.26563860807265244
-0.5758303133390482 0.5758303133390452 -0.5916577562068381
0.6362187006058723 -0.6362187006058645 -0.6537059966060893
-0.939683304191014 0.9396833041910091 -0.43178996705496175
-0.9041131013319097 0.904113101331905 -2.1929736379554622e-15
1.291547908519084 -1.2915479085190682 -3.132717036581328e-15
1.265272843170318 -1.2652728431703026 0.5814002620152812
-0.4684935676298229 0.46849356762982053 0.21527553084120732
1.233443451652081 -1.233443451652066 1.2673462443836092
-0.5467952494649767 0.5467952494649738 0.56182462595108
-0.5127758498091514 0.5127758498091487 0.9981171553004222
0.9808602005214745 -0.9808602005214626 1.9092423979332662
-0.47244322686014134 0.4724432268601389 2.0563099948178905
0.4499602068371853 -0.4499602068371798 1.9584526097217871
-0.06788225099390874 0.06788225099390839 1.922
0.06788225099390897 -0.06788225099390816 1.8949999999999998
-0.07766563145999512 0.05642738422007719 1.922
0.07766563145999529 -0.056427384220076954 1.8949999999999998
-0.5390345536234221 0.3916315272717998 2.0506092989272124
0.5123124656886682 -0.37221679395010004 1.9489524354897698
-0.9844514586288632 0.7152458514507746 1.6748488581319683
1.1098711375559533 -0.8063685820400778 1.8882255606571285
1.2026655524559362 -0.8737876708262888 1.0800609590425094
-0.5676743534551202 0.4124395598430891 0.5098033325761516
1.303185711959823 -0.9468198416277439 0.5233891359627015
-0.7216597778858883 0.5243165193849972 0.2898350435708089
-0.8715426345672594 0.6332127889829451 -1.8476795113682325e-15
1.346019757610956 -0.9779405974398149 -2.853575980559403e-15
1.125780290693929 -0.8179272583793668 -0.45213906830211414
-0.9193523565037872 0.6679485852219431 -0.36923289681573207
-0.658820593667365 0.478661179625077 -0.5916577562068381
0.7324768904508079 -0.532175611693629 -0.6578052320208666
-0.11327158969752418 0.0822966271300247 -0.19270913867903988
0.15613845626460507 -0.11344122873333921 -0.26563860807265244
0.17196225070148075 -0.08761914308474414 -0.26563860807265244
-0.15948729442308934 0.08126283537957431 -0.2463679250707669
0.1724631548237021 -0.08787436648277258 -0.26641237948621527
-0.15998439620787572 0.08151612138991206 -0.24713582282531718
-0.7220008380929115 0.3678778015646423 -0.588732293074789
0.8067094915763959 -0.4110390163068783 -0.6578052320208666
1.2449455546668082 -0.6343314433376857 -0.45398919140050087
-0.9027616194410379 0.45998001993200993 -0.3292063786252349
1.2183392671243682 -0.6207748627182461 -2.3452168631220035e-15
-0.8516535677268361 0.43393916690954687 -1.639372843399548e-15
1.1891424628035339 -0.6058983478728723 0.4336397066718753
-0.8049121608900562 0.4101232305810348 0.29352401773803066
1.156856318764011 -0.5894477358186929 0.943321167192805
-0.7600382629713666 0.38725883757344753 0.6197486841782959
1.0978225960022308 -0.5593685516931679 1.6958609527563309
-0.8802400176870294 0.44850469067496423 1.3597503644805145
-0.5953131954619686 0.30332722350772207 2.0563099948178905
0.5656077571580005 -0.288191546703461 1.9537025099670016
-0.08553662632208345 0.043583087974996236 1.922
0.08553662632208361 -0.0435830879749959 1.894
-0.09130142556433483 0.02966563145999468 1.9209999999999998
0.09130142556433495 -0.02966563145999433 1.894
-0.6336731221918067 0.20589287837351708 2.0506092989272124
0.6013787153251443 -0.1953997895043768 1.9461024030136547
1.0595790732644765 -0.34427811061983005 1.5334372403355907
-0.6997142273814374 0.22735093421061703 1.0126359428311624
1.6259261509998153 -0.5282954310799862 1.2420970529692656
-0.743859302544 0.24169453862261556 0.568257941448032
-0.7854056191324796 0.2551937551881404 0.26832659344183907
1.8635026418655882 -0.6054887123241712 0.6366485082115476
1.9717530219567447 -0.6406613929404856 -3.555836963277825e-15
-0.8314959359820534 0.27016940693818214 -1.499510309382522e-15
1.7108215736534995 -0.5558796260201849 -0.5844864279839364
-0.8798594492720666 0.2858836649851292 -0.3005958742586566
0.8679776940986456 -0.28202304870346384 -0.6630759553378494
-0.7737241475489985 0.25139821498968246 -0.5910726528943603
-0.17023604935500536 0.055313045444317824 -0.2463679250707669
0.4759634964994681 -0.15464991470055556 -0.6888208430957298
-0.17679302777074504 0.028001264756749036 -0.2463679250707669
0.4937193304516382 -0.07819745983098403 -0.6880169910797028
-0.17679302777074504 0.028001264756749036 -0.2463679250707669
0.4931424968859137 -0.07810609836951636 -0.687213151185728
-0.8003440943755947 0.12676205145472363 -0.588732293074789
0.8982249821090631 -0.1422648610768543 -0.6607333734706884
1.845204517260313 -0.2922516847505679 -0.607016673776419
-0.858615452124693 0.1359913278387652 -0.28245860603875805
-0.8095502394309081 0.1282201615868559 -1.4057870201658598e-15
2.5855318949525032 -0.40950802212327186 -4.489785810827711e-15
-0.7606000047921027 0.12046720606983415 0.2502144779423878
4.89577004892423 -0.7754137991564574 1.6105607930575614
2.84248071635298 -0.4502047173928338 2.090925892899766
-0.7136967187304784 0.11303845535758232 0.5249945726231083
1.0128502552720846 -0.16041972081382574 1.4114460221947156
-0.6589615795204952 0.10436926096772375 0.9182884590807534
-0.6605195842247433 0.10461602467082906 2.058210233731638
0.6157007311431815 -0.09751741570951626 1.9185525698565287
-0.7922222801160791 0.031126498159618234 -1.3598082044768085e-15
5.42466341936144 -0.21313560622726596 -9.31115169229029e-15
-0.6403299067274411 0.025158630555530227 0.8820185110636831
0.9724958499170043 -0.03820946600774727 1.3395584565824685
-0.7455050683773131 0.03809178750809463 0.2425452715436357
5.531538693963357 -0.2826354983499553 1.7996504805818951
-0.6959521422916272 0.03555986705453046 0.5062984411340398
2.872547876328581 -0.14677362764292953 2.089750750790316
-0.1778889884805968 0.014000167018727243 -0.2456002913288131
0.49891489281094353 -0.039265453624439596 -0.6888208430957298
-0.8468404636166246 0.06664778989477661 -0.2760059805216582
1.8596052002396792 -0.14635410327878712 -0.6060907322299226
-0.7963273074062692 0.06267231828392325 -1.3700238006629915e-15
4.416383957497533 -0.3475769554478905 -7.598070640507335e-15
-0.6452694310813551 0.05078380558785091 0.8908834752098386
0.9801909536189106 -0.07714270106385236 1.353288845042411
-0.7073387591469117 0.0752805613433279 0.516814006091496
2.8504923462595424 -0.30337184433392994 2.082699908287605
-0.751672573718441 0.07999891503775984 0.24561253126067564
5.585188494386611 -0.5944197453180724 1.8249864790040065
-0.8011403979588895 0.09482121470574065 -1.3836463281152007e-15
3.993273357959674 -0.47263504801217854 -6.8967662010032435e-15
-0.6520825155699248 0.07717905172707092 0.9037791693010567
0.9898101790093333 -0.1171517548495721 1.371865983201412
-0.6133795090646733 0.09714977024974497 -0.6210253618009509
0.6696395838879768 -0.10606049071324788 -0.6779867255337692
-0.8884628106202214 0.14071868500924514 -0.45833730574118164
1.2621632446580022 -0.19990701910334963 -0.6511206704963345
-0.8335014141115461 0.13201365498376386 -0.13365922179887507
3.240107520354884 -0.5131826162027067 -0.5195795020659189
-0.7971852861271654 0.12626174537820364 0.050779831000104615
2.5715642723262393 -0.40729576803094675 0.16380583212847072
-0.7885712374179249 0.12489741409446228 0.1008614865529919
4.995436738181345 -0.7911994519534443 0.6389367903452603
-0.7778702790060966 0.12320254878546878 0.15023635050060768
4.969234683827987 -0.787049454239335 0.9597483074340551
-0.7689176382491878 0.12178458978975917 0.19988541537348642
4.946775978058559 -0.7834923446956308 1.2859483538253502
-0.7461144783682653 0.11817292407438842 0.31290309232246377
4.879950787455945 -0.7729082742824559 2.046538079673529
-0.732677506180874 0.11604471675483215 0.3779712894518129
4.223261454971845 -0.6688989018898729 2.178682386673107
-0.7178618629384738 0.11369814939183663 0.4453898029404974
3.418371424261661 -0.5414168448530472 2.1208924079030207
-0.699941275655127 0.11085980720467682 0.6052580555274052
2.3879069119632423 -0.37820729979837314 2.06488736210414
-0.6856239789959357 0.10859217018635049 0.6941703681373896
-0.6705851935293095 0.10621026056705819 0.7949414310309506
2.0083242909478156 -0.3180873188119268 2.033358305857576
1.1037341465389992 -0.17481431506665138 1.3084154114850544
-0.7352937622499824 0.11645909100808355 1.4610836263944085
0.9341151135542997 -0.14794929945898186 1.856156501865894
-0.7644285424501474 0.14271371471306313 0.2526693474094988
4.5183442956547175 -0.843544769689838 1.4934647794485794
-0.717695272010071 0.13690769521994806 0.5308387509629943
2.8253480568268863 -0.5389639666581109 2.089750750790316
-0.8126421468649769 0.17162092278822375 -1.4245252510400868e-15
2.342262141600157 -0.4946595395083821 -4.105880525809156e-15
-0.7645505667702296 0.16146451952259835 0.25389690779262586
4.264631903703001 -0.9006425097309184 1.4162266046025669
-0.7216770080796024 0.1613139234037688 0.5372681957136086
2.8093923876331095 -0.6279735994856345 2.091513464135048
-0.7680904098016234 0.1844021924465087 0.2566592172350242
2.0466122609662745 -0.4913481319309199 0.6838803013031666
-0.7271645547713629 0.18670412447151094 0.5454523628966073
2.791414255933963 -0.7167133646321711 2.093863750277526
-0.8192502489654927 0.22066723719206308 -1.4551949532477305e-15
2.2314647070529374 -0.6010509638767301 -3.963643812320198e-15
-0.772766622001197 0.20814674842830602 0.2600359187488971
2.026829358964157 -0.5459318876828471 0.6820279493187864
-0.730214568279963 0.21214694326222844 0.5524684232933138
1.7364065555771802 -0.5044727386005193 1.3137368571207415
-0.7776182555977118 0.2292342368190687 0.26341319866542623
-0.9086694266421198 0.2952445940806837 -0.4868167034439279
1.1882970519073506 -0.3861011171401855 -0.6366262983661601
-0.8548789339987435 0.27776700355077966 -0.14236748204415697
1.9362174624380428 -0.6291151897362028 -0.3224484706013776
-0.805388403136319 0.2616865552965556 0.13412556382193894
1.8902406014471917 -0.6141764020293133 0.31479170229039566
-0.7560310835004029 0.24564938999358346 0.4050412052828539
2.790818669040768 -0.9067919541858293 1.4951720664717343
-0.7117474664414348 0.2312607705906893 0.7483755741604604
1.9378714133530517 -0.6296525909650917 2.037598586571946
-0.7933826026893706 0.2577856342623003 1.6372329133381793
0.9080965625687712 -0.2950584592599847 1.87395788070861
-0.7899035017465864 0.3020298005440781 0.2747771051448521
1.6820012519298235 -0.643134891175894 0.5851036662495599
-0.8351967909795569 0.31934827436115965 -1.5336100071311686e-15
1.7219200354029927 -0.6583983533376699 -3.161834224334705e-15
-0.16485619213875075 0.06828567062505479 -0.2456002913288131
0.17778742398516803 -0.07364196223403097 -0.26486504728076093
-0.886199862527214 0.3670760020319413 -0.311668112563658
1.4662785901360431 -0.6073524782516388 -0.5156763163751539
-0.7441746749481626 0.30824724313811586 0.5852219153992337
1.3584894430649161 -0.5627047516581506 1.0683214851076013
-0.7132936472806413 0.29545590265820987 1.0626542157887022
1.0694365215255184 -0.4429751113129681 1.593230547405071
-0.7936981743825579 0.3546228191423086 0.28245860603875494
1.3233522918728575 -0.5912712610526777 0.47095011142161525
-0.840899655145518 0.3757123500447501 -1.5796585284677375e-15
1.3540978341699776 -0.6050083102703422 -2.5437187172542443e-15
-0.5533376490510868 0.2819396143549434 -0.6210253618009509
0.601583165297843 -0.3065219327066595 -0.675172570532899
-0.7358527223696328 0.37493568912708347 0.8258668173501091
1.13756534066233 -0.5796184915302469 1.2767194288487962
-0.8168172485055063 0.4161891756995675 1.7991945844111494
0.8515672493332369 -0.43389518549124445 1.875738038178717
-0.9204028691272608 0.5640236036074363 1.4857684655005932
1.1171405763948261 -0.6845846256778373 1.8033540481163897
-0.6292340215113275 0.38559510430659777 0.2397852408040715
1.1978122136825051 -0.7340202685882652 0.45645607242606223
-0.8616526869452729 0.5280214456629497 -1.7332535988498095e-15
1.2186169951822428 -0.7467694550883832 -2.4513035524872816e-15
-0.7656740026636766 0.5562947255232475 0.9464251158966557
1.178582554807264 -0.8562903488326756 1.456808154837141
-0.8686128236651458 0.6310841567635458 2.1071852195871403
0.7768759396714137 -0.5644334091554021 1.884638878137896
-0.9169895557621378 0.7228962769412874 -0.3793983755995555
1.0883290925768359 -0.8579694764972415 -0.4502889779352029
-0.584680727660161 0.47219923830129024 1.0344164181075555
1.077785832792291 -0.8704402680299164 1.9068173584337422
-0.07222998599137148 0.06169023594652676 -0.13074075077246627
0.14675663728784324 -0.1253420093711131 -0.26563860807265244
-0.9196280775139833 0.785436578814588 -0.3929549334312644
1.0321587595188202 -0.8815468608369454 -0.4410390314893864
-0.5575787564811011 0.47621724653524317 0.2382521026630834
1.339699856026489 -1.1442117713503983 0.5724506250025311
-0.5451829299196674 0.46563021048876774 0.5209040986634609
1.2133453661211755 -1.0362948420006828 1.1593110121770813
-0.5482789893998654 0.49497370466700047 1.0166691602831703
1.028762486560719 -0.9287431928638408 1.9076257043651108
-0.9263889277097563 0.8563451163523369 -0.40990437460006285
-0.7251967137369809 0.7251967137369771 2.0128200249327235
0.7133298910246009 -0.7133298910245922 1.9798830604714188
-0.5008056010070192 0.5008056010070167 0.7082460730565325
1.2219431246993537 -1.221943124699339 1.7280885393983707
-0.47450803200040886 0.47450803200040637 0.3419199542790686
1.2533432830477382 -1.2533432830477231 0.9031313468584021
-0.4713250417125824 0.47132504171257994 0.10557182441005471
1.2798314443975718 -1.2798314443975563 0.28666870750483125
-0.9207729373298068 0.920772937329802 -0.13858714140239423
1.2997427159390622 -1.2997427159390464 -0.19562654402391405
-0.9398020576368685 0.9398020576368638 -0.2806869874486963
1.2125520036753086 -1.2125520036752941 -0.36214814201652784
-0.4411193149251118 0.44111931492510953 -0.6238369177918232
0.4754292797041444 -0.4754292797041387 -0.6723585353068721
-0.8889204653447715 0.9466041502433589 -0.4219253358513595
1.0409426112462776 -1.1084912929625312 -0.49408251691193783
-0.3165797299149269 0.3506732029310743 -0.6502503974262944
0.12932833125742146 -0.1432561085447823 -0.26563860807265244
-0.8424369671813045 0.9555571700491683 -0.4139111632874732
0.9058084861354592 -1.0274380485867673 -0.4450472365504614
-0.7956813496950286 0.9618135288749392 -0.4055896022097123
0.8821622928118245 -1.0663510313707207 -0.44967228848972135
-0.29939865545149646 0.3707177172915288 -0.6558733255743783
0.12090785817903228 -0.149709039672023 -0.26486504728076093
-0.7540322600947065 0.9720925322294276 -0.39973423611225406
0.8528852741380393 -1.0995330700226238 -0.45213906830211414
-0.5617676828452999 0.7732068821732507 1.875738038178717
0.5950910417622406 -0.8190725509158937 1.9870044812104626
-0.4386423994486527 0.6037394681532169 0.7462630233369456
0.9684018459474034 -1.3328907925128997 1.6475436261295162
-0.43498478933022877 0.5987051997140858 0.3770693794073623
0.994769133530003 -1.3691822504334534 0.8623220605284025
-0.6356931358533647 0.874956539156192 -0.551054708369989
0.7370204475807428 -1.0144216190676938 -0.6388909442275417
-0.38392253543853405 0.5894980681552687 0.9682770855615934
0.7986840723989002 -1.226348219459781 2.014332097029716
-0.34919578191883155 0.6066573767838642 0.9634387022970461
0.7306752996729399 -1.2694012457555441 2.0159489288476853
-0.28289692263777133 0.555216472343965 -0.6231340144784282
0.3052443874481186 -0.5990758415521532 -0.6723585353068721
-0.4893803916498509 0.9604630978402172 -0.5492444537324077
0.5648168528755676 -1.1085154891399296 -0.633908773440312
-0.33476591438037157 0.6570151004479515 0.3757165691747462
0.8030797772025793 -1.5761328074964942 0.901317504867998
-0.32696961856140594 0.6417140083696239 0.7202124686507442
0.8057071608126515 -1.581289338171614 1.7747225135214786
-0.47899016673814565 0.9400711332739433 2.07068459320902
0.4598392236082418 -0.902485291096854 1.9878946621451532
-0.5996147134397328 1.2742461282760826 -2.4153684916583828e-15
0.7730192773631981 -1.6427495843325843 -3.1138769015134476e-15
-0.5658613297123939 1.266481117691911 1.9092423979332662
0.5986850093102537 -1.3399453539650976 2.0199910168153044
-0.6231011199496089 1.4399017307849666 -2.690927036645515e-15
0.7170719353714983 -1.6570554726690874 -3.096749783192372e-15
-0.03267147165677396 0.07887590997647141 -0.11750815190940667
0.06488136961091931 -0.15663748246002052 -0.23335618047525133
-0.5790134163160379 1.3978620424661494 -0.49161486344332045
0.6953018420502426 -1.6786071370206646 -0.5903502587319035
-0.673491389540196 1.7010450753037718 -3.1378553099489936e-15
0.660625126210742 -1.6685486036130446 -3.077910263383347e-15
-0.5669456236745817 1.4827422083308335 2.184917665137623
0.5239404467042621 -1.370270062135664 2.0191825982614993
-0.681977699073409 1.894265931163452 -3.4530431635982202e-15
0.6055210124311595 -1.6818993143182925 -3.065921649976711e-15
-0.3344781336427353 1.029417845457343 -0.5515072778928977
0.385826427408844 -1.1874516438433178 -0.6361733737329237
-0.5303536536626496 1.632260708758271 -0.27182895484223973
0.5556493623299463 -1.710112894884768 -0.28479408858184246
-0.27415049096743377 0.8437484527589778 0.09441957831480856
0.5465288497758289 -1.6820428435463612 0.18822882042126415
-0.27185312237207 0.8366778792542032 0.18579022101080864
0.5422827420951432 -1.6689746678404418 0.37060758995554527
-0.26262754371481084 0.8082844676998417 0.4330357866937888
0.5315057702280336 -1.6358065589444382 0.8763780679185553
-0.24527323399072784 0.7548733943629913 0.716552998158981
0.5376438953182706 -1.6546977654837831 1.5706986810747534
-0.7163579483039163 2.2047230642195883 2.3181830169337343
0.5326986927728203 -1.6394779970216538 1.7238491813380876
-0.6360253231474583 1.9574846662774887 2.2798775339047666
0.5267551982280541 -1.6211858017079357 1.8881910807649531
-0.33374303717087916 1.0271554511476761 2.119649089900866
0.3134185190515767 -0.9646030163308663 1.9905652093817243
-0.23003706264526377 0.780341635958229 0.5910726528943571
0.4788361074839262 -1.6243284763467853 1.2303536008394376
-0.772694538306056 2.6211677074296467 -4.686898033886334e-15
0.5023501948726719 -1.704093976783965 -3.04708267491148e-15
-0.9407922875965468 3.492789983895232 -6.204075450372741e-15
0.4618030012718101 -1.71449204956347 -3.0453700576332844e-15
-0.2071905100516476 0.769216486792547 0.5787867387830076
0.43896307297373294 -1.6296964216186338 1.226243448067664
-1.1373331868449768 4.737333661681543 -8.355993799008609e-15
0.41403869996729 -1.724595301782246 -3.0419448315524978e-15
-0.2245338072473217 0.9352506157047872 0.698807452183245
0.3936269335811525 -1.6395741759469307 1.2250691240609406
-1.0343789833231023 4.8978874138611515 -8.585777054160007e-15
0.3662746302177045 -1.7343468209267958 -3.0402322227594557e-15
-0.1985765509245189 0.9402797283607922 0.6982215879337126
0.3484137493085394 -1.6497737725413517 1.2250691240609406
-0.9210841495151628 4.933674491645343 -8.608069582898339e-15
0.32549541346751476 -1.7434763364644819 -3.0419448315524978e-15
-0.6326546162794284 3.3887370051937973 2.504600895578077
0.3095970733423103 -1.6583188237914985 1.2256562857655708
-0.10540015147677093 0.6654703660334331 -0.6737655378542319
0.10540015147677363 -0.6654703660334326 -0.6737655378542319
-0.16890688140039137 1.0664360782807456 -0.5501495763488116
0.1940664103273796 -1.2252870921519936 -0.6320971208511839
-0.2654907468123835 1.6762426048188737 -0.4571284208480598
0.28268641631694974 -1.784811789199132 -0.4867363425569061
-0.30860969492088847 1.9484849287501382 -0.4166275778610945
0.2812463309424233 -1.7757194479844547 -0.3796866384022582
-0.36571351851843176 2.309024281482859 -0.37027218352913727
0.28067062853050356 -1.7720846060091944 -0.28416922322012694
-0.4367454103559197 2.7575019961620266 -0.2971332827124471
0.27977733480728073 -1.7664445714111467 -0.19034237326518894
-0.5630988418119344 3.5552661654018185 -0.1839216884957083
0.27865072977303085 -1.7593314671697113 -0.09101406167965885
-1.0673998696867142 6.73929754399835 0.2949290281586197
0.2770372909121519 -1.7491446151180017 0.0765470760235307
-1.0643531318539998 6.720061198392232 0.6162036194114275
0.2761656639325377 -1.7436413789552312 0.15988517023100993
-0.1394045428800372 0.8801656437614059 0.11969466557235443
0.275447220335919 -1.7391053046088714 0.23650278706708389
-0.1371437354297519 0.8658914672977784 0.16011109484752842
0.27447428908798077 -1.732962458468527 0.3204402942333653
-0.1368440915413418 0.8639995902434662 0.19914417558479422
0.273881297909348 -1.7292184595162454 0.39856938407729176
-0.13672337829215322 0.8632374367835605 0.24279177408579844
0.2725968342193413 -1.7211086749479205 0.48407426598880987
-1.0468791294107365 6.609734688998644 2.558820710689245
0.27068092067506705 -1.709012072905773 0.6616083235909365
-1.0331556712767183 6.523088184418408 2.9508329158408344
0.27000495958545745 -1.7047442225523892 0.7711708354661149
-0.8694417855448232 5.489439390405332 2.8318741427921856
0.26823026150592744 -1.6935392198646662 0.8736575058869682
-0.15321521231385501 0.9673627788178483 0.5637609004475486
0.2667294816183267 -1.684063668576134 0.9814407490101031
-0.6176712536862257 3.8998228135325914 2.571497860279185
0.26600781962408504 -1.679507274066907 1.107447586233853
-0.4125958648432247 2.6050277666025363 2.381074334737172
0.27124469839163406 -1.7125716253176881 1.5653423720551234
-0.364855094594283 2.3036044061315315 2.3323191248197555
0.26900624531532435 -1.6984385888166094 1.7196098394694053
-0.32271016193636837 2.0375117737267487 2.285070879274401
0.266136872252397 -1.6803220802943846 1.8844823882708124
-0.16909351697436292 1.0676144489186006 2.121429652611058
0.15880456859792275 -1.0026525855224127 1.9923455778899521
-0.8527854147981243 6.543727752887372 2.1441651364573597
0.22534521914974162 -1.7291545316586865 0.5665872729338202
-0.5319996021977069 4.998686669842538 -8.621788072634808e-15
0.18875720222182862 -1.773569203219707 -3.0590710745216174e-15
-0.716495420252313 6.732215759979946 2.1997830060792634
0.18474522118844053 -1.7358724906123837 0.5672044601227968
-0.5328280598959182 6.770222418216129 2.2065807636411914
0.13741125042033894 -1.7459754808944943 0.5690560327183598
-0.2704075927591538 3.435854235813877 2.504013259553161
0.13356298399018537 -1.6970786197536174 1.2368124707015178
-0.2560068769664251 5.010382468329729 -8.604639961713013e-15
0.0927975273371202 -1.8161664623376668 -3.119015088715022e-15
-0.26686513261593087 5.222892438325812 1.6992344095718375
0.09072742649758372 -1.775651937583522 0.5776969193591126
-0.1829204668949855 6.652654447585706 2.1623954087560087
0.04918157287519334 -1.7886899977967348 0.5814002620152812
-1.8579638405771575e-15 1.0832821997357465 -0.5519598497496727
6.392294194441898e-15 -1.2423382280252895 -0.6330029440587012
-3.029320147764427e-15 1.7662392139745127 -0.4534931521188544
9.819627417751554e-15 -1.9084382156011077 -0.49000365022442366
-3.615712259471268e-15 2.1081339929817022 -0.4021480668050284
9.781877008781473e-15 -1.901101448118175 -0.36265449668103705
-4.50879753083525e-15 2.6288456215859695 -0.33210043340573403
9.742083812483116e-15 -1.8933676662437817 -0.2391879604465394
-5.912922403004919e-15 3.447517894430165 -0.21689944117908333
9.707821215166405e-15 -1.8867087526920556 -0.11870165338017268
-7.92711571803334e-15 4.621889385061128 0.4918978677116602
9.600852854998833e-15 -1.865919521317051 0.19858585037194262
-7.841786071660536e-15 4.572138100882912 0.965584375626907
9.522123586686468e-15 -1.8506185391166454 0.3908299152799993
-6.157504961681828e-15 3.59012127905697 1.6040592886992502
9.326625846277715e-15 -1.812623680148243 0.8098767771493631
-8.248930554850527e-15 4.8095228990839995 2.4505743170095156
9.321639915994541e-15 -1.8116546678336283 0.9230841589566066
-7.539202774656736e-15 4.395717498703835 2.530202496162888
9.267582459362628e-15 -1.8011486362210598 1.036752424756757
-4.4625551143846796e-15 2.6018840707098723 2.3489213019141846
9.101017088702487e-15 -1.768776764535895 1.5968111213408835
-3.989307322710483e-15 2.325957867202243 2.325957867202239
9.029812379676158e-15 -1.7549381755492144 1.7549381755492113
-3.5392955705563033e-15 2.0635793912954763 2.285812786695488
8.929377849522966e-15 -1.7354187897969817 1.9223115314692307
-1.8546945029372007e-15 1.0813760187902708 2.1223199348791177
5.230331299528554e-15 -1.0165114935247173 1.9950161361583383
0.14106654083092013 4.488810113054239 -7.70266900042076e-15
-0.05934875698780286 -1.888508068567355 -3.2406255088613234e-15
0.16794860688868196 4.2745774873024605 1.389966032135731
-0.0727114068085465 -1.8506288820837764 0.601769716849622
0.12762381378074011 3.2482429675193516 2.3618075252054607
-0.07064068606543006 -1.7979255198172277 1.3072772156899835
0.25983430913891487 4.12994807858335 -7.097380189567185e-15
-0.11964230551965911 -1.9016599903058222 -3.2680323543241063e-15
0.013956424116179257 0.17733318220506364 -0.2448329240827611
-0.014790006139464044 -0.1879248460573223 -0.2594561773262035
0.2877455576527305 3.656153967460436 1.191629833578545
-0.14657769248337618 -1.862446170449946 0.6070166737764122
0.24902250335746695 3.164130911574797 2.305984251298872
-0.1424407715174329 -1.8098816056792935 1.3190220619964086
0.34775348295369796 3.6788475797583096 -6.337809034594079e-15
-0.18072569898555102 -1.9118781921780956 -3.2937268034969216e-15
0.39910392314521914 3.3720120208094455 1.1032805581748901
-0.22259860942299675 -1.880726154918583 0.6153502980320325
0.3279965208435627 2.7712286122172087 2.0274689297602566
-0.21633169368798216 -1.8277772512211858 1.337226950904151
0.4460979357658109 3.5312287707971404 -6.104633839118949e-15
-0.23217845359151013 -1.8378817061192634 -3.1772495025692164e-15
0.16918477496520215 1.0681906291965115 -0.551054708369989
-0.1940664103273659 -1.2252870921519958 -0.6320971208511839
0.30784527280051976 1.9436585574298526 -0.41559559687763403
-0.2711587834417829 -1.7120291796730558 -0.36606830252068495
0.4376782015462186 2.7633914079527133 -0.29776789340757887
-0.27589405748758705 -1.7419265233521541 -0.18770044295449087
0.6048304095880409 3.8187489146580575 0.4114874268255048
-0.30494444434214135 -1.9253434473569984 0.20746444414484858
0.35478774732613094 2.2400416770685276 0.47896862041606497
-0.30280019704658206 -1.9118052027468226 0.4087846712130113
-0.2983942690556318 -1.8839872682204106 0.8522545590245612
0.5709348319795063 3.6047406601913843 1.8596018902968254
-0.29663261253945516 -1.8728646067230628 0.9661673033497274
0.5865214046774314 3.7031504071715027 2.1581266653560354
-0.2950348705086146 -1.8627768605557826 1.085591448456512
0.34241020936918015 2.161892978044881 2.188841245956406
-0.28691292078407704 -1.8114968881803675 1.8340774247561067
0.1688096693301808 1.0658223054252325 2.1178685296303628
-0.15887552290576318 -1.0031005733910852 1.9932357632462585
0.4616140041575658 2.472578904432667 0.8172705014376654
-0.3562817366573559 -1.9083795078992714 0.6307836221356367
0.49380625183489113 2.6450127382772233 -4.614907963080818e-15
-0.32751121922405324 -1.7542737532330503 -3.060783714218299e-15
0.27931357675587304 1.464213046051644 1.082995882546192
-0.3547269880396925 -1.859543992479451 1.3753999069324778
0.31499406133230107 1.4915282244850046 -0.49531636041018334
-0.369149920813334 -1.7479616080083813 -0.5804744205322592
0.35245146056082316 1.6688927371010223 -2.925494148253698e-15
-0.36792526405404974 -1.742162736391396 -3.0539331721653724e-15
0.32696092034560037 1.5481924926977917 0.5141337978784857
-0.4040883461775224 -1.9133985287215483 0.6354137854734729
0.26247984776738165 1.242868197729514 1.748393540536169
-0.30410332732441403 -1.439959515254707 2.025649960071495
0.3054304416527246 1.3664172481668053 1.017259135728982
-0.41825168657310247 -1.8711504836121042 1.3930188061748991
0.3713880231915166 1.5469424476139688 -2.728590051454655e-15
-0.36882483625687124 -1.5362660056644133 -2.7097583015512074e-15
0.34501159527409325 1.4370767184737183 0.48020256595236355
-0.4587441361749754 -1.9108068449399918 0.6385006020792371
0.315919006833062 1.315897366528955 0.9832218985985673
-0.4475908422847522 -1.8643500324632931 1.3930188061748991
0.3208832203468839 1.2497576297129167 0.9374539059997371
-0.4555112841991767 -1.7740993194747037 1.330767100061694
0.39647788028191067 1.4719656903464737 -0.49531636041018334
-0.39820626238439555 -1.4783824900752913 -0.49747561310744576
0.39144209039456335 1.453269792525646 -2.58137348198691e-15
-0.38832749814644757 -1.4417065423252127 -2.5608342348447075e-15
0.3633973893539674 1.3491509001969515 0.4539891914004958
-0.48391236798216586 -1.796575391034683 0.6045475038758067
0.29327225081716785 1.088803972687231 1.552021035927392
-0.37116034741203957 -1.3779716957201822 1.9642112926828976
0.34173324878749217 1.1762535575250728 0.8899342419992364
-0.4828256115990078 -1.661896655717939 1.2573638830893676
0.39905041697168536 1.353676019110453 -2.420501921530767e-15
-0.39792200420735746 -1.3498481687092068 -2.4136573596705073e-15
0.37200751230535806 1.261939912651266 0.4274740549391198
-0.49575574855095894 -1.6817240118238244 0.5696732272398441
0.36812861345792164 1.1329833732026036 1.1912892176125818
-0.47484445658421703 -1.4614209667481999 1.5366289402454956
0.3139791647606133 0.966328506399781 1.9941259493360481
-0.3132783579138014 -0.9641716447046202 1.989675026231776
0.5002021177510124 1.2075947366022424 -0.4246996509628449
-0.4243548820699943 -1.0244833115526293 -0.36030109410535877
0.5106748023541792 1.2328780338056637 -2.2887608678344987e-15
-0.4542026760206257 -1.096542260515162 -2.035662041967636e-15
0.4464844112405696 1.0779087210051534 0.3790903054684939
-0.5648457426786215 -1.3636582526234498 0.4795857139550724
0.4971738078632448 1.2002837498001253 0.943907900560489
-0.545392267098856 -1.3166934080434853 1.0354529174248344
0.458477845655305 1.10686343302864 1.6489886008300123
-0.5267922501794522 -1.271788994936291 1.8946922382038214
0.4627220710457658 0.9081431977635235 2.000357272419844
-0.4598392236082317 -0.9024852910968593 1.9878946621451532
0.5998150934212094 1.1772034037090227 1.3212062670151077
-0.5680784592641748 -1.1149167521030634 1.251300323663347
0.6495888844606794 1.274889968901905 0.7290506487058553
-0.5870141681418384 -1.1520801732755537 0.658821402768698
0.5946954774747152 0.9704548182449776 1.5665652666953354
-0.587333848190305 -0.958441731077204 1.5471730345697277
0.659975923933259 0.9083789296479982 1.1228181063734222
-0.6213977174108286 -0.8552805836663274 1.057184941247272
0.5668325850648447 0.7801781220171924 1.892649708328097
-0.5777624233340974 -0.7952217538046713 1.9291443555262866
0.6152041996377372 0.6152041996377382 1.7075302590279853
-0.6325180989782145 -0.6325180989782201 1.7555858591735019
0.36453849325051857 0.32909699621252897 -0.6759606897020954
-0.3701733315826055 -0.3341839991040439 -0.6864093234563929
0.0678022729982927 0.05475840086779671 -0.11995569728306646
-0.3866145112266053 -0.3122372075577315 -0.6839979136850955
0.6547192590972817 0.4756813856383366 1.5882965438243253
-0.667555973960709 -0.4850078049064987 1.6194373871221903
0.07191065296333218 0.046833266641768144 -0.11811648117874259
-0.42180902013612853 -0.2747116525560057 -0.6928402835298677
0.07631293237857074 0.043926201365466676 -0.12119333804043918
-0.4453801369091582 -0.2563635935387623 -0.7073126900845706
0.6932025895264767 0.35320436101918057 1.526909902132676
-0.7440961018503442 -0.37913590076235254 1.6390124953654992
0.5558427637820739 0.2832160340642872 -0.6238369177918232
-0.6009563243042226 -0.3062025412676317 -0.6744690504389378
-0.0854361051326884 -0.038172687599114914 -0.12879642021895096
-0.08828304148697635 -0.033756160534519186 -0.13009083830837814
0.7300065326825753 0.23719350084725987 1.5064493703396022
-0.7584591457173877 -0.24643831523156645 1.5651644900979182
0.9731489445416468 0.2868747666447478 -1.7400831934265785e-15
-0.7595264114621956 -0.22390093856739327 -1.3581057154323485e-15
0.9273359640476433 0.2733695492140206 0.3141291125418834
-0.7404661571764447 -0.21828216249916277 0.2508281635124693
0.8692159796590885 0.25623634771143244 0.6583908526223589
-0.7015916821284973 -0.20682234843845923 0.5314232096498099
0.8039067244082141 0.23355649374796972 1.1522336319858961
-0.7948963532368203 -0.23093873893355965 1.1393191328467107
0.7031626677694455 0.18939873791826178 -0.5290854191246686
-0.8034314655372258 -0.2164064057315194 -0.6045313455422062
0.9815600544276207 0.2643858157164382 -1.7434980817110568e-15
-0.7617153331799527 -0.20517005434164526 -1.3529984397985468e-15
0.9344333127638265 0.25169210229499533 0.31443674982346864
-0.7399322995097664 -0.1993027361885759 0.24898717133606807
0.87812482593568 0.2365252613516778 0.6607333734706851
-0.7047161279573956 -0.18981716655859227 0.5302542996302844
1.5409771547492537 0.3956556856632341 2.1897687062663143
-0.797214184920877 -0.20468981255381186 1.1328621381252117
-0.09190502738301047 -0.022064444927337615 -0.13009083830837814
1.0377072516699148 0.24913146926935112 -0.3467523191722961
-0.785546067262604 -0.18859292502867456 -0.2624920662370291
0.9903920588007818 0.2377720964796933 -1.7469130301852516e-15
-0.7632063306445745 -0.1832296287832413 -1.3461891903063688e-15
0.9584920191767411 0.23011357455214704 0.3202823628945673
-0.7432943353206013 -0.1784491816550527 0.2483735506187156
3.3433874660340566 0.8026763139694708 2.4981369031657885
-0.7088849111348168 -0.17018820979586805 0.5296698556760244
1.5526446209658578 0.34705719131367574 2.1897687062663143
-0.7998166259671162 -0.17878019736509745 1.1280195059734892
0.7140818580158816 0.1508060932992432 -0.530254299630287
-0.8093806405909009 -0.17093212918012557 -0.6010201210031251
3.4423810292153116 0.7269923312515288 -6.034339615212393e-15
-0.7650410121828738 -0.16156809610255352 -1.3410825959988624e-15
1.9933404922412008 0.42097119381430936 0.6619614308780849
-0.7460705734836879 -0.15756175184904436 0.24775995184044844
3.3681430622100326 0.7113141038146189 2.501075080480558
-0.7117207143178587 -0.15030744618642553 0.5285009900007678
1.5639338363172937 0.2983363348723462 2.191385722988266
-0.8027335869525523 -0.1531296213747074 1.1247911394725365
1.253951797011839 0.23410444414999623 -2.187842821928564e-15
-0.7676595972540844 -0.1433169311131697 -1.339380463857707e-15
5.293248616363787 0.9882142423931481 1.7495967239607535
-0.7458630291687969 -0.13924765710427756 0.24653282075641814
3.379991192506641 0.6310218313329466 2.4981369031657885
-0.7158551056424521 -0.1336453777551262 0.5290854191246658
0.10952212316323374 0.01734660018036373 -0.11088733020503318
-0.10678231148162079 -0.016912656640577235 -0.10811336642617352
0.9443361240228793 0.14956814848160582 -0.550341397520874
-0.8020214136821827 -0.1270277127343491 -0.46740305111617836
1.162005703582442 0.1840436230158243 -0.5256535833313443
-0.7991634716098536 -0.1265750591787433 -0.361515559884197
1.7963918307535516 0.28452051471747075 -0.4366514251743687
-0.7862285216672175 -0.12452636437145292 -0.19110964468966482
2.313897917726019 0.3664854266671459 -0.37105371361002604
-0.7792419339328537 -0.12341979758336742 -0.12495824088497247
3.028270154390694 0.47963087355466777 -0.2413008436780747
-0.773817137206397 -0.12256059418997318 -0.06165986472168826
1.2894140450665847 0.2042231218744677 0.10274403572408948
-0.7630683181767115 -0.12085814850380668 0.06080336943950413
1.3047200855991739 0.20664736053780652 0.20922324588066676
-0.7589083195323254 -0.12019926944676472 0.12169756846004054
1.7340511668485639 0.27464672355541925 0.4214981945292361
-0.7528568156602798 -0.11924080539286899 0.18299793835757702
5.246722838446068 0.830999260305244 2.200353763807216
-0.7415837026215462 -0.1174553196935139 0.3110029901493117
2.901831227407097 0.4596049148691359 1.4969872577524335
-0.730929200897882 -0.11576781240107452 0.3770693794073623
3.1818004248329617 0.5039476795115411 1.9741144325615252
-0.7245565412755275 -0.11475848227340907 0.44954344533220403
2.5925691322555537 0.4106226110149651 2.3696867653339617
-0.7153396788395956 -0.11329867467494571 0.6538421477654719
2.0289118904997205 0.32134807424459555 2.2754261042205126
-0.7057535238944077 -0.11178037688908783 0.7915030706530195
0.7684209899241013 0.1217059284227551 1.526909902132676
-0.7684209899241009 -0.12170592842275792 1.526909902132676
0.09052928528788123 0.011436508341588459 -0.12559321152919925
-0.09851100008195494 -0.01244483341045824 -0.13666641498275656
5.222085027047305 0.5557754147289327 1.706340721740898
-0.7488562760329616 -0.07969918245852955 0.2446922928117827
0.13457814018828537 0.014322865539185563 -0.09832893626094313
-0.8185831506530039 -0.08712006558452097 -0.5980942397645626
0.09587147420597707 0.010203397313817506 -0.13270098385780363
-0.09970042608953995 -0.010610904527898533 -0.13800084689111156
0.10520167567281151 0.009944486237777122 -0.14544316631969773
-0.5145203672388363 -0.048636494412656654 -0.7113334542306166
3.4390795096071423 0.2706614273116542 2.5063638040727283
-0.7283845499108187 -0.05732510730266543 0.5308387509629943
0.5310791134822453 0.041796832689958 -9.136833796087276e-16
-0.7745585777133446 -0.06095908210169176 -1.3325722684699732e-15
0.10447203690576065 0.006572823439236954 -0.14407772727523854
-0.49830434620645336 -0.031350652132628484 -0.687213151185728
5.265627763096697 0.26904870584608775 1.7131380721902834
-0.7539899693327935 -0.03852532586743904 0.24530577941080195
0.8165032751830845 0.041719460507004855 -0.5939982224134183
-0.8245467235872822 -0.04213044272623274 -0.5998497532025583
0.08179816801034252 0.004179500001500461 -0.11273238882366164
-0.49863909907503423 -0.025478102578885862 -0.687213151185728
0.4687019010502671 0.014729550637430153 -0.6454313040826927
-0.49962694656134293 -0.0157014093450658 -0.6880169910797028
0.8056508808040074 0.0 1.5811788824354205
-0.7816257014119532 -2.681170779771737e-15 1.5340268129639294
2.036788477876939 0.0 2.256136675023865
-0.7278994633976557 -2.4968764056092948e-15 0.8062892602443645
2.595948156772687 0.0 2.3435624948672666
-0.7368148620115545 -2.5274584427792885e-15 0.6651795690780752
4.257166680161064 0.0 2.6087950968457516
-0.7446043629745158 -2.5541783706593066e-15 0.4562941404832142
5.135582983641218 0.0 2.616710228155723
-0.7480062124837843 -2.5658475615328346e-15 0.38112820164042416
5.2954963923571166 0.0 2.1934664252121063
-0.7508276367570572 -2.575525749321661e-15 0.3110029901493117
5.415932602366177 0.0 1.3002503784376067
-0.7632063306445757 -2.6179877516368345e-15 0.18322962878323726
5.480515196110673 0.0 0.8680283320260967
-0.7703285242058131 -2.64241864897014e-15 0.12200805217236255
4.479175207799392 0.0 0.3525187340203194
-0.7755478656176475 -2.6603222896229282e-15 0.06103694074829735
3.1198256788202556 0.0 -0.24553560591843404
-0.7864313043089195 -2.6976551942980982e-15 -0.061893485949424405
2.346688467999708 0.0 -0.3716789396201819
-0.7918969511505413 -2.716403723904834e-15 -0.1254241554026867
1.8275239315374439 0.0 -0.43874967767272816
-0.798926015441007 -2.740515164650308e-15 -0.19180516638390022
1.0610780433178313 0.0 -0.5406462669701898
-0.8153152753102697 -2.796734406909325e-15 -0.4154238821321413
0.8646238299842327 0.0 1.410937855691524
-0.8020378497595023 -2.7511895312060253e-15 1.3088068182711887
2.9656548118728883 0.0 2.414422609406891
-0.7335887812664537 -2.516392182533082e-15 0.7335887812664524
3.775715868881623 0.0 2.522852686439599
-0.7366152361137248 -2.5267736762431063e-15 0.5996990861466452
4.600218767554496 0.0 2.6479147060733284
-0.7418204876892818 -2.5446289852491095e-15 0.49566860304485316
