0.06874144221013045 -1.7495865357837765 1.0078499729260282
-0.15031140288090755 3.8256806694764 2.493474262421528
0.06840216525830976 -1.7409513607318376 1.1347045885841553
-0.15584992004728973 4.407814477869728 1.826917439596896
0.06279084314279117 -1.7758776353458143 0.7360522632911168
-0.2376840847414187 6.72228352484586 1.7270675978219714
0.06340223408498384 -1.7931692569636974 0.4606953142732125
-0.23979755218030302 6.782057520063786 1.294555108334364
0.06371002233533146 -1.801874256655636 0.3439406871187669
-0.24163578873582242 6.834047317047378 0.8638804396208882
0.06399733263956837 -1.8100000902670497 0.22879907047077686
-0.13036823866336303 3.6871306039835248 -0.18851268263939813
0.06473911073229348 -1.8309793773625316 -0.09361285816974226
-0.16739444030355755 5.326577458252079 0.08371787501057736
0.057365445271365216 -1.8253980664525347 0.028689800978125717
-0.21686037441243053 6.900609003731702 0.43436385165740965
0.05719670080759403 -1.8200285305509936 0.1145630193261189
0.05004813456865206 -1.8202060747123068 0.1433074659835008
-0.18774016200330196 6.827942465611355 1.081848565129209
0.049747470508327535 -1.8092711906498518 0.28666870750483125
-0.20762379465083966 7.551092473984902 1.8135420616085478
0.049509713676411674 -1.8006241864510448 0.432455000455762
-0.12020987482187269 4.371926072310803 2.01624725771527
0.04863268020805669 -1.768727260410056 0.8157026055481971
-0.09798760822255333 4.157953634738466 -7.133388159483873e-15
0.04312659839027846 -1.8300109552981598 -3.1395680729063176e-15
-0.1621101856030077 6.878896706257304 0.732309628754252
0.042814223228128716 -1.8167557951363527 0.19340714342508314
-0.1596226772692893 6.773343111213579 1.4308513894450918
0.04249513742862169 -1.8032158793865967 0.3809247374783415
-0.13609332589256348 6.9302854204076105 0.3541731191567321
0.03585386300163617 -1.8257875791913631 0.09330710679471427
-0.07029270410632894 3.579517946483934 1.4829707369158904
0.03497940635282318 -1.7812575912268527 0.7379633018165023
-0.08616858944746815 4.387966237347343 1.9609128675421656
0.034872319814098 -1.7758044194920772 0.7935789721402581
-0.1016000758583275 5.173784385202898 2.63668306021339
0.03466083680342378 -1.7650350623915225 0.8995036714325513
-0.09797554559001018 4.989212297559339 2.6171231232689443
0.03467615163832157 -1.7658149402901047 0.926269486248904
-0.05525802468069501 2.8139064152746243 2.4037664688535574
0.034517091328146135 -1.757715106287632 1.5015199550903413
-0.06101598906162231 3.884079022491838 0.1679053189082416
0.028584683379056033 -1.8196077910826214 0.07866004390756205
-0.1081212203693738 6.882644539266217 0.6234187579907763
0.028510370547110787 -1.8148772783744047 0.1643886346788552
-0.07067697555968783 4.499065939377119 1.211984916681075
0.02817200688287323 -1.7933381501811203 0.4831000073826819
-0.05543224645250593 3.528636164503261 1.223775340743939
0.0279807068104637 -1.7811606109873126 0.617728870875961
-0.055155221081766556 3.511001632182558 1.3111256386780152
0.027964784083850065 -1.7801470221006614 0.6647665383856872
-0.054375780277177314 3.461384970633046 1.3236685233074432
0.027925871610373045 -1.7776699808485283 0.6797989297467246
-0.054431327516284767 3.4649209268552212 1.4673854985059551
0.027805595291556056 -1.770013582353575 0.749596402842453
-0.07290547826992688 4.6409251595835475 2.228815482354394
0.027729204853054065 -1.7651508159825369 0.8477179295227861
-0.0731354848050006 4.655566626052502 2.3037366583983654
0.02765478506704463 -1.7604134949271397 0.8711139648411728
-0.07090595576939118 4.513642073317624 2.528072898358236
0.027563900374504114 -1.7546280715784226 0.9827601751318213
-0.033121760120747974 2.1084233108649277 2.281160908662052
0.02722902317268635 -1.7333108802209694 1.8753164993687508
-0.030527161910405127 1.9432596441675027 2.275545439611278
0.026856919271156122 -1.7096239584755726 2.001959446765487
-0.020163840534489903 1.7114807588668972 -0.46102389478560574
0.02227683241102538 -1.8908287820838254 -0.5093351152052319
-0.053652675575176306 4.553969852696276 0.48470297207371105
0.021899943978931337 -1.8588389784219201 0.19784601272977648
-0.0424318023373949 3.6015566151833753 0.7606612187953762
0.021721000867501287 -1.8436505180876712 0.38938536859565415
-0.028655247402909576 3.6484243961838483 1.6301592873479565
0.014271978435872398 -1.8171273685089142 0.8119140577963863
-0.03566982458858322 4.541529738227687 1.166102611440083
0.014449241932990211 -1.8396967938690845 0.47236842192865885
-0.03212519539651545 4.090222812207136 0.780275796318894
0.014530400895075917 -1.8500300613882557 0.3529229935971787
-0.03617027098800516 4.6052472426331095 0.5817959657103203
0.01459017301389996 -1.8576403274405038 0.23468178608098805
-0.028464670340463752 3.6241598698929396 -6.216077101209082e-15
0.01472966604838878 -1.8754007670197061 -3.2166450106974777e-15
-0.018047242602124317 4.595668967078908 0.7278880697348635
0.007289710034096053 -1.8562998747923036 0.2940112837523353
-3.1610802975723015e-15 1.8430617127789282 -0.44247996891204205
9.803048555370344e-15 -1.905216124457171 -0.4574019229391094
-4.734414114739144e-15 2.7603909315487036 -0.32671379680643936
9.741242764307024e-15 -1.8932042090766072 -0.2240754844569511
-5.3389262397699824e-15 3.112850549044227 -0.24498665129973735
9.717521747002059e-15 -1.8885940447585705 -0.14863557482131304
-9.665905610379374e-15 5.635687446316062 0.1549580828338872
9.651426006025121e-15 -1.8757483803965167 0.051575318126453856
-8.029135325637731e-15 4.681371718639553 0.18393159576801832
9.642495281903311e-15 -1.8740126999595743 0.07363015951514035
-6.85079488392764e-15 3.99434261836558 0.37757654470106666
9.612224105235416e-15 -1.868129516420473 0.1765902315492253
-7.925443388822462e-15 4.620914336770801 0.6022023681671046
9.584305727818651e-15 -1.862703597888838 0.24274947252667115
-7.777017359494615e-15 4.534374829361246 1.2213459406962353
9.486548901799075e-15 -1.843704622197116 0.4966067519567065
-6.234707819277146e-15 3.6351342548615806 1.0871356627081714
9.461967689625246e-15 -1.8389272795645912 0.5499558713871247
-6.1648424882059494e-15 3.5943994096104688 1.1212514812440235
9.457409723208557e-15 -1.8380414417496747 0.5733660771363935
-8.288466659446614e-15 4.832574347890735 2.3205691483143607
9.29659307631351e-15 -1.8067868307972754 0.8676066782001706
0.03023202210276621 3.8491814582815396 2.4428401761190175
-0.014079318555142294 -1.79259765501279 1.1376521524752934
0.03473455989326147 4.422450587269127 1.9760033688007674
-0.014243329056256653 -1.8134796912096123 0.810284232320785
0.031655020283905176 4.030359488496967 1.5411075086356898
-0.014380997554636184 -1.8310078284129676 0.7001310728711878
0.0302721960865148 3.8542964635836894 0.34908360739279054
-0.014685249004456882 -1.8697455296267542 0.1693428413085222
0.03680235405922047 4.6857249040216225 0.2394257934460463
-0.014718309436337984 -1.8739548279980969 0.09575319310581173
0.036792452878460086 4.684464272454591 0.20248653166982544
-0.014723761905913518 -1.8746490437115102 0.08103193041547065
0.030654535184773606 3.902976388558315 -0.09198157331173738
-0.01478830930979914 -1.8828673054398286 -0.04437359590472946
0.05517975452637499 4.683586343057039 2.386572052509626
-0.021342560030749223 -1.8115289483236827 0.9230841589566066
0.051641713317470875 4.383281971835601 2.5232196275446657
-0.021249389235926584 -1.8036207315157478 1.0382474273041564
0.0584301423676487 3.719472448807577 0.24870790301930767
-0.02943975901077792 -1.8740391192470311 0.12531033525292068
0.07294120149538551 4.64319918370115 0.5126772099492724
-0.029327298847263993 -1.8668802717270885 0.2061309306691128
0.07246537892888279 4.612909869745829 0.7307032930391204
-0.029219690886316783 -1.860030299610005 0.29463620652801964
0.07128351866376054 4.537676496758251 1.2223860563400906
-0.029005096382972426 -1.8463699128556343 0.49738601637489926
0.07250908319981891 4.615691941208523 2.2166971684730017
-0.02843634695747979 -1.8101651778905057 0.869336185215103
0.09098556416784177 4.633261217510691 0.5854298569635887
-0.036667997753817426 -1.867245793004693 0.23593347886003968
0.07240375521510084 3.687019079438012 0.7034721061213602
-0.03647812929336985 -1.8575771144372055 0.354420103834982
0.08953099337166849 4.559190055566791 1.170826732888674
-0.03629208920029251 -1.8481033879615707 0.47460378387286467
0.08679586828790586 4.419909180720965 1.975187664862933
-0.035678020309261246 -1.8168331353262515 0.8119140577963863
0.0872924654427488 4.4451974158306085 2.265377884541522
-0.035639367700114104 -1.8148648270945555 0.9248980997088182
0.07948328234144524 4.04753009866187 2.4808078338022184
-0.03545928149341071 -1.8056942905928703 1.1067442198973885
0.12900577845781228 4.691825252744613 0.20287510155866115
-0.051774022970794 -1.8829750985923153 0.08142007508397274
0.1082664740287326 3.9375552238517986 0.3567481320466785
-0.051611129249461665 -1.877050799042349 0.17006348565189974
0.12261922789071295 4.459552097333624 1.0710483724457847
-0.05105780481674137 -1.856926882288907 0.4459771904482294
0.11375708092866706 4.137243706135022 1.582526411338764
-0.050481522460346505 -1.8359680063008126 0.7022713832486009
0.11314945563782763 4.115144915539382 2.369598388925695
-0.04979097346145988 -1.8108533543064163 1.0427324624077652
0.16286110467811138 4.606107817471351 0.23549741912034672
-0.06667745256670456 -1.8858003949047293 0.09641570357768912
0.13215028248945393 3.7375311340223916 0.26479676178392386
-0.06659770976995848 -1.8835450748256648 0.13344548007848286
0.13034318661906558 3.686422071290885 2.4023571686994027
-0.06384255583786184 -1.8056226261842239 1.1766830753757258
0.12713109374273981 3.595576278875745 2.403988541526318
-0.0635831099792513 -1.7982848668099485 1.2023263807833935
0.08587111887122603 2.4286439215153224 2.246418227630483
-0.062427980462998134 -1.7656149969504615 1.6331376028366178
0.08226248853932021 2.3265830862102455 2.220836785074429
-0.06251020419427684 -1.767940483887156 1.6875852333451005
0.12365739773472281 3.147290937909373 -0.24788828156856685
-0.07469309848136607 -1.9010663031993 -0.14973260125770818
0.1604419071253511 4.0835192200937245 1.82591625590089
-0.07209415763557626 -1.8349188415677298 0.8204707656550342
0.150970706976656 3.842461079253164 2.356479938395313
-0.07123929535807576 -1.813161143699059 1.1119638617224947
0.170992101818252 3.9559722363723666 2.017550585776425
-0.07896377862060029 -1.8268593261354533 0.9317004476643083
0.20311314268227018 4.3070037890904445 0.5447058031913038
-0.08858305006585684 -1.8783990402811452 0.237560705319507
0.17357709714875336 3.6806934561022815 0.7029101461433401
-0.08816771534956261 -1.869591888891545 0.35704008593011183
0.19295862603951205 4.091677783696708 1.0517318493987589
-0.08771234396224456 -1.8599357619431756 0.4780810665164496
0.18633177220314648 3.951155687459819 1.285235077377509
-0.08728856649277801 -1.850949582404912 0.6020783583178502
0.13713163293507283 2.683841690711595 -0.3394903451453132
-0.09777905626313056 -1.9136613636161939 -0.24206701873427508
0.214890125835193 4.205674987563333 0.18202234149327534
-0.09663125586948584 -1.8911974398434954 0.08185135257583116
0.2152264020485896 4.2122563437522125 0.2653584187103621
-0.09653062388043393 -1.8892279429312502 0.11901520197441172
0.19057599304503384 3.7298162680319815 0.2939258369025647
-0.09642332158180661 -1.8871278995174774 0.14871393316661285
0.19257065434150042 3.768854344307501 0.3417798626030522
-0.09637798585500254 -1.8862406212792526 0.17105438456406405
0.20557618670805353 4.023389269825237 0.9671903715989553
-0.0953375143563801 -1.8658772614458405 0.4485418637939132
0.20502865950621801 4.012673461228539 1.0822342363524053
-0.09511529680713311 -1.8615281793973588 0.5020616671514012
0.20066700697547352 3.927310334925273 1.503616734909747
-0.09429376647522848 -1.8454497786100372 0.7065520506177003
0.19587217245211305 3.8334692822197245 1.843207083953586
-0.09371428795842264 -1.8341086418570627 0.8818753438540422
0.19369276648725886 3.790815516168309 1.9340366683669974
-0.09344556691539871 -1.828849426875056 0.9330609304019961
0.06790413502470727 1.3289708920574523 2.171512467500605
-0.06284216419892497 -1.2299016397732738 2.0096352452327775
0.14533987948719956 2.6409428563104584 2.2589914008542404
-0.09852584203635413 -1.7902940308328443 1.5313693028186615
0.19730127049191026 3.5851232482443263 2.2002907770475097
-0.10022526226941231 -1.821173867393876 1.1177055254066968
0.2275548985573826 4.1348560758680035 -7.102524179281564e-15
-0.10448364539748944 -1.8985521240788863 -3.261180587540993e-15
0.20416146214658998 3.7097784647428558 -0.18983898415317535
-0.10484080309217751 -1.9050419675113346 -0.0974859375886172
0.2180163699334196 3.6968791160276964 1.6546282555061536
-0.10869707023432446 -1.8431640204146615 0.8249529324581709
0.20940096490899618 3.5507886599732372 2.047407172035072
-0.1075641199483832 -1.8239527095719337 1.0517026544346704
0.2227983927109925 3.541279044086075 -0.22323890369336663
-0.12028244529553353 -1.911834720679801 -0.12052026450731701
0.2553581502916474 4.058801571057191 0.2077956252265828
-0.11936117596042617 -1.8971915639196575 0.09712918956434706
0.22695967568165126 3.6074207428712257 1.6663318665610662
-0.11577169532496485 -1.840138402993127 0.849992689610615
0.21394266067960863 3.400521214187986 2.219036955482896
-0.11428785314849779 -1.81655340697805 1.1854062620971535
0.166095767908245 2.4842992504519357 2.247775440315807
-0.11962652693175656 -1.7892574563062964 1.6189068068009855
0.1879072660434102 2.810534464935898 2.2932430923858846
-0.12017438272787392 -1.7974517514457249 1.4666227595945285
0.18272824920003017 2.7330717587867888 1.5340108044816307
-0.12252957268424029 -1.8326783963925453 1.028640558802668
0.18716050005944296 2.7993650643087986 1.3337043090373855
-0.12123721515528933 -1.8133485670963372 0.863935478997737
0.19404722769131175 2.902370050584966 1.0731312887493003
-0.12419098642506951 -1.857528210225929 0.6868082316816122
0.14456383016194568 2.162245428867154 0.7705945784600378
-0.12415710026461782 -1.8570213739346073 0.661816916680062
0.25391083416478344 3.7977517605726105 0.803833224842924
-0.12540901035741736 -1.8757462297472696 0.3970209839669366
0.2687463523107547 4.019647038665804 0.11077040518524166
-0.12712774308659394 -1.9014533653630283 0.052398819522227066
0.2700962957745724 4.0398381824712715 0.04770168189994033
-0.12716696437348599 -1.902039999296299 0.022458945856067093
0.28611963955191977 4.041021102625262 -6.948205379251837e-15
-0.1348562144641779 -1.904646634265892 -3.2748841576656814e-15
0.27791309746461273 3.925115707922804 0.4187875233042357
-0.13388846688209022 -1.890978616204093 0.20175666406544504
0.25194784605020026 3.5583945381878928 1.593864044849885
-0.12911509187109277 -1.8235616811751167 0.8168035798164087
0.2915305885328687 3.8999916548489053 0.46288228315477115
-0.1412002198729395 -1.8889258994694886 0.2241928728153883
0.28873690233671884 3.862618722882891 0.5202620521079118
-0.14092029735110415 -1.8851811963676424 0.2539179526074113
0.27456703052211434 3.6730592598250182 0.6726913256196723
-0.1404581342084737 -1.878998543602084 0.34412350352151255
0.2824954892636393 3.7791233372975443 0.8470909632611852
-0.13999666128828295 -1.8728251243847729 0.4197939831647094
0.2817367091386947 3.7689726489253856 0.8604130394037827
-0.14001788205737806 -1.8731090082228181 0.4276092094643124
0.27158150317048596 3.6331199456855656 1.0120765521428567
-0.13958040207350472 -1.8672565579024052 0.5201608004525708
0.2148380434528439 2.874026292838538 0.9239364064469611
-0.1390139909328102 -1.8596793128076827 0.5978461038093966
0.1542510133029994 2.063514733260521 1.268051485749596
-0.13634328066910548 -1.8239515087601363 1.1208373671090752
0.15623890136294386 1.985203468472613 -0.42054915820294425
-0.14657787850017764 -1.8624485340175092 -0.39454452685396174
0.2903313411113083 3.6890094614885403 -0.1890738094410203
-0.15047662719863952 -1.9119868331950642 -0.09799558334756696
0.3096526058142473 3.9345094065659136 0.10851724912099357
-0.14967603272974092 -1.9018143159625889 0.05245372080259297
0.30147846331543005 3.830647078433273 0.4089482811402938
-0.1488917353001661 -1.8918488722483549 0.20196805621665273
0.2927860949501181 3.7202000663413686 0.5910437961754889
-0.148276120880415 -1.8840267493924552 0.29932323590118
0.2942702720785033 3.7390583247993794 0.9004442518664338
-0.14750037572512756 -1.874169972626277 0.45133973109728115
0.2814417663229404 3.5760567042099978 1.3877499704355087
-0.1457125413378762 -1.8514533828674862 0.7184881532533426
0.1665153029357909 2.115777530808358 1.081376018790267
-0.14095369492773221 -1.7909865060721832 0.9153750001794737
0.2094279539863738 2.661034460829099 2.2797658937638894
-0.1411542923111922 -1.7935353374959668 1.5365605939615117
0.15370896893248573 1.9530576290425237 2.1700782129933724
-0.1381033702407014 -1.7547696970341942 1.9497568488144057
0.17712999377166871 2.143023081961471 -0.4101975566563122
-0.15975197537656016 -1.9327735711560952 -0.3699535497921338
0.2845514707386741 3.2854576532793023 1.5835603774434737
-0.15574568155425164 -1.798254073680638 0.8667419276625483
0.30937583450119777 3.5720820579947334 0.9657517092808064
-0.16233190426026312 -1.8742992114530614 0.5067374258979384
0.31492219655949943 3.636120868354776 0.7707827455444515
-0.16288721484383573 -1.8807108789169813 0.39867197689796635
0.19460128236095423 2.2468844417182177 0.24002634536251488
-0.1642596977481281 -1.896557693731176 0.20260223603103464
0.32889518573317933 3.797454296365823 0.23980997438448368
-0.16468937946501272 -1.901518838657077 0.12008128298643735
0.2850385088616416 3.147259792745629 1.8189969338711582
-0.16605225909958118 -1.8334701533692976 1.0596762920589902
0.16953475581747415 1.8719222275902399 1.224116881847277
-0.16530613756474066 -1.8252318338647384 1.1935843638093566
0.0530098274508538 0.5607853982211434 -0.6595223236067027
-0.054650191601491406 -0.5781386383217111 -0.6799309313727667
-0.18177616951078102 -1.9229910095581721 -0.12152366582862677
0.34629960925170117 3.6634672025312107 0.05780689068145882
-0.18060942430771898 -1.9106481345709185 0.030148660200796023
0.31046001714413424 3.2843239210187645 1.4739711528991297
-0.1714411775912528 -1.8136582152837806 0.8139513503642436
0.2611119827887365 2.651114451500477 2.27522146119657
-0.17768129893485962 -1.80402850277738 1.5482411043424809
0.33145853605240244 3.3653549929674917 1.4007205325070289
-0.18358190994177928 -1.8639384117216382 0.7758042792165722
0.3274191934294297 3.3243428590625177 1.2772557407089875
-0.18386507383981274 -1.8668134230259914 0.7172539844656561
0.5105684247014 5.183888210526443 1.100076317562961
-0.18598983833854943 -1.8883865190152083 0.40073574190034933
0.34213107626281414 3.4737151121924104 0.27471011263023376
-0.18765195718826141 -1.9052622949007914 0.1506729258784832
0.34609921741728344 3.5140043254558213 0.15262349878350384
-0.18815442690072345 -1.9103639555060314 0.0829727011794169
0.21831171506919214 2.2165560407086606 -0.35276665582434497
-0.17856675167416455 -1.8130186553097178 -0.28854336016529514
0.017599436803149526 0.17869008058833422 -0.24713582282531718
-0.048652728149779965 -0.49397943872675326 -0.6831941350441949
0.3534492402074804 3.449697365832155 0.43807958040457584
-0.19469736461382056 -1.9002643362552312 0.24131595174977294
0.3498480466354065 3.414549382568299 0.6547700804617134
-0.19376873051061672 -1.8912007812798015 0.36265449668103056
0.2859759756210055 2.6870401619224054 -0.34136916905840947
-0.19429367861195482 -1.8255901269478396 -0.23192812430148427
0.3770353732719452 3.542637412975425 -0.18203430305432522
-0.2002271242070112 -1.881340987060746 -0.09667051844842997
0.3686131712109516 3.4635021109956976 0.31545119612731093
-0.20272380040708124 -1.9047998430235107 0.17348665299128116
0.36071828678242557 3.3893215037362285 0.8182994940068996
-0.20060158369066056 -1.8848594213257002 0.45507028738486777
0.35992832143264897 3.3818989619763222 0.8732279281001883
-0.20012751224614972 -1.8804050296298418 0.48553259765432805
0.3252695389037738 3.0562438421146325 1.7691281198934456
-0.19574694661670794 -1.8392450834046847 1.0646598781122216
0.2009206562189003 1.8199165369555896 1.2234176263321281
-0.2012852728546578 -1.8232191931262565 1.2256377983514817
0.36169001791931216 3.276147197856901 1.6794224807688811
-0.20085166417796624 -1.819291614866614 0.9326074356732145
0.3837848050082666 3.4762792756652274 0.22003777181476303
-0.2109743332109138 -1.910981603929357 0.12095925003814664
0.25790477767698555 2.1790264643290573 0.11211508999679748
-0.2269489663938744 -1.917482135378525 0.09865813274617967
0.40704915581920575 3.439140952726916 0.548508424751591
-0.22525889431696403 -1.9032027884994849 0.3035417209855719
0.5961514491991302 5.03685816235635 1.0711527911189804
-0.2244083155946381 -1.8960162851603932 0.40321229432962347
0.21345255010643277 1.8034514899254102 0.7355717044169645
-0.22139598453499473 -1.8705652285440457 0.7629453085206965
0.2132007815458666 1.8013243080976782 0.7513409105091057
-0.22144414781655655 -1.8709721580553074 0.7803913589857764
0.2123007601793166 1.7937200659667691 0.8070246044424252
-0.22087608605018366 -1.8661726284248388 0.8396222219123779
0.5137478487873984 4.340633657829912 2.120053677712064
-0.2203082720595134 -1.8613751922407118 0.9091334659845077
0.42293445736846896 3.573355187846845 1.8871457670933844
-0.21965059917638083 -1.8558185421075668 0.9800873190951916
0.23596001792101823 1.9936161253182532 1.2520102295164153
-0.21752613940731366 -1.8378690721485507 1.1541995721340284
0.2199373693458008 1.8582414510352858 1.2186645408887238
-0.21737899151685214 -1.8366258258993964 1.204488667313427
0.2100648404184838 1.7748288752922285 1.2043588444682425
-0.21649176930309058 -1.8291297232643822 1.2412061751758976
0.24563689727015178 2.0077941472709675 -0.38586289907678495
-0.2127554914140112 -1.7390271380566331 -0.3342105832790717
0.42337851440597546 3.460623842556116 -0.21934733613958537
-0.22003730442750574 -1.798547436971404 -0.11399869132525026
0.433482828759898 3.543214786536652 -0.18239137490118482
-0.22115399495180252 -1.8076750750579995 -0.09305231609645188
0.25928626422413753 2.119361747207007 0.09228985675766982
-0.23492751570704104 -1.920257487012461 0.08361965041964733
0.42652844535514584 3.486370841457085 0.22097927762742503
-0.23468286170791938 -1.9182577269071919 0.12158637909500634
0.22494656498676358 1.8386748963548867 0.49894455444969155
-0.23138785446119398 -1.891324899067753 0.5132317088549776
0.44624274714459494 3.6475121854094024 1.405071979619112
-0.22949520377060934 -1.8758546947881207 0.7226050895805061
0.12883684523014252 1.0530904220038304 0.5094571919160021
-0.2279385953924713 -1.8631312431163571 0.9013334386641842
0.24332812718452984 1.867143822215217 1.2262978307427672
-0.24019068761195797 -1.8430691252894171 1.2104861143315093
0.3877792169066215 2.97556874171629 1.727239109751809
-0.24171009122669498 -1.8547280531147088 1.0766206763705148
0.398609590749634 3.0586740770806915 1.727424465601024
-0.24209333589451015 -1.857668826638048 1.0491417193366606
0.4813114485157553 3.6932750358783237 1.2101651948744971
-0.24596704480266904 -1.887393181732616 0.6184368928356996
0.2420661690915114 1.8574603660338975 0.44970763657578416
-0.2477138998633261 -1.9007974259215246 0.4601999233209496
0.24364756719954173 1.8695949997979278 0.35966011695534134
-0.24833855391541285 -1.9055906200658705 0.3665847123874254
0.4941436597365503 3.791741186025028 0.4830588180994987
-0.24954255654492047 -1.9148293632297926 0.24394471133027734
0.49637510150754655 3.8088638375062063 0.36308817929101295
-0.2500241387864469 -1.9185247161573755 0.1828875160238
0.2756896703666032 2.1154655272679848 0.05865840599556498
-0.24020659282371526 -1.8431911716726994 0.051108682548492275
0.23795690144361822 1.7716094768512456 -0.45895683303139373
-0.23023138200485074 -1.7140923240883958 -0.4440563198980259
0.25757060560994416 1.917635181365023 -0.09886199632246225
-0.24057565597179426 -1.7911063282202553 -0.09233891250764648
0.36577451526299964 2.7232225402974537 -4.712609107925188e-15
-0.24407996174326682 -1.8171961843112605 -3.1447063772234846e-15
0.2821971139672962 2.100981641681824 0.07495285307762084
-0.24857760469456153 -1.8506815206375746 0.06602335658619858
0.281358463206884 2.0947378150648985 0.08304156380388748
-0.24947107903436674 -1.8573335134905637 0.07363015951514035
0.51151447612488 3.8082690098574625 0.3480015650452576
-0.25751742501324115 -1.9172392472756197 0.17519830056413982
0.5103267096261596 3.7994259867190134 0.40799610400883707
-0.25738374403803105 -1.9162439809852951 0.20577320924404247
0.3495796052142057 2.5273842831863638 2.1791408363666696
-0.2512849809843148 -1.816735593460618 1.5664110705000158
0.5305019488257737 3.7275009776700982 0.966703751808441
-0.2698554870065926 -1.8961034806247063 0.4917424192555565
0.29048257482789697 2.0410369538957447 1.263352692858702
-0.2634750136753898 -1.851271938285042 1.145892720845671
0.3079899079477992 2.104764447999705 0.0919447390490771
-0.2688346532234863 -1.8371823423221987 0.08025565578652837
0.3140874262304094 2.1464341240867593 0.11084060465309734
-0.269601540371536 -1.842423153021478 0.09514165564929875
0.5350277899640351 3.656312891911436 1.4129268560008432
-0.2753823378257516 -1.8819283986439506 0.727242786413889
0.26587911940811276 1.8169845944774017 0.8204707656550342
-0.2743301369647966 -1.8747377897728692 0.8465495824524464
0.5394677520511024 3.6866550366057025 2.144660622468447
-0.2714398779807226 -1.85498612194802 1.0791125427971149
0.27274714421858154 1.8639198156519368 1.2268430690763417
-0.26995921659207106 -1.84486746750533 1.2143027006135925
0.28922291424715496 1.9237502711824064 -3.3365519957081626e-15
-0.2699207305089377 -1.7953628600484974 -3.1138769015134476e-15
0.5752468068761306 3.826222426412244 0.30451445745450717
-0.28936757590154477 -1.924712480202389 0.15318052934374843
0.5420765352696498 3.6055921932778405 1.786212463757869
-0.28133476072325597 -1.8712826528395878 0.9270345115422741
0.35781688532922556 2.3799992887061263 2.172755730019282
-0.27322332726207466 -1.8173299003018304 1.6590819892063133
0.41196500001756586 2.601044642854036 -0.3431961605858206
-0.2741963291300287 -1.7312074883631134 -0.2284250540704709
0.4216338624676251 2.6620914377932823 -0.3404923829519923
-0.2743345398732341 -1.7320801166523705 -0.22154013119534563
0.3129546152477365 1.9759176760449604 0.05500678402001007
-0.2843741791047976 -1.7954679040574477 0.049983314796309804
0.5914382612982098 3.7341942181083816 0.23786408833298933
-0.2873503309009603 -1.8142585869683734 0.11556628808882272
0.6071142204686505 3.833168329064737 0.3207770009832318
-0.3054687077889466 -1.928653516488354 0.16139851888681547
0.6036051396070342 3.8110128644595895 0.487444132556226
-0.3047135049976474 -1.9238853537209015 0.246072805507334
0.6033010411330095 3.809092862258606 0.50259269837351
-0.304559989220852 -1.922916093252633 0.2537201436146228
0.5986840967539023 3.779942622691847 0.7144866139064052
-0.3031475790462227 -1.9139984863732247 0.36178493539590284
0.5983941774616198 3.778112144321065 0.7296972203001131
-0.3032299545354484 -1.9145185847430952 0.36976639023270436
0.3186705360307483 2.0120065795464646 0.4637495157168475
-0.30252015258432996 -1.910037071599102 0.4402464564280779
0.3221896274119963 2.034225248085099 0.5116028577336493
-0.3020195315191061 -1.9068762745902665 0.47957489090414807
0.5927754211723149 3.7426367132888756 0.9888016648429662
-0.30187071043013314 -1.9059366552143475 0.5035469595725407
0.5891868983022728 3.7199796715827014 1.1263773976249722
-0.3009945804172774 -1.9004049880186273 0.5754260543921761
0.587667373190375 3.7103857676058696 1.17186027922928
-0.30080823780684346 -1.8992284670797517 0.5998380063829224
0.5812760656376122 3.67003263986386 1.4375268894357307
-0.2986877018650661 -1.8858399300654316 0.7386707080461324
0.4596801774665237 2.9023064167453847 1.203662576373841
-0.29881962888741076 -1.8866728845025866 0.7824527182355994
0.4589372049174508 2.897615472688314 1.2151926655390244
-0.2987697636065081 -1.8863580475097579 0.7910947762118555
0.4505321842186714 2.8445482605205195 1.2597404274503703
-0.2981436215797448 -1.8824047423398793 0.8336442688147306
0.3036375772249193 1.9170922131161132 0.9133600977197022
-0.2971331212026219 -1.8760246940532397 0.8937943027267718
0.33512324080092293 2.115884869209657 1.26692881951778
-0.2944934641732633 -1.8593585554859038 1.1133285057432971
0.3227451771104737 2.037732850835338 1.2531721267561038
-0.2948256064811296 -1.8614556194852825 1.144764534063533
0.2732722277559729 1.7253729419129138 1.2277277796205741
-0.292835730882202 -1.8488920394085377 1.3156205613057368
0.375829317369174 2.372892921798933 2.051904360802994
-0.289520697704594 -1.8279617436622166 1.580687707710803
0.5842580737563925 3.5973720500803674 -0.18621717576808305
-0.28635679997708413 -1.7631454229891574 -0.0912688364079906
-0.2842506017303358 -1.750177217593095 -0.13954677507572144
0.31939689498695345 1.9665786653512196 -0.3800604905250055
-0.2794501635501336 -1.7206201384301651 -0.3325266084396279
0.3830964038419268 2.3016307881294598 2.106445551277779
-0.30356169171051833 -1.8237888132875748 1.6691260179665726
0.48640060456458295 2.922279080679026 1.1460979131404767
-0.31440744417249883 -1.888949742851471 0.7408331985206097
0.6377483306178179 3.8315713175783404 0.3517887222540881
-0.3210420135966919 -1.9288100210988393 0.17709016916383358
0.37342738275227694 2.190394416189 0.09604317434795792
-0.30433067445508716 -1.7850972927812232 0.07827193552517768
0.6473918592304627 3.7973742126064645 0.6101228319228472
-0.3273886912666454 -1.9203475545595212 0.30854159286549904
0.6272983457611214 3.679512690560395 1.4272085150426896
-0.32246613598991725 -1.891473567033331 0.7336643213036442
0.41877542596705014 2.4563901766247844 1.2696517013682824
-0.31927404276805404 -1.872749864669591 0.967981420273432
0.4112718485144264 2.4123768157605334 1.408614058356864
-0.3178322841799714 -1.86429301306553 1.0885817381198293
0.37336482243828273 2.1900274592683857 2.1698871945370994
-0.3083593471350896 -1.80872807764197 1.7920943764724002
0.3653607160998942 2.1430781710266613 2.1739991950320476
-0.3076399404329244 -1.8045082895488267 1.830544317955726
0.6559651873091578 3.7585110525266328 -0.11990138061592924
-0.3068421164231208 -1.7581260534386407 -0.056086502915141855
0.5195157512277435 2.976691035938899 -0.07120997673976533
-0.30759492043148445 -1.7624394259171827 -0.04216200774939412
0.3841147671205435 2.2008783782924106 0.11415432381167612
-0.3107086853105052 -1.7802804942226162 0.09233891250763987
0.33842889023088724 1.9391101068106242 0.5054046694698975
-0.33327238576799395 -1.9095646684381058 0.49770402242434786
0.9668239291626577 5.53965133197297 1.8271493124998268
-0.3316516475726469 -1.900278257301789 0.6267708747927154
0.4361284969850879 2.4989036124987614 1.0507257822848781
-0.330107913989315 -1.8914330626979245 0.7952997764709676
0.3299671505090091 1.8906265243224378 0.893920592174396
-0.32825454693027245 -1.8808137482730616 0.88928094364303
0.336489776795095 1.9279994877998432 1.2420405006101576
-0.32401674994830454 -1.8565322664151167 1.1960004554817225
0.338092393417121 1.9371820670027984 2.178238777727605
-0.31080348036782435 -1.7808236454104411 2.002423616655156
0.23677418576972467 1.356654913074044 1.8955005755169636
-0.25404147415845274 -1.4555920144809706 2.033734205049084
0.25734317790159933 1.441074074705221 1.46387157906696
-0.32341776304499825 -1.8110794986822012 1.839730415033679
0.38961116310416555 2.1817502641544513 1.8928692312060553
-0.32815957005596863 -1.8376327386261717 1.594315594388375
0.45198918867487503 2.5310556400118234 0.6925316747163046
-0.3414097657326353 -1.9118313773082396 0.5231033899737855
0.4659032129238263 2.608971595598765 0.5597020721295285
-0.3426828416005041 -1.9189603660899828 0.411674122879251
0.6851074060340007 3.836474427939385 0.41476717078926956
-0.34513167570084247 -1.9326733829417495 0.20894430189986415
0.44955504226180737 2.4615291254459306 0.8897789773636915
-0.34706001709713047 -1.900319783010801 0.6869163463117766
0.4489881727343825 2.4584252433382723 0.9219625500321558
-0.3470974030940476 -1.9005244892461763 0.712737720722657
0.4360056724633903 2.3873398376950044 1.2365304496591
-0.34339311905303166 -1.8802417603282449 0.9738773477726922
0.26867529098653176 1.4711258730935486 1.2174950733075043
-0.33534622432874733 -1.8361811584638614 1.5196126687846363
0.5023213539193541 2.6906228402098047 -0.13985345593853168
-0.32598643084702983 -1.746106410949679 -0.09075928902346522
0.47590183149997295 2.5491099025367743 0.32759144000405216
-0.3611144803355427 -1.9342655078074034 0.24857650210460272
0.4730540138581082 2.5338559159559373 0.4082573908061299
-0.3604086084117464 -1.9304845912574484 0.31104160155881133
0.47064730793045817 2.520964690273258 0.48920868955208685
-0.3595181174169521 -1.9257147852539807 0.373696787654357
0.2854354089924889 1.5288998264706808 0.8952496567501228
-0.34977745453423964 -1.8735401169335528 1.0970543115726568
0.26650058812464505 1.4274777764128979 1.3109601955728882
-0.3423055824946026 -1.8335179490282636 1.6838574223443676
0.2556998826984176 1.3696251199740654 1.543337163656744
-0.3326215697290329 -1.7816467201254427 2.007616212331741
0.2862376728318467 1.5005104288151638 0.9360947856220221
-0.35789146227650803 -1.8761327473665415 1.1704271081483262
0.49924419384678237 2.562418933793896 0.1642450688600136
-0.3440361280050324 -1.765798579481934 0.11318356473838476
0.49315803727131546 2.5311811486874825 0.3052181888482774
-0.3777947568835503 -1.9390679952976841 0.2338192277883038
0.30932113188188254 1.5876205166242676 0.5255487918024402
-0.3723490324813895 -1.9111172900349944 0.6326356785223798
0.30865829385140464 1.584218436559504 0.5455263539937373
-0.37216471301275494 -1.910171252600574 0.6577683574986606
0.3029517151407119 1.5549288714214626 0.6561832542158306
-0.3707099658894485 -1.9027046228058033 0.8029453527754353
0.2936714005900061 1.5072967627071658 0.836388413123951
-0.3661350315000728 -1.8792233311960325 1.0427678601668382
0.29044498686356385 1.4907368833479566 0.9062655539254733
-0.3654067009705584 -1.875485104568883 1.1401660253779093
0.3485244892681965 1.7521509288710093 -0.19013101492602436
-0.3448439114985837 -1.7336474148960253 -0.18812314458004412
0.3481614960769981 1.7503260388655248 -0.16869597007263573
-0.3450584037313208 -1.7347257401684189 -0.16719241732663584
0.49555465077791416 2.4913214663624603 0.40231696376610687
-0.38447330911405053 -1.9328778505774247 0.3121353701939046
0.319621840232219 1.6068474999453857 0.44128787788226537
-0.38170271620080776 -1.9189491394080753 0.5270002246773077
0.29718027100630157 1.4940261127106536 0.8768186021426064
-0.37300723601341773 -1.8752340084590104 1.1005430547690456
0.3306497325854846 1.6288328945024237 0.35100734483483625
-0.39071431693024 -1.9247205397466924 0.41477001630172666
0.5138998864163852 2.5315521441096545 0.27492298629804796
-0.393533071569245 -1.9386061710509783 0.21052989133218236
0.5156960842390012 2.540400498758646 0.24503643526500668
-0.39360351923850007 -1.938953207415189 0.18702333837630356
0.42481135820446414 2.092687959524633 0.10910735081151109
-0.35734075728599135 -1.7603171049393227 0.09177839201203535
0.35967461399261325 1.7718140523134018 -0.14228891760789295
-0.3517529041520546 -1.7327904563525085 -0.1391550530676532
0.5328751618468157 2.5731568280784463 -4.506925562675392e-15
-0.361688466176692 -1.7465275415620423 -3.0590710745216174e-15
0.3456166219326836 1.6689195411947988 0.10722740163774523
-0.363804101303498 -1.756743557173272 0.1128700589392599
0.2793806978358624 1.3490783615775435 1.3777031610619161
-0.3756532704114304 -1.8139610305707237 1.8524497294123785
0.33348584746496784 1.5790886718831427 0.3874676191256556
-0.40692238000398917 -1.9268179608957359 0.4727914151309103
0.33218713326423743 1.572939130911685 0.4127701526763763
-0.40573750680827003 -1.9212074684109695 0.5041626115559552
0.3202860411706279 1.5165862756078898 0.6420466653359677
-0.40207624239258627 -1.9038710170817041 0.806003626306814
0.34653896997951933 1.609605373056617 0.17523208984886843
-0.41885246899906453 -1.945487356468972 0.2117983829795633
0.3451226724074925 1.6030269493315272 0.2071495612043843
-0.4181050806047616 -1.9420158843418942 0.2509550687598384
0.3400528955411148 1.579478832694596 0.30820552445376403
-0.4160285876039499 -1.9323709826691657 0.37706577627048365
0.3200995840606866 1.4867996244339272 0.679520517031905
-0.40933939688604315 -1.9013010071291 0.8689624493882575
0.3709805809675355 1.690833867518932 -0.274171918685995
-0.35555282826445 -1.6205181472134624 -0.26277009126800777
0.3356145432591842 1.529644583267784 0.4218143279127158
-0.4224057460086515 -1.925216514900387 0.5308971242092787
0.2940738735032405 1.3403129176598862 1.171964948143434
-0.4052625387335032 -1.8470821948151677 1.6150822394838158
0.34147174600278396 1.5276567750583157 0.3305855778769473
-0.4324790512488203 -1.9348000543086763 0.4186915572089588
0.35050819186872256 1.5680835099526174 0.1710061789749074
-0.3528901056648828 -1.5787395797180181 0.17216826872453186
0.35788762386411394 1.6010971909256542 0.02577273549465843
-0.3548392712164938 -1.587459645127484 0.02555321299306104
0.3637458801816139 1.6273055231177533 -0.10490790762072051
-0.35700814480406695 -1.597162627787356 -0.10296467813257623
0.3790744575533595 1.6651391144934342 -0.45998509216565686
-0.361954132847258 -1.5899356241159948 -0.43921056098603833
0.3541261014727875 1.555549869625299 0.14448635701822699
-0.3556708162892202 -1.5623352517852886 0.14511661334649842
0.31537186080373697 1.3606073962918057 0.9096153596818937
-0.4351878105063686 -1.8775288075542704 1.2551960589447804
0.3605427095990816 1.5554877854650568 0.10045747271340402
-0.36099260988037163 -1.557428788218965 0.10058282775187445
0.3621355300204675 1.5623596834231663 0.08194557651671869
-0.3612351189265276 -1.5584750439027364 0.081741827643499
0.38035420582938656 1.6121532184514074 -0.17628862227796682
-0.36804526480480637 -1.559981062644096 -0.1705836077897178
0.3665725325027166 1.5537388019188265 0.06900227406682098
-0.3651985630146517 -1.5479151530718276 0.06874364307085604
0.3626799313047793 1.537239787439104 0.14304580854725507
-0.36404955914087056 -1.5430450339440789 0.14358600805738062
0.348025420011704 1.4496302019603813 0.4204552111580753
-0.45908032013288586 -1.912207151902584 0.5546224552605974
0.35161058627524716 1.4645634941736536 0.36160166917899567
-0.4613153375055335 -1.921516669251022 0.47442370216149043
0.3580702692218327 1.4914700100659237 0.24293804019411527
-0.365434723332552 -1.5221451690801657 0.24793456239252887
0.36513265270050405 1.5208869543459238 0.12309759555845172
-0.3669909876981091 -1.528627476684221 0.1237240981959344
0.36961720362017125 1.5395664532605726 0.04353456997221479
-0.36728794929856007 -1.5298644107703048 0.04326022374521596
0.39096355176398856 1.6284803922762852 -0.353689289014755
-0.3715810799455761 -1.547746586867289 -0.3361547320314498
0.3554118539517229 1.4551982701180532 0.3163548778129134
-0.46412226437325715 -1.9003021669924096 0.41311886647427626
0.38234381839911397 1.5392183229770622 -0.12482050610242644
-0.37298838330258816 -1.5015557365116154 -0.12176631747072467
0.3660592714730626 1.4736609063176063 0.16160489769738037
-0.3694087902618321 -1.4871452113978512 0.16308361626395904
0.33455087606520834 1.3029896341655023 0.7055251409987106
-0.46254460427737676 -1.8014922925957086 0.9754475940675347
0.34613203962703404 1.3480952881996973 0.5321810829759017
-0.4637173267169761 -1.8060597449381535 0.8596112136404402
0.3693083712116201 1.4383611400422496 0.13449370903272473
-0.46534385227976793 -1.8123946437521983 0.7154703029782343
0.3739452338313995 1.456420527599927 0.06499391417917096
-0.3725215392863306 -1.4508756034429378 0.13566387176338862
0.3872478035028441 1.5082306157799927 -0.1657243141670053
-0.373201380976594 -1.4535234120085747 0.06486462811203356
-0.37638795545733233 -1.4659343001991325 -0.1610767968589148
0.3285728451227869 1.259157990430518 0.847512265741857
-0.46147363401697594 -1.768460852047428 1.190313110018893
0.39007634772429767 1.471180146470721 -0.09575708629892608
-0.38471569302271785 -1.4509623383030368 -0.09444113705495855
0.3189895177819803 1.2030748550404522 1.0630280244257977
-0.4626432119331435 -1.744867414459492 1.5417519140282043
0.303569545304071 1.144918144178662 1.3120400048376455
-0.3723545196499732 -1.4043419447335246 1.6093314804471766
0.3037963905441017 1.127875944590037 1.3676386974298103
-0.3773568774433765 -1.4009769629972475 1.698795260235086
0.37053179130608654 1.3756381152899935 0.34203211456367316
-0.4876844956207822 -1.8105798102968702 0.45017394779846204
0.372836825657184 1.3841957969378902 0.3027452677967943
-0.48792263995401597 -1.811463946096883 0.3961954939312287
0.384543000434151 1.427656197867805 0.11636348871850728
-0.3866129255512762 -1.4353410118398646 0.11698985224025499
0.3857480098205594 1.4321299215269343 0.09331324014701299
-0.3867841270299074 -1.4359766152750488 0.09356387903954237
0.40135957494579694 1.4900894934975568 -0.1826493716592613
-0.3910486112965501 -1.4518089601288326 -0.17795709284172023
0.3532617487764234 1.2913074695744429 0.6428616926467713
-0.48365276892952547 -1.7679367646292656 0.8801457807539653
0.3387545694583579 1.238278153265051 0.8577934231605983
-0.47525380609597306 -1.7372353272921917 1.2034364284827355
0.41031326273852226 1.4770388753983923 -0.49809254861192137
-0.39811680285232676 -1.4331342614604798 -0.4832868712418796
0.41761375051755373 1.5033190501776121 -0.42025657490602575
-0.3974922464332821 -1.430885993625676 -0.40000773401433654
0.40456585620602814 1.4563494567221498 -0.16086555845606604
-0.39447264782149016 -1.4200160926433183 -0.15685224497821162
0.39099357507014604 1.4074921842768542 0.06314091742630003
-0.3904599123742892 -1.4055711141587155 0.06305473710426725
0.3865715594209666 1.391573885711837 0.1308034787446437
-0.38976341378837 -1.4030638701052416 0.13188350039840593
0.3479838905412473 1.2526666355148885 0.728092378885802
-0.4820630250314168 -1.7353224792475415 1.0086283423123328
0.388914273665215 1.3789859964007423 0.11276218102763678
-0.392154325682403 -1.3904743542776878 0.1137016048463061
0.39934648613153423 1.4159758316334679 -0.07517199108913514
-0.3942069280387168 -1.3977523332494048 -0.07420453343376017
0.4076846674413116 1.4241103121424907 -0.18713372433285094
-0.3981482453315201 -1.3907980044888189 -0.18275635542806773
0.40216530500978276 1.4048302616943744 -0.09193477728315386
-0.46330339214995025 -1.6183957629614085 -0.10591091185948974
0.38522169332437517 1.3456434095677845 0.18800282252957715
-0.3920254041063024 -1.3694099022990325 0.19132329189265915
0.3810061228801445 1.3309177212585563 0.25283265921903947
-0.4550441408291331 -1.589544825175661 0.3019637042002768
0.3771103714330913 1.3173092138694693 0.3119362159355599
-0.4952430995933302 -1.7299664703476019 0.4096526379486021
0.37317673796913503 1.3035683782982732 0.3766704200485149
-0.49361948526566857 -1.724294915610268 0.4982407528159797
0.34532552023889646 1.1886182369623306 0.8061197006848893
-0.4844499728143381 -1.6674877436937718 1.1308885216816198
0.38990891864306854 1.34207530081413 0.12657378127896285
-0.3943442831349897 -1.3573419255310988 0.12801360691067012
0.40472801441118017 1.3930829630137938 -0.11417132963880477
-0.47135462442869785 -1.6224132589010487 -0.13296629411907096
0.422917861350661 1.4556928268456446 -0.4925402282257944
-0.40649808370523594 -1.3991755814862221 -0.47341736355636804
0.426830236862291 1.427223177614863 -0.35764081167983747
-0.40625582700330665 -1.358427033198418 -0.3404015254102162
0.40233427482824263 1.345314255159008 0.016543462890051715
-0.40119094483100337 -1.3414912198377267 0.016496450645349436
0.40078146615105953 1.340122016317709 0.03846034022683593
-0.40078146615105525 -1.3401220163177103 0.03846034022683593
0.3723741254707559 1.24513433378759 0.4621363451441839
-0.49875830460704895 -1.66773426736575 0.6189859182885556
0.37159285522774904 1.2425219438899175 0.47845059190653
-0.4990504123895891 -1.6687110093151198 0.6425607000776609
0.3633926327822034 1.2151022661699993 0.6029007191803224
-0.49591622293333315 -1.6582309930260026 0.8227691496401228
0.3585419772936014 1.1988827780876892 0.7007886521078508
-0.4933174109140678 -1.649541157049466 0.9642141376732394
0.34462418141160817 1.1523448359537956 0.9792116996017756
-0.48330845276490764 -1.6160734787535924 1.373267800086804
0.3579677721315727 1.1800615977557039 0.823971904628679
-0.49388957269358674 -1.6281357251721136 1.1368373456228555
0.41175181215383844 1.357363816400972 -0.08924077046629124
-0.4074161648324473 -1.3430711026325972 -0.0883010866664637
0.39846889031196225 1.295243370696612 0.14961000675099265
-0.4042998833953529 -1.3141973099362183 0.15179932425050635
0.3716007096946896 1.2079069846616672 0.6191168136627873
-0.5026107267911936 -1.6337617007130367 0.8373900898611553
0.4198707607910849 1.327619012825794 -0.14819345807483497
-0.4120934904230969 -1.303027512362729 -0.1454484691452821
0.41478210865134446 1.311528844228087 -0.07028437308877249
-0.40997564226313843 -1.2963309386881503 -0.06946992263437503
0.4007341618651303 1.2500144158451465 0.3646547568503223
-0.45943489591927045 -1.433120252010592 0.418070472156006
0.40375174473765413 1.259427194815889 0.3010858176325815
-0.46077764576450553 -1.437308706160859 0.3436111819454019
0.4058465522063055 1.2659615504646484 0.24279606423374595
-0.40704477647432274 -1.2696991844149748 0.24351289707306265
0.40828398230496654 1.273564652597894 0.17963648139061736
-0.4082839823049625 -1.2735646525978956 0.17963648139061736
0.40909499309688285 1.2760944473540559 0.1586072131247764
-0.40879259804604856 -1.2751511831934512 0.1584899737620753
0.32377471785250633 0.9964761188882264 -0.5338588545345917
-0.3556166608921117 -1.0944755427729063 -0.5863617286009523
0.4333309293771319 1.333655467492858 -0.296147597781169
-0.4173438498125302 -1.2844522959093883 -0.2852216866873147
0.42807931882931016 1.3174926721661713 -0.17500330162335426
-0.41615179170971783 -1.2807835183110061 -0.17012720382017532
0.42022526887559575 1.2933203919234721 0.03739100471169419
-0.41159807713508795 -1.2667686259316726 0.03662337032387888
0.417551717091083 1.2850920456104917 0.10634377209282073
-0.4104843373794922 -1.2633408874211778 0.10454382304081287
0.4144138543644187 1.275434697154721 0.17476982177901987
-0.4095235563741322 -1.2603839075381504 0.17270744741772184
0.4057118837779829 1.2486527855398641 0.3926437170321941
-0.5138599945518761 -1.5814984456453025 0.4973083273188145
0.4045486079100162 1.2450725905518298 0.4083805432370934
-0.5134866504533037 -1.5803494106594245 0.5183504606293471
0.39732575614144017 1.222842938572226 0.5744809753948998
-0.5032142018794714 -1.548734064797261 0.7275817916656244
0.4427563908735035 1.3446734915439233 -0.3813200486202415
-0.4204598920794013 -1.2769579000794764 -0.36211738508002067
0.4185354640748826 1.254507796301366 0.33955596641895747
-0.5102630856919377 -1.5294498892232604 0.7742264654060192
0.4225965610131838 1.2666804273157903 0.2547250315043969
-0.47328502804217126 -1.4186127784033895 0.3839740449323824
0.4255717152800244 1.2755980807605245 0.1698771659572992
-0.41484454553779526 -1.24344472882507 0.2500524132950684
0.4367588665852508 1.3091301699989615 -0.10861349114017306
-0.4164896202016923 -1.2483756347303037 0.16625182969206861
0.4421347181903129 1.325243613970111 -0.26650188480048637
-0.5340568843744804 -1.600768829941591 -0.13280962818881784
-0.42445715230018266 -1.2722573173899347 -0.2558465247154738
0.4336172629771715 1.282910004595896 0.10657855955089296
-0.4224734951862824 -1.2499397969762516 0.10383953871263657
0.38784277368624664 1.147480548066886 1.0934913692880606
-0.5096088750223149 -1.5077405353010906 1.4368010553686519
0.4248811976928767 1.2409764273079178 0.45485654300355105
-0.5296511013662475 -1.546984274809711 0.5670179576635944
0.42341118139527123 1.2366828610522385 0.4880762979792289
