-1.5487325480698129 0.45655116908327875 0.5246232215198599
-1.4522588938504855 0.42811168179125836 1.100018860359232
-0.9676226276802277 0.31439965025394295 1.9967965119965045
0.9577011134630906 -0.3111759548683363 1.9763223680319295
-1.335798066590768 0.43402710202517153 1.4045412062307023
1.662997446974254 -0.5403406253069607 1.748578994498102
-1.2677772711876225 0.411925805845261 -0.6792075685229056
1.7102892946889001 -0.5557066781006962 0.9162819524506816
-0.3380366925203798 0.10983477944929704 -0.6975761719935727
1.2068967353097704 -0.39214452062132776 -0.6465910185312558
1.2146837375324442 -0.46445000707029793 0.4225418425512585
-1.39259971608659 0.5768336893599822 -0.4897641530113248
1.570504483582841 -0.6505242568677547 1.2350509537152083
-1.39234254923993 0.576727167364303 -2.5847967551862452e-15
1.2817216200797839 -0.5309064782238524 -2.3794359272025527e-15
1.296137622723096 -0.5368777820339186 -0.45583934683181954
1.0461861270434196 -0.4674339512098795 0.37231315963609135
-0.8604572742039958 0.4384248794095386 1.895320000523437
1.3208562584523793 -0.6730098788054665 0.7553366451705041
-1.379846660840981 0.7030669900983821 1.5486381113739889
1.3068365687283927 -0.6658664900970799 1.466696969383927
-0.3211094340671318 0.1636134287299558 -0.707304303176726
0.8944026817343484 -0.45572092843970863 1.9700911852725127
-1.0408786786083264 0.6378512746092292 -0.3966526539656143
1.103621713744751 -0.6763002559911161 1.781531104611269
-1.2434053245085068 0.7619597628361958 1.0595171158610424
1.130454666668953 -0.6927435106911884 0.9632708212136567
-0.781278855840801 0.5676323149997079 1.895320000523437
0.9637732222642194 -0.7002222333277096 1.1912892176125818
-1.0608801211370205 0.7707745251215193 1.3113199457035636
-0.30870407172639613 0.22428663667764268 -0.7488913811143612
-0.9888699931606928 0.8445747615929328 0.4225418425512585
0.8302118280814142 -0.709067887207644 1.502734857466414
-0.8730650199199373 0.7456679706673908 1.5803017903277126
0.5769580293002865 -0.492768709148434 0.24653282075641814
-0.8059306731971456 0.8059306731971414 1.139758088367877
0.6899180715998539 -0.6899180715998455 1.914902375830133
-0.8514405384357161 0.8514405384357117 0.6135291509102101
0.2545152290078807 -0.2545152290078776 -0.7064198442895936
-0.04711122218054034 0.047111222180540105 -0.13075957131052224
-0.5928398252876986 0.6941262522123318 0.29659852923187896
-0.038959942382458056 0.05362376031781359 -0.13008695253150193
0.04142609258229497 -0.05701812486603506 -0.13832140937007675
0.5359115647811735 -0.7376189887362139 1.7894046557974412
-0.04904514058072458 0.07530689906419812 -0.12369496812219827
-0.3994058384772711 0.65177109136822 0.2483735506187156
-0.045061507363947824 0.07828529800996754 -0.12432567180425548
-0.30875776734685745 0.6059712378512544 -0.680097419492239
0.3896334388325173 -0.7646986803487855 1.684393573846793
-0.39498541021871786 0.775202515616513 1.7075302590279853
0.03264834485669406 -0.06407598460310186 -0.14113948340298482
0.033238245050528255 -0.07439209490266076 -0.11214738196656465
0.03342028304004188 -0.08740461555494022 -0.12879642021895096
-0.26170849196232415 0.8054559172514012 1.662147535749913
0.21429298107155564 -0.6595259799761215 -0.6934666538486205
-0.034786722602046724 0.10706252346460074 -0.11257219905465142
0.2568049450788077 -0.7903643517342254 1.631004418047605
-0.3030994544097173 1.028187029482552 0.34829176438781545
-0.8421145591555372 2.856657293390303 2.1637856126192956
-0.7752096602831454 2.878047123210424 2.1655483691628516
-1.411106105113116 5.238879330892374 1.7628825588964137
-0.27238420029309807 1.0112548955790757 -0.34028720751453634
-0.5233976251883141 2.180108007862737 -3.845405516233751e-15
-1.2596982805439614 5.247020958333012 1.7533043959360644
-0.6973226775901051 2.9045579886448745 2.170249058038686
-0.6178945249668856 2.9257920604750858 2.172599405062263
-1.1150055127804315 5.2796620537360655 1.7533043959360644
-0.3991808224893428 1.890160915725585 -0.6276968883307841
-0.9866436066078469 5.28483569805037 1.7468159714613152
-0.5492373114218648 2.941922423318518 2.1743621664565853
-0.13177610910293477 0.8320016084466277 1.653249340121421
0.13702480238853443 -0.865140553628624 1.7190988994230492
-0.27306125054845715 1.7240408842493609 2.043754530976163
0.10705107739498333 -0.675893902050145 -0.6843190045585483
-0.32273063300654903 2.037641022977109 2.0630404746393105
-0.381417597673399 2.408175935034109 2.082414531765384
-0.5443504392720894 3.4368934104681363 2.132384178412743
-0.6651362877443479 4.199505244211159 2.166427109913612
-0.4855186096979855 3.0654438573835385 1.2855759942012257
-0.8343980852455376 5.268182174560904 1.4817143486439441
-0.8340200740090603 5.2657955055440295 1.213718752406099
-0.24390032713161094 1.5399260598569278 0.2847461335972976
-0.29309775948435757 1.8505464228922008 0.25165778371854153
-0.2937464141163245 1.8546418670572833 0.17006348565189974
-0.20871630425714038 1.3177828821408808 0.05766957493959997
-0.5530303540453605 3.4916962355151266 -0.5599239469731199
-0.2012977560521728 1.2709440121750772 -0.6556504642907502
-0.018504616933890806 0.11683355319483307 -0.11828989813166664
-0.1797973672217607 1.379649559395473 -2.3862800274856737e-15
-0.5769089423537747 5.420656383846447 1.771224841881183
0.05413806195482927 -0.5086831033458804 -0.7040962793668062
-0.19900861799169187 1.8698918605002366 -3.2252094209549042e-15
-0.054261715363615425 0.5098449550533585 -0.7057044622591222
-0.13907670905397876 1.767137139273213 -3.0402322227594557e-15
-0.23633156046790982 3.00287719292484 2.1884642920867203
-0.2733673439886617 5.350149042731706 1.7406365260437364
0.02607422588990495 -0.5103059957689111 -0.7032922048668977
-0.27365978602628094 5.355872507959096 -9.197971393027814e-15
-0.025239703077717054 0.493973315502093 -0.6807828735804233
-0.04666253998157757 1.697075015243129 -2.9117950034605425e-15
-2.191751197452493e-15 1.277896268267657 -0.6511206704963345
4.322657651313543e-15 -0.8401057090836369 1.6488002903823975
-3.81731178477107e-15 2.2256762036872733 -0.5994918150735727
-4.644447768399429e-15 2.707936228482578 -0.5718858124412188
-5.878765168055955e-15 3.427602585098359 -0.5428789170957442
-5.94589680606146e-15 3.4667435559301043 -0.3689581513086469
-6.0144922408861685e-15 3.5067379906472285 -0.17917774680869605
-3.719873570767249e-15 2.168865042727546 0.23082769858585195
-9.252824380243488e-15 5.3948412393671985 1.1393300671987003
-9.106200800279382e-15 5.3093526465497485 2.1992058736223834
-7.712627613499955e-15 4.496832513327876 2.2912506076545407
-6.279584153315194e-15 3.661299314046861 2.2436471052641034
-4.299132520528641e-15 2.506600845550927 2.1408393683514366
-3.6110992231705424e-15 2.1054443711482875 2.105444371148284
-3.0450099777861855e-15 1.7753871388201172 2.0787112611693135
-1.4782120378641114e-15 0.8618686505523495 1.6915124679395865
0.14807957904542823 5.385522390443428 1.7505236417433088
0.14954425794000084 5.438791457200504 -9.331729975219448e-15
0.2255490689947043 4.41428415685665 -7.580923432200089e-15
0.27545388418544636 5.390985306762634 1.7539223414839553
0.15432581378263516 3.020353831700768 2.1972781513797495
0.1540311112848419 1.9571508357257539 0.6378832361603018
0.19856595913288552 2.523019730377398 -4.3406738008494254e-15
0.20725303795298727 1.9473567157198644 -3.358821629299621e-15
0.20022582502638273 1.8813287799145473 0.6147329833820094
0.25655889313202407 2.410636237002387 1.7613209438389819
0.13742183057620666 1.054486897863995 0.34552079924984685
0.2498480042577325 1.9171731728689578 -3.315995732751975e-15
0.19879446085243221 1.2551388283160647 -0.6474969374350484
-0.12986118166921196 -0.8199112324615052 1.6292248599806383
0.28102001638713303 1.7742905541182836 0.1911878133051612
0.279106461643872 1.7622088449596056 0.3767977837179628
0.27293005693348177 1.7232125603641328 0.7226753460756612
0.3724358570117559 2.3514674563272946 2.1493125259593033
0.2966220068282672 1.872797644897941 2.1003438685914975
0.14099712170542011 0.8902207907324261 1.7689352038496262
0.41804545528117865 2.2392093058540947 1.654989934076691
0.5559021249738096 2.3154989933461994 0.7737294354374405
0.5880092058183573 2.4492346098062687 -4.320107189704258e-15
0.39820816142242904 1.6586563632209823 -0.5542439254724505
0.11492094876238101 0.4786802014585214 -0.6775680336816249
0.3977124361793434 1.4765491085249198 0.4968586803333076
0.2957591837859818 0.910253170906511 1.8784082809817704
-0.25960694117825533 -0.7989880090007548 1.6488002903823975
0.4060930109730579 1.2498257744337162 1.3141445886963872
0.8608983267916079 2.649572607548267 1.707217346519559
0.6671126927531587 2.05316175192706 1.09997476134293
0.6681424709509229 2.056331083333261 0.3424516231952369
0.6702769095145875 2.0629002097617635 -0.34354561434610964
0.38088217187201207 1.1722347899740528 -0.6280209935380715
0.20537905046060545 0.6320917224832943 -0.6646205684448852
0.6208322522678809 1.7459097814575852 0.6020783583178502
0.49054315995023556 1.2829255891455518 0.4462805630335874
0.6576850323718985 1.7200544753565143 -3.1584086345969594e-15
0.486666728966392 1.1749174174264192 0.9239597161917747
0.512910150400237 1.2382746413750807 0.4354894833906115
0.5517690998107558 1.3320884440615257 -0.46848291077879356
0.017444216585265803 0.042114064265122535 -0.1402929253341004
0.5541335597192187 1.2402326386581295 -2.3298190847769238e-15
0.5444285710697215 1.218511442621903 0.4336397066718753
0.5383649507561268 1.132518360185142 0.4074387606020191
0.447896362880639 0.8790461071670921 1.9362654233324197
-0.4895630293290582 -0.960821544468148 1.0783552290409675
0.5283350403861181 1.0369159006882867 1.1637579215627265
-0.06315669396543523 -0.1239519910695385 -0.27302772005284265
0.30109274926177076 0.5909277928325813 -0.6632137664433709
0.6873507840872541 1.121654536662085 -2.256259153822212e-15
-0.5931617859096989 -0.9679520610770787 1.5625251688190662
0.6889019049370697 1.124185735837797 0.42839887571386853
0.6219967504439906 1.0150064466006532 1.6384831264911555
0.5809614784937358 0.7996248754889822 1.9398259764745913
-0.576962664973471 -0.7941209808563595 1.926473968417544
0.7823967079527212 1.0768766834622927 1.3310927841439142
-0.75126693097084 -1.0340302212361383 1.2781316442370076
0.38817353192144827 0.5342750313421225 -0.6604002574196971
-0.7391104633924359 -1.017298279044429 0.6407026879583552
-0.0817694936738305 -0.11254605273874331 -0.27302772005284265
0.9906526989412185 1.159905282723544 -0.4956248230168598
-0.8815135547833208 -1.0321197631403831 0.9861559954025078
0.9381709708071773 1.0984570741089654 1.049539082585631
0.7171785507107303 0.7171785507107316 1.9905652093817243
-0.693125079769434 -0.6931250797694399 1.9238035886205282
1.1000477262373665 1.1000477262373682 1.555702413702568
-1.027122193314891 -1.0271221933149 1.4525701360003227
0.7597156561073182 0.7597156561073196 -0.5474342369005172
-1.013645144005895 -1.0136451440059036 0.7304101889120378
0.46448681359108407 0.46448681359108485 -0.6568835513239787
-0.04735449532545881 -0.04735449532545922 -0.13143478818388288
1.001134241933237 0.8550494195912883 -0.427782327457976
-0.8532993362877179 -0.7287864820421416 -0.3646128169491279
-0.8859860921635409 -0.7567036089061416 0.8465301487609271
0.5302919722347269 0.38527967008836767 -0.6554769256045573
-0.792653288282556 -0.5758963239005754 1.9229134636516156
1.1305838100504928 0.8214172194760189 1.3974784434831173
-1.2345864408968086 -0.8969795538103164 1.526032765047984
0.8462273309632725 0.6148201443052861 2.052879805173016
-0.7263060813753872 -0.5276922564681459 0.4574334472037281
-1.137250485842205 -0.8262608429591279 -0.22264400248859006
-0.05473917426560692 -0.0397703380518604 -0.13279285753368011
-0.43747448721115884 -0.2849141047151711 -0.7185715176471207
-0.6777500147727197 -0.4413983999630548 0.2627991057550115
1.4066501363629667 0.8619963122003699 -0.5360389459946056
-0.7534186599651708 -0.46169554862599205 0.6419949713161544
-0.7222787756913287 -0.4157481825705532 0.27078371235197535
-0.07247580060875639 -0.0417175243099117 -0.1150995503534732
0.5834075717444323 0.2972610052315355 -0.6547736250033307
-0.6323061557620353 -0.3221760782327484 -0.7096537888294563
1.0792128588344096 0.549886416997771 -0.6171519535153501
1.413207272174129 0.7200650705833196 1.586079600776706
0.9340087185028866 0.4759012121268994 2.0573309772753485
-1.250271953129505 -0.6370453789085946 1.2667885492176416
-1.251569345139944 -0.6377064331558839 1.5559423766378921
-0.8729844443190993 -0.4448077913933374 1.9229134636516156
-0.8273832517282037 -0.3696732469710461 0.294446336763676
-0.9698379089787772 -0.4017200152025772 0.7626843775070482
0.9973882702532816 0.3240710937969606 2.058221213700414
-0.9318198260672429 -0.3027666148295721 1.9229134636516156
1.474186072663646 0.47899209092065365 1.5500509669039904
-1.4412659825490732 -0.46829570524067227 1.5154367357299994
1.1511018648489928 0.37401566825986726 -0.6166990973216155
-0.6749208601797949 -0.21929508087087368 -0.7096537888294563
0.6274090356186994 0.2038575532670088 -0.6596969000988274
-0.9535164854093504 -0.2810873101985106 0.7222445819097336
-1.8185614770371865 -0.4898343788219308 1.3683524529741806
-0.09309497426853097 -0.02507537934134797 -0.13270098385780363
-1.3447876156581178 -0.3228549419935144 -0.4493639451523882
-2.119831222898833 -0.5089264494528455 1.5839111261275212
-2.504849386647726 -0.528996145278003 1.8600208677570054
-0.09293875635833473 -0.019627624767606388 -0.13074075077246627
-2.6064434213585903 -0.4866056173926587 1.92641108395338
0.6481015668328888 0.10264920393628227 -0.6561802343868659
-0.9681586686434841 -0.15334126887845026 1.9238035886205282
1.1901718721530834 0.18850470586097196 -0.6139819953417949
-1.904323697580612 -0.3016152430380643 1.928061332012027
1.4521277684090705 0.22999444387918877 1.4702287237025389
-1.056618019135438 -0.16735185359759072 0.6555674784000143
1.0367006819122675 0.16419725728873982 2.0600016885482137
-0.9761035885608964 -0.1545996205729929 0.5035491452849725
-0.9639439981654275 -0.1526737306536309 0.4042557363466261
-4.36064153991418 -0.6906577697552488 -0.6992669057317012
-1.3816030528309895 -0.21882442627331253 -0.712736890355932
-1.0494883766560732 -0.13677041808739152 -1.8152241163256717e-15
-1.0046972966815209 -0.1309331979037583 0.3292063786252312
-1.0150383515947108 -0.10802837523737487 0.3316685317232621
-1.0860933711601137 -0.11559061000816041 -1.873305428349838e-15
-2.665876805420606 -0.20980905477077214 1.9428620689221905
-1.0317897364103763 -0.08120361333962334 0.3362854635853222
-1.098791051547514 -0.08647673120041045 -1.890390896525671e-15
-2.163639737751943 -0.1702821403146552 -0.7051830102254047
-0.09060445765879949 -0.007130725463666704 -0.2797141129916698
-1.1017476907147181 -0.05629410275317424 -1.8920995088044074e-15
-6.06432025497224 -0.3098581194575519 1.9729875293421593
-6.077541886327221 -0.16710725142568042 1.9754593861831582
-1.1167104405981454 -0.03070491587833202 -1.9160213025586618e-15
1.0496232863168125 0.0 2.0600016885482137
1.5465188327336992 0.0 1.5465188327336965
1.2094513500916333 0.0 -0.6162462427970864
0.24641529984966376 0.0 -0.24641529984966504
0.754819271240486 0.0 -0.6446765605821121
-1.1459925766707135 -0.009000789721928875 -1.9655805675616765e-15
-4.779462020245132 -0.07508178918580609 1.9799622526621552
1.5497414516881585 0.030433013308907735 0.789784948337469
-1.137836866454495 -0.02234424617245741 -1.9519081348965608e-15
-1.1309433294683986 -0.03109626142286968 0.04000260062113425
-1.1228629885344885 -0.030874085485738605 0.07953301091255362
-1.1233140943900584 -0.030886489029973475 0.11959711593530804
-1.133179941253653 -0.031157758991283157 0.16133634059010968
-6.939101969224429 -0.19079658834574884 1.2115248749329475
-7.15113466853199 -0.1966266101302744 1.510810354977937
-7.149566950767071 -0.19658350437936284 1.776632866493576
-6.917066625369076 -0.1901907075777081 1.980919431717601
-3.7667229521950842 -0.10356929350654501 1.9199665629508533
-1.7519646918437213 -0.055057708504444976 1.9415973751700366
-3.194747094284347 -0.11295871950041411 1.9589669040722826
-0.23194217742471557 -0.009113032970609718 -0.714395393995201
-1.0767906800842242 -0.04654297113439028 0.17070613088503067
-3.826400389891863 -0.19551098544497356 1.9521917197872074
-6.8482630009973136 -0.34991389072829765 1.963031873976237
-1.1552129638466393 -0.05902592566034313 0.2873307297533661
-1.0731036810190402 -0.05483052916127011 0.22692312102401657
-1.0716212827542986 -0.05475478561223452 0.1872718339756121
-1.0769671891956418 -0.05502793617933271 0.15347507822405707
-1.0876461618297415 -0.055573581237478784 0.11590687522952645
-1.0920496020752417 -0.05579857623382577 0.07742212537500674
-1.1010596538062014 -0.05625894731717701 0.038981657313792634
-4.396425313979069 -0.2246365664821518 -0.6972337281021055
-6.074040520864457 -0.35820491382752473 1.9770042970632329
-1.1297618132859581 -0.07999142656961797 0.3680008382003787
-2.1616990263872338 -0.1530564999642994 1.9564179070779233
0.6534563089972797 0.05142812685340125 -0.6554769256045573
-1.9298671713479791 -0.151883840329891 1.9358347036872732
-3.186888954250556 -0.25081360016005316 1.9589669040722826
-3.80537247307888 -0.29948930873474033 1.944929688982902
-4.733085903299009 -0.3725019391371893 1.9665706540399837
-4.408278439571764 -0.34693903735247866 -0.7003616948175263
-1.0786773527380806 -0.09342358342916887 0.17148528435180485
-3.8125330544179374 -0.40575979297775927 1.9535533520672745
-4.401004885662009 -0.4683895997258326 -0.7009872889345418
-0.36150276903686696 -0.03847397166965156 -0.7134959715952435
-2.14113206530737 -0.2534196799900801 -0.700551885805983
-1.0394935745019167 -0.13546788506298557 0.1660318062474458
-1.0636297471934166 -0.13861333622135294 0.5465291427790964
-2.2550362875970746 -0.3571626603225917 1.949990557846805
-2.7779906528494025 -0.4399904947783569 1.960286024330645
-2.878679651924026 -0.4559380655436293 1.947448572359975
-3.0214960942312823 -0.4785579678276061 1.9582953362488038
-1.0537872747135182 -0.16690350772662313 -0.02933596360109177
-1.1432223946225482 -0.18106863913877305 -0.05914139289802568
-5.7550336967108064 -0.9115077911024111 -0.45857681633806585
-5.5901635758439925 -0.8853949292826815 -0.6023653496903865
-6.715468830712675 -1.0636257722693219 -0.8860759562763404
-3.630689344894936 -0.5750446998834562 -0.7012242679787396
-3.0059059504491925 -0.4760887316301006 -0.6802748978677521
-2.7232418926714277 -0.4313191430391059 -0.7079254133362846
-2.4146272846282075 -0.38243939106820307 -0.7102585363713618
-0.9793912835949308 -0.17093114209693322 0.15746510178357545
-0.5361783710741185 -0.0935781059833058 -0.7491414368948511
-0.09698720930394962 -0.018896325063720208 -0.13600150782442852
1.5062959740816395 0.2996208981790272 0.7825322714366723
-1.7214482824114337 -0.34241735317611166 -0.5702904235795907
1.490700622254431 0.2965187898269585 0.931399088516736
-2.7737543668540057 -0.5630664402429636 -0.448279930657676
0.09179329709973147 0.019385716597157092 -0.1841281743774568
-0.9568490074929172 -0.20207579716170068 -0.7105254035298684
-1.7089315154317304 -0.36090720225591744 -0.567513054408455
-0.9673352287864501 -0.20429036969144262 -1.6956952884402853e-15
-0.9579691536604724 -0.20231235949073467 0.3181286058064093
-1.889217356497291 -0.3989815533447547 1.9308880081454731
-0.9624535397448918 -0.21116892687556243 0.15606366699123642
-2.3792817203510803 -0.5318324747715651 1.771308192828553
1.6018081373541448 0.37127919067963605 -0.2604274441650082
-0.9275246579898592 -0.2226789689064182 0.39511021959393705
-0.9523865041938756 -0.2286477700915193 0.15512944227819794
-2.0871957077204764 -0.5010913554668851 -0.16893351103193552
-1.9911352549169705 -0.4946005676710031 -0.324948726857414
-2.0251119100261965 -0.5114919968668454 1.5175353995908012
-1.6808974173035822 -0.43158110301838737 1.9223115314692307
-0.9296426303024468 -0.24258697185527509 0.1521714198213203
-1.791429163816197 -0.4825262179703889 1.8552762597521681
-0.940547606844662 -0.25333900369527507 0.496312954158426
-0.9254675193519395 -0.24927714195298598 0.23010383987304164
-1.8581536916268646 -0.5004986473025962 -0.3047916703942634
-1.112615938179543 -0.29968606716198026 -0.706111914116905
-1.8128660116954596 -0.5036041911665452 1.6985890151178082
1.551223549115342 0.43749028740771456 0.255273870762201
-1.7963272264627077 -0.5066166736777988 1.3560195579048397
-1.644329201293104 -0.4847321250811081 -0.27151656429974214
-0.9173602628448242 -0.28221686690083453 0.1520157498088671
0.10031443726901645 0.03259413648522381 -0.12349751391094141
-0.9859843960341583 -0.32036575044980853 0.8854470942500671
-0.10231768572426762 -0.03324503136478345 -0.1259637212755505
-1.1742815946074567 -0.40204645258884447 -0.19658684220184722
-0.8635806230190958 -0.3070827077652632 0.14516789637349092
-0.06583014625890225 -0.025171006205695803 -0.13832140937007675
1.4649609129241985 0.5733746488668533 0.801570979789757
-0.9743453687377615 -0.38135142633936686 -0.1657202222066032
-0.8349469794157028 -0.3381883440163609 0.14267860924492382
1.4835068423529993 0.6419707367246038 0.6695565860187641
-1.1534143464856237 -0.5045137843690778 -0.19939455033358688
-0.8061613913114187 -0.3678138055819272 0.14034534399893012
-1.1500106252182885 -0.5633843920165835 -0.20282649905065364
-1.1300229154960941 -0.5535925140611039 -0.6411556276203251
0.09166276203839835 0.04670451002951585 -0.120451761292207
-0.5398644637939106 -0.2750746835806637 -0.7094224969547492
-0.8013191926530572 -0.4082925218250657 0.07077971536804031
-0.8680412447990996 -0.44228910543596894 0.7618331474412755
-0.8911206263960416 -0.45404863771820436 0.8406954643613633
-1.2571191125414665 -0.6405341808857342 1.410897763836911
-1.1462350544071838 -0.6242989815638003 -0.2067268286085814
-0.7273537591493846 -0.40733767710343216 0.5108595950584058
-0.7864339786374525 -0.440424189775305 0.6548771871925548
-0.7020091945960389 -0.4040808848657754 0.41271507022243875
-1.1394067111383128 -0.6558496321742768 -0.42716578349610107
-1.140993835780033 -0.6869341615718886 -0.21093962258782228
-0.4542781479467796 -0.27349769025431603 -0.7298324312632306
1.4073507226767525 0.8624256320456181 0.8410124687374961
1.4077399058574727 0.8626641238054942 1.0117563772743365
1.388497346986762 0.8508722685636937 1.6284681452211445
-0.4469508444222342 -0.2787438467562665 -0.7250060762267935
1.3582620652898778 0.8694801087396181 -0.25543003445291385
-1.108006373792338 -0.721611552756384 -0.4296319850337885
-0.6913671657950577 -0.4502668448797708 0.42039054516309654
-1.1349053944122867 -0.7518898371578382 -0.21562100665902356
1.3093529561312964 0.8748816747834182 -0.5116658004971563
-0.7615181796270049 -0.5088301800139611 0.6654185975793976
0.9827809501454965 0.7140321559942205 -0.6189633949090692
-0.832591991981185 -0.6049134906510348 0.878968852529589
0.17352365984213478 0.12607231849044712 -0.2511320568653758
-0.06628872585437412 -0.04816157846049173 -0.1337096375913028
1.1061543017088904 0.9447450242318928 1.454689142050629
-0.03325753334732481 -0.028404616878107514 -0.13460725914919863
-0.5701137175527528 -0.48692311467958443 0.11874859767135063
-1.2151922113198852 -1.0378721968139624 0.8142642032092817
1.183939564376413 1.0520748916302216 0.8070108613305316
1.2686381444827246 1.1727170381147434 -0.5613412570609896
-1.14858409467639 -1.0617402159887144 1.1364151051480504
-0.7899852766285392 -0.7360290118965099 -0.5501495763488116
1.2058945611407288 1.1594452531165016 0.2649566236892741
-0.30833104714044274 -0.30833104714044535 -0.7115623168342706
1.052006612386207 1.2317414856599154 -2.778239643830863e-15
-0.8853751435617068 -1.0366411026860616 0.8354149145094986
1.0430645550173443 1.221271681669429 0.5218465422121658
-0.8433792469105023 -0.987470225313491 1.2986092560889888
0.924102729376062 1.0819852797333778 1.4229047754505557
-0.44410837310401674 -0.5498984023789311 -0.7068383832249084
0.8824618235907886 1.1193974867535288 0.8734914977002931
0.8880284413716493 1.1264587077457953 0.7308633709926301
0.9341387950906948 1.2140994386975317 -0.24262577039721586
-0.5504821605438114 -0.7898318792256751 0.1524827645403129
-0.5420393568382353 -0.7908880144024437 -0.15186008136752835
-0.6587566798390047 -0.9858990432414486 1.6320182944143389
-0.5037217550732911 -0.7937384775763998 0.38939520115248244
0.6458688660649176 1.0539621987519967 -0.6298325900188667
-0.6058488582265865 -0.9886554814421167 1.1595225310445665
0.6560344109667972 1.0705508603507121 0.9122262367580729
-0.4562713862068676 -0.7926796845505444 -0.46602075042825314
0.5734831956326655 1.0729115954011916 0.6198691255261992
-0.44645502428452744 -0.8762173208963819 1.9300344861821164
0.530906478223859 1.2817216200797812 -2.3794359272025527e-15
-0.32387326507243386 -0.8087173762648395 0.4438775884167107
0.047993648504102454 0.12551857779163925 -0.26373793115975736
0.05172649484978461 0.14021079953549295 -0.45995358616296605
-0.34320763786960357 -0.9303050100752369 0.6076496569050949
0.4747384617579943 1.2868349090082525 0.44566389789321686
0.6080345527572496 1.753424311137555 0.6030042850304482
0.5927470669670405 1.77668532435731 0.6085599171941342
0.643371207046618 1.9800929722199576 0.49984228643494455
1.3372240993911466 4.115552596210158 1.6936913933286009
0.2130487806543864 0.65569672483527 0.30804061761718926
0.5228607280650439 1.6091998550012607 0.8043317012969294
0.84141391875823 2.5896057657123337 1.7733258571140709
0.43039282952332175 1.4188150152333043 0.4817447092012809
0.7817236318935586 2.651796587751272 1.694160565156045
0.8496921336875702 3.0127810495730496 1.0170986310496029
0.6129238356921827 2.173263990324319 -3.8728225193065944e-15
0.050407540555183684 0.1787316569369153 -0.2555994418299116
0.3771453807003132 1.4001917591689887 0.8886193782332606
-0.18328763856308927 -0.6804745708327121 -0.7047268974574495
0.766263378617635 2.9364771626216384 2.204916848316747
-0.20688148828629685 -0.7928119530100085 -0.12977386859034162
0.3930551747035763 1.5062673962698327 0.5058044687161624
0.6321953928854712 2.4622384893602782 -0.4026296148163921
0.4957958561397527 2.065138365590707 2.123819672194415
0.5570389869354149 2.320234364213498 0.37793129290487826
0.39650917331666374 1.651579568454652 -0.2690174799876064
-0.18349899260577457 -0.7916688759587581 -0.41406945136155887
0.4719423647057234 2.234694058394298 1.3996277611469377
0.3522451571576458 1.6679158699583694 -2.923781743947585e-15
0.333389914728323 1.642331465259711 0.2654251739668469
0.32222238195821645 1.6199213060654136 0.5366560338992732
0.33711873925648467 1.7672383198159316 -0.28495030552059347
-0.17813533555027586 -0.9338181312377651 0.9506568781637242
0.32128066623506374 1.7209005588654889 -3.0025555559143762e-15
0.3040449758089995 1.7025954826370477 0.5619584283461047
0.2852135837117211 1.7135539746139286 0.5644271323661937
0.2646617356175319 1.6710084341317342 2.0948465286890405
0.32637900226457117 2.0606759199060853 2.086362504456019
0.36841083795870744 2.3260544861845136 1.6413777693679967
0.48870436227753167 3.085557907558097 2.087403278093769
0.1041896403087696 0.6578274993129484 -0.6660274018386949
-0.10322929578332964 -0.7685509333368284 0.39511286407704777
0.8277612897534031 6.351708683722729 1.3527527654035887
0.13468446721099758 1.0334821288894966 0.4317021931356422
0.2273313723988904 1.744394996507749 0.8963294836620992
0.24415602595606223 1.932693954163814 -0.30854159286550575
0.22326854014748257 1.8863863710303546 0.6172022506207683
-0.09134891746954944 -0.7718031067391372 0.12309484028568202
0.2016426613606922 1.89464142313534 0.402386772718824
0.19958275126936167 1.8752864366427338 0.7811558781315995
0.19888652067087234 1.868744629849217 0.9575503434833846
0.18796332835932766 1.9884443133243843 -3.4256326364579762e-15
0.15595357962001752 1.800654484015819 1.3131496145517558
0.45348216089973475 5.486494508200769 0.8719386109288472
0.43267733700106337 5.49768682863849 0.5869163963125732
0.43232071434469554 5.493155508153122 0.8727206673360666
0.42764936299069545 5.433800361454589 1.1511062740640525
0.1510777656774876 1.9196250217820268 0.7975934330636445
0.14891460266936768 1.8921394297231353 0.9670743609458541
0.1463117806597961 1.8590674403776966 1.142760742661243
0.16546851228687132 2.1024767945072727 2.10897807006142
0.13101902234625917 1.8504519122689895 1.3477977356278157
0.38352919932642515 5.416788551733848 1.7644274252768701
0.17846198368469662 2.520514296801215 -4.333818248100203e-15
0.16154120893733256 2.5676239895867137 -0.4074757488659557
0.15105050563825956 2.5613464710472935 -4.400660544884354e-15
0.3189612639457427 5.408590354306515 1.760410773485741
0.18835381833323603 3.686325462825923 2.2619300212960907
0.22042134534238653 4.313928037542777 2.200923514668282
0.2689967620674314 5.264611156820514 2.1835180579693447
0.27835250604002815 5.447715048926629 1.309586815785646
0.2790857016495438 5.462064626060276 1.155031684360128
0.280469900894588 5.489155178127574 0.8705309099207412
0.2814629798141447 5.5085910044896425 0.4341010668610968
0.17309830411471616 4.405646034024137 -7.562061524208758e-15
0.043672027631436 1.5883127448181655 0.1691046381704036
0.14879064466435254 5.4113832136337505 1.143255465442097
0.1474534591215927 5.362750966519507 2.2221637087503656
0.11894539745497411 4.325938156789573 2.2050086294743405
0.09718846103399098 3.5346577587901145 2.166859693488872
-2.7976381596313272e-15 1.6311574818854682 2.0691134017470043
4.0886398217238245e-15 -0.7946244957828467 0.4869465172910233
-5.423661094863209e-15 3.1622550413249626 2.1129512662659446
-6.663696358118644e-15 3.885255187179232 2.17584745110885
-8.136607121524579e-15 4.744032939980486 2.187029141182191
-9.34499507508232e-15 5.4485811835338005 1.0393724483751774
-3.996801560883126e-15 2.3303273681772905 0.3972837237087627
-9.308057553139073e-15 5.427044833283281 0.7941387646584436
-3.733483078211846e-15 2.1768000395449882 0.27499379599717816
-3.7132729482941474e-15 2.165016562646219 0.1875107556049812
-9.362948713730514e-15 5.459049017591343 0.343454252463114
-9.374422733376258e-15 5.465738922405524 0.2362499356641028
-9.400226882077916e-15 5.4807839810645556 0.10762877359786541
-3.216421792088769e-15 1.875328463405162 -0.02209421513504288
-6.245204602179945e-15 3.6412543836954985 -0.08581091549633207
-6.207858329948046e-15 3.6194797123850306 -0.1422097452117034
-5.242998750873698e-15 3.0569202134170204 -0.5582927626276729
-1.1483523835748527e-15 0.6695446213658935 -0.669544621365897
-0.043250150764237584 5.506666997781769 -9.44491078146235e-15
-0.1051553166443148 5.354828041999243 -9.185967447793668e-15
-0.09071211703857554 3.2991188963728693 1.3670562605166765
-0.1920308841809076 6.110521813695503 0.9682893699055757
-0.07512011557598279 1.9119346140064128 -3.2817359973367317e-15
-0.10223357361651862 2.365215554119085 2.1372561098237015
-0.15914859290398084 3.1147417959792847 1.5891105278602942
-0.15601926541160577 3.053496849002667 1.2664497550045986
-0.27589082131597076 5.399536726022867 1.1418092656148187
-0.2766383106338914 5.414166049336962 0.5769698738206657
-0.1898402213924801 3.715416274436493 -0.4403221525134769
-0.12736128302948263 2.492623429481506 -0.5992065940766493
-0.08801800942396258 1.7226251753109743 -0.6363390098067843
-0.06498257357837746 1.2717921927025007 -0.6488558265994805
-0.049808544187172094 0.9748170030649727 -0.6522015941880077
-0.039598970361738844 0.7750025671786367 -0.6627782000132572
-0.031764685469871656 0.621675577922564 -0.6734021685231242
-0.16216983107718783 2.749895624544393 -4.724607667987447e-15
-0.11889155292666234 1.889727119549565 2.0973765070395896
-0.3834232324172241 5.415291924249581 -9.31115169229029e-15
0.05345463571193163 -0.7549684855025227 -0.3856386752115664
-0.2739617608276732 3.4810142229592573 -0.5530433375058069
-0.4327081226954316 5.498077997973822 0.8735027239508667
-0.4277762869714231 5.435413083539392 1.7715338155377562
-0.23995958596189254 3.0489756276394444 1.2668322774407244
-0.23288891222941738 2.959134199571925 1.5124164583488313
-0.28157740628446426 3.57778017333136 2.1992460516247703
-0.19672527115925187 2.499631572128877 2.141488541016234
-0.16535761190040976 2.1010676714914736 2.1075645897575694
0.06486221152432531 -0.748905105666822 -0.11905896111733807
0.08495184600874879 -0.8986966584224663 0.9027028857824697
-0.31781014421682896 2.9861551115352407 1.5301148199023593
-0.321423612184304 3.02010738158639 1.2580342861853142
-0.5806931640796981 5.456213062120187 1.52426587901854
-0.581766435643952 5.466297558873934 1.2514486854070341
-0.5773664618525888 5.4249552528878295 0.996368141247284
-0.5845242535038552 5.49221011090819 0.7418621803971454
-0.1935660729583422 1.818753519050665 0.16564966749229193
-0.5700887586151359 5.356573701454626 0.23283897479876806
-0.2023370486613355 1.9011659102384535 -0.621214858552346
-0.09564712975433307 0.8987037406355133 -0.6566340024225776
0.0836934862592765 -0.7317295227203616 0.3752656471583831
-0.22571893559092007 1.907089657597592 -3.2937268034969216e-15
-0.06531482003531797 0.533872210788991 -0.7402907785667936
0.0637533731460298 -0.5211092099514475 -0.7225930381039395
-0.39893184295347334 3.0611468335948513 1.2786905207476738
-0.013854668254279 0.0973479731364364 -0.13533817012872434
0.013251146586040798 -0.09310740886823056 -0.1294427190999919
-0.23707172042065403 1.620118438595323 0.259334232796683
-0.2542982001560233 1.605575646414209 2.062050258611318
0.016829717431286226 -0.10625865392333224 -0.1259637212755505
-0.6034212088932362 3.8098515716366683 2.1602152315812044
-0.47942546425239124 3.0269732510972833 1.4568679285947381
-0.8899152543573711 5.618703785131208 2.5417188308336347
-0.4979648446742048 3.144026292316644 1.2458871083249288
-0.8424048072080091 5.318734627479039 1.9866436779775722
-0.8439107922186846 5.328243042621269 1.8707051220154638
-0.8352161084063074 5.273346969531253 1.127553897245794
-0.836469101962091 5.281258059491959 1.0636022520256203
-0.2084383045143145 1.3160276608435344 -0.05235140022857982
-0.35090014128012725 2.215496298507062 -0.17653680112399708
-0.6708123248169514 4.235342331875661 -0.5075343896680581
-0.436158012177841 2.7537933100254652 -0.588819661757373
-0.35798249318297054 2.2602125085611005 -0.6163829578423171
-0.020192719127760113 0.12749181097830153 -0.11024559958429375
-0.2388627660552583 1.2794391658036854 -2.23231212050445e-15
-0.9764197361523415 5.23007278751851 2.203797435362554
-0.9594984855148653 5.1394361799069275 2.663918806750382
-0.6666116756994397 3.5706238370972456 2.2258866295869884
-0.7498451535089348 3.5505914166171633 2.2237971665607654
-0.8791172868183122 4.162707831303833 2.16778880595388
-1.0795169706426184 5.111620275359387 2.1640039904374984
-0.3327968035651239 1.5758259804527461 0.36665483341553984
-0.2773716884001147 1.3133825449660959 0.18030040779890075
-0.26210129191754383 1.2410756981115993 0.05482722254464463
-0.2586374591975401 1.2246741055071917 -2.1467988023020854e-15
-0.2633363929365045 1.246924024337428 -0.05508558509576933
-0.2798230662849121 1.3249900631795786 -0.18189388128874706
-0.5554038447862838 2.6298924715672687 -0.6119094354481038
-0.43535667740528566 1.8782573492543793 -0.6264622042953117
-0.5015201639479241 2.0889818235879787 0.10977005909029862
-0.2993554484424484 1.2469051805726332 0.13647632083606803
-0.5243253408676485 2.183972221768577 0.3557362386196387
-0.4981824244229267 2.0750791379118856 0.4506859698270632
-1.266096614824598 5.273671938641108 1.460840732427405
-1.2267207061971974 5.109659475488297 2.1766307343092697
-1.0119155633581234 4.214931663406471 2.2086398451189773
-0.8354109329963072 3.47973696714051 2.1929777045255174
-0.5676862463110479 2.2853594852994403 2.1258695511957333
-0.46503437163354705 1.872109319380403 -0.6267708747927224
-0.8727319690095009 3.4553422448990148 -0.5644589275448103
-1.2753128354299703 4.887258246889311 -8.662943589474994e-15
-0.28050392484943965 1.041400224124265 -0.25892879588410034
-0.2851788164719871 1.0587562493067673 -0.17366705844662492
-0.6251048182823792 2.320767162918819 -0.18915798074068574
-0.609626405826956 2.263301934192278 -4.0201947530334655e-15
-0.32298812153156736 1.1991272576060765 0.09773685802008454
-0.5276966829486948 1.9591292499289241 0.32135462168432527
-0.5397229332997844 2.0037779649788883 0.49820981758225413
-0.4679243425854496 1.7372181708446424 0.745225359541105
-1.1352601540098906 4.214772322561352 2.2240725374160424
-0.9336196310670519 3.466160744673743 2.1997684143038754
-0.5455688281040683 2.0254814622210597 2.0976702553070616
-1.4853736763140895 5.2667377819684145 1.7780222658053526
-0.3313692048623993 1.174946573282743 -2.093790523493868e-15
-0.46541062251079396 1.6257566688933225 1.0362843268152822
-0.5254567952922875 1.8086341524602951 2.0862489445977888
0.2025652636945067 -0.697234210885432 0.30074535593312834
-0.9445034109808196 3.203985168379018 2.119819178008557
-1.0976952539046758 3.723649138819302 2.1341881877016893
-1.2948284382010642 4.392372820849268 2.1548309256854563
-0.4153664849508182 1.4090240879513074 0.5816070862296882
-0.8619420731954323 2.8414422170216933 2.1573221803389497
-0.2945089341116801 0.9708658443515261 -1.7400831934265785e-15
-0.30834983614216693 1.002306806952587 0.4343713195960439
-0.8963319008457763 2.8341751426630633 2.1596725178223197
-0.3084099289060611 0.9491881608955678 0.5085244841380282
0.02884991147835889 -0.08879089760590671 -0.10931083711155198
-0.24143898467800812 0.7430727883758084 -0.6673043142772669
-0.33984065237101174 0.9677244906434697 -0.1624488879767478
0.24540441347156283 -0.665197769968923 0.43448889591915923
0.24988935378972127 -0.6692495016908072 0.3639950759957637
-0.24038113610294845 0.6286727363309573 -0.6730620328023282
0.26398605413350357 -0.6904070664440312 -0.3766184353256893
-0.349786431690645 0.914802204147258 0.49902643165712535
-0.3314627593681483 0.866880002740895 0.9280886272334115
0.2643365705534386 -0.6753747213667541 0.11487020156170333
-0.37974359825869697 0.9591228451147666 0.163383498433876
0.31984929209138524 -0.8078470958966436 0.8688616115354612
-0.3942052601627651 0.995648833634706 -0.545624058250601
-0.3839993976051515 0.906845347831926 0.603484032725368
-0.4129251635790741 0.9241874205444343 0.5157619809472388
-0.27485060590799926 0.6151561951504702 -0.6737655378542319
-0.35314280559940897 0.7740060084020592 -0.13474738517273555
0.3018620872637208 -0.6616107295583418 -0.11518039245491651
0.2236386737284653 -0.48014154124053054 -0.7290280131710586
-0.4375766539058749 0.9204975060890678 0.42217059731860124
-0.4150909787437006 0.8731960613598833 0.8728373948171462
0.22813787198007537 -0.46568733623002495 -0.7137460446429014
-0.4379934373946811 0.8596105215731091 0.9647634425080575
0.03833409339551464 -0.07523489441705153 -0.13779044939907512
-0.46680280575434685 0.9161520905727566 0.5239050366994357
-0.043717409116357825 0.08580024640523005 -0.11274797495722398
-0.3695999596670479 0.6914728895397085 0.12418177340384025
-0.4623560137727426 0.8410224668924056 1.0630922475074267
-0.39881677977141905 0.705624476522688 -0.12837552066043645
-0.5051884167361915 0.8856895791016999 0.6248348846425212
-0.5200322774253916 0.9034513977581737 0.5311440504463567
-0.5834310519275437 0.8958356081396183 0.5447189833628341
-0.5476801112755363 0.840941434175542 1.0035616572986423
-0.5954499714474583 0.8987744630953215 0.4465745133691995
-0.5081962065677069 0.7605693713139676 0.2972134705043983
-0.05047803424743747 0.07490724523659298 -0.12432567180425548
-0.48517849322605044 0.7139184729789912 -0.43981160017699045
-0.47701436810745135 0.6901823370254768 -0.132882031430514
0.4021462436464712 -0.5818571783636823 0.3603895430054636
-0.46962208627678287 0.6738138336098676 0.13008464058840888
-0.05089034712925683 0.0724096396954803 -0.12181550249551358
-0.046007103288298594 0.06332334517926372 -0.12772822868233805
0.25355587352227693 -0.34898972014533314 -0.7039400501713463
-0.6383035690354507 0.8785494921926131 0.553317579265928
-0.6440362272702069 0.8648281562857058 0.6607772681161364
-0.6245179847738614 0.8317798606831825 0.9390098775070792
0.5805029046350481 -0.7483798351841622 0.9471304028485191
0.4558687265491016 -0.5829608797062162 -0.37706937940736485
-0.6597984758325324 0.8169675460439471 1.050128563557814
-0.7063033114366223 0.8745501910700835 0.5727805823811958
-0.5662439599656828 0.6790244321879482 -0.14003427542647134
-0.6153994435638341 0.7205401714826093 1.8597167489005237
0.09343321422488274 -0.10939623833570264 -0.28235208077435053
0.462672831836314 -0.541720284407602 0.43656498272526695
-0.7156185042511591 0.8117098600801189 1.1986564392777639
-0.5769011184634567 0.654365871433205 0.13816803472248923
-0.7718180899539951 0.8685560129488756 0.4812891941339617
-0.7782992567194879 0.8621167668127082 0.5917946834589634
0.4618646835810889 -0.5116043530508104 -0.689244513942623
-0.8070971556352887 0.8460558658153244 0.7165358702011416
0.5224418530745959 -0.5391181705267386 -0.11890377775278846
-0.6626910359585723 0.6626910359585688 -0.1484357831532326
0.04032909674256414 -0.04032909674256366 -0.13769214905671945
-0.29915769281215215 0.2991576928121506 -0.6903921709163722
-0.7191242916248702 0.675302659287476 -0.5026445777627484
-0.9270854799295755 0.8569890026012811 0.4102125818697054
-0.7007497091044541 0.6326207756737353 0.14952524661736868
-0.04996557767896234 0.04510777828027573 -0.13211256331562515
-0.8843746617555186 0.7858748912720095 1.0680726159363036
-0.9458942746644632 0.8339179789540793 0.6425144555059689
0.5623596972606086 -0.491875437284184 0.3806771927676383
-0.938780646254746 0.8017944178530846 0.8969735836228143
0.8337254395949995 -0.7120687949376191 0.9898241877465971
0.5670096327907264 -0.48427197583828663 0.42921058903550796
0.5820359238103953 -0.4971056407723388 0.12123186588724312
-0.9945416810973058 0.8359996223875759 0.5381602697412501
-0.7786494547955239 0.6493220712071427 -0.16057980691823912
-0.990672325353493 0.8130237660785166 0.7853513223839428
-0.2866837206770208 0.2315312069183721 -0.7232273117918749
0.6032744316071166 -0.4755832144894968 0.24960081383070015
-1.0476717664954687 0.812657523575685 0.6755831696128164
-0.9214562748835321 0.6694771714002798 1.2616432342194226
-0.5473644212702702 0.3976835303698909 -0.6765796331548877
-0.045201220436367415 0.032840608964765754 -0.13488641174664806
-0.8641075135078451 0.6123884530652902 0.1677456039709827
0.8325220719380237 -0.5851063119754462 -0.5184762322638441
-0.9084935637705488 0.6278985421727662 -0.1749138797374367
-1.17238794840275 0.7967540269813966 0.7222530850947737
-1.2098237873542228 0.7744585857663778 0.8802728568373696
-1.2870489650577934 0.802676589519893 0.6282931275928267
-1.198772652503004 0.7346088262544328 1.405953768798959
1.1132672878028909 -0.6822110713760061 1.305670708869582
-1.310310739476329 0.802959453859306 0.4993264277714145
-0.9932935882318571 0.608691093722819 -1.9980552635666007e-15
-1.3127440821457605 0.7763546859904095 0.7770929007087999
-0.975246216479081 0.5767590046342964 -0.5773074292060447
-1.2502541036069152 0.7327866100623798 1.308283020040906
-1.0856965927414073 0.613632368678189 -0.19752271925045414
1.2035598325337893 -0.6740258921774652 0.8453246868426401
-1.1817600111049977 0.649678063880348 0.21359234411794265
-1.3961571872019443 0.7113776183739426 0.7983977659669215
-0.08247047153332415 0.04202080407803418 -0.22345664758450723
1.1146322515470541 -0.5460527055919144 -0.19658684220184722
-1.380103920047085 0.6627164628572775 0.9381817839462698
1.4091928087102181 -0.6631158011201875 0.6451031407334321
1.4366079161780168 -0.6622853207143248 1.1493306091551634
-1.3111722842554039 0.5982266985783009 -0.22826313348539629
0.6222220404785945 -0.2780076120228577 -0.681504585457796
-1.384634888585509 0.6056517241511747 0.6260009699229732
-1.3866329280281278 0.6000496505704604 0.7698405937325005
-1.3327615495345637 0.5767374233851584 1.6085899404600528
1.112950805001496 -0.4609993176856651 0.39141427508443477
1.5824851720062836 -0.655486820499311 0.8727506565634572
1.3955126177251709 -0.5780402527245357 1.5104919728353396
-1.2944341813454678 0.5302264586316171 0.2215514674549951
-1.367173519737194 0.4922127542312835 0.7403804234996131
1.736959831528318 -0.6176497180777966 0.5989919610608605
-1.4267445896010356 0.5010370376949096 -0.23950315843863396
-1.3268579482385532 0.45428501445339947 1.266119311454987
-1.3713282704434016 0.4635022013568173 0.8870543861681149
-1.5047262782994684 0.4371633958762542 0.7983977659669215
-1.7349830121165735 0.48931581592559564 -0.5857209061933586
-0.8206661452470251 0.22797653418873348 0.134902846169686
-2.351603726440382 0.6532625604749622 1.0109519973141183
-1.462602720433163 0.39395593939108575 1.5147303390372804
-1.6808435663117123 0.43861021173406295 0.5644271323661937
-1.7586472190437423 0.4589128010305559 -3.117302357013761e-15
-3.904323213301907 0.9861331943672582 -0.6378037072947338
-3.926804115161521 0.975423211303971 -6.939632167888836e-15
-1.746731223915755 0.43389029086996844 0.5847950469066425
-2.1195648756606507 0.5088625051384016 0.23199070828359022
-0.4759750404155864 0.11427149705608032 0.1033769116483127
-1.7191940094073148 0.4127419643964712 0.9008640457050905
-1.6857448269806647 0.40471152618723677 1.062379385567663
-1.673319881119754 0.3878547228736672 1.2479688655547307
-3.9266775862154644 0.8939212123633167 -6.907054019305076e-15
-1.9843265249183235 0.4435495290345089 1.0360154717951053
-2.600931002986331 0.5706621526100525 1.9346365615492158
1.7312935516369885 -0.3798577139657577 0.28073253320712654
-1.906502927927983 0.4026320724955157 1.94855484911254
-2.8774839074548284 0.6076923839242047 1.6928308624487594
-2.157258566026921 0.4555888557129631 0.9851189135599946
-3.904965569185465 0.8246850068326599 0.842875164529988
-3.096281349098648 0.6538999538656318 0.3367991353290277
-2.834867767959208 0.5870728920139943 1.7740693779129098
-3.8879349239752274 0.77335833994595 1.2880154909665489
-1.7704595383543367 0.3377332195562578 1.9964892425100396
-3.1227444686494765 0.5829955822845289 1.6186090122558365
-3.574175264531336 0.6672747035346046 0.5758746811895465
-2.2828108850379834 0.3615617243934924 1.9740079996306248
1.6668779290701123 -0.26400752788508014 1.0341967872696862
-3.108558217557087 0.49234725350400643 1.9286720794436165
0.9968287770466953 -0.1578821679519258 1.9807732354548786
-2.3440379015332793 0.3712591311338407 0.9830350826522953
-3.818137172377425 0.6047335191292926 -0.10629159774518067
-3.8313676803823626 0.6068290257348639 -0.19820502326417702
-3.856059031825812 0.610739751614091 -0.41550776030410524
-3.874693438705569 0.613691151718521 -0.511248399855106
-3.2068107146144125 0.5079089202609188 -0.6458254945057432
-2.301325582440418 0.364494164379355 -0.6571313169669087
-1.6011070487303876 0.25359044381282686 -0.671467128988963
-0.6751989491106346 0.10694100766260055 -0.6836153889432293
-3.711319395248814 0.5579719089713693 1.2194329400376323
-2.3569543810659246 0.32600629335327347 0.7731118562460441
-4.222209559054348 0.5502427463602644 -0.33510499773653
-4.227253900610858 0.5509001302046265 0.4537020016605867
-3.835528834561961 0.4998501116903449 0.6126250281264325
-4.137074074737115 0.5391478013917069 0.8810917933975616
-3.959586183925194 0.5160173946413807 1.6539831620957475
-2.238690031019388 0.29174841601025264 2.0381280153047108
-4.379474816244086 0.5183450028327918 1.4329099036304105
-4.737895784153696 0.5607669199396863 -8.182800569586492e-15
1.733557843504028 -0.19828023203923067 -0.27635873933735416
-4.699815016018115 0.5001913270557274 -0.37197238008874567
-4.737302985143965 0.5041810919638726 0.5070284542826023
-3.828567345249879 0.407466288484955 0.6098100578332503
-4.648597929387555 0.4947404013400654 0.9872761651005282
-3.958688478365583 0.4213148042306411 2.028443828897336
-4.781437475217229 0.4519789144516098 1.560508805319421
-3.290120425066656 0.2849553105411647 2.023736163523692
-3.2931067114613244 0.2591731189476011 2.024258501610738
-3.812476770830739 0.3000484290935757 1.9485607026917342
-4.680596370752014 0.36837092333528193 1.9447615475795976
