-0.27535147992682507 0.5404077072107747 -0.671831133908887
0.038657571186142665 -0.07586975532723568 -0.1307454489325487
-0.47065114667304014 0.9237048848885493 0.42941446618434276
0.4069816608699575 -0.7987464831713013 0.7656441623476331
-0.41171411354182486 0.8080344445019216 1.4798908152998786
0.39039973542279666 -0.7662026220872006 1.4032770889915174
0.3624469421173125 -0.7113421762876442 1.9274066831844716
0.21178455737465304 -0.41565059720724623 1.943093894359941
0.0325531351460584 -0.07285871788607653 -0.10983578934099562
0.03375616053451934 -0.08828304148697631 -0.13009083830837814
-0.2660551422636829 0.8188335313257507 1.4049794693345703
0.028346801096247664 -0.08724248306550109 -0.11358348478619384
-0.2876333654943086 0.8852444737241397 1.0898280913957428
0.19174761746641694 -0.5901384855689574 -0.6873328298912619
-0.03313170486026869 0.10196890260699752 -0.11876292786125099
0.26577964531937986 -0.8179856389157164 0.734578569427091
-0.03184693920064451 0.09801480048724412 -0.12760827304291908
0.2552564121007169 -0.7855984572807824 1.3479537187899004
0.24280794876111228 -0.7472860265973523 1.896951473936738
0.14393889371844543 -0.4429983635564689 1.9401801578104545
-0.2795276937941459 0.9482258874402546 0.32120544016293956
-0.2712818866320322 0.9202541050818506 0.6970498691380456
-0.27219818564548875 0.9233624140776501 0.9626473913121036
-0.2833287580678412 0.9752239818891528 -1.7417906300229769e-15
-0.27306757094761863 0.9682245726267028 0.15933385910912215
-0.26729290475546663 0.9477491507867701 0.5017400225717905
-0.25724574049430915 0.9550517767249745 1.3613657600997622
-0.5338051057008595 1.9818074096964369 2.0524396458848653
-0.7508104548728117 2.7874625155390205 2.097389183084187
-0.2632681617554397 0.9774106469421324 0.32889862001850023
-0.26770268400128033 0.9938742756174931 -0.334438630012015
-0.029868267356008046 0.11088907342542798 -0.11484119469946344
-0.2530515837559472 0.9855708477621519 -1.7452055484465227e-15
-0.24816152820318071 1.0336671563699864 -0.16836883845251097
-0.47618325249734134 1.983445992148066 0.3230735307524058
-0.36163273339039953 1.5063087412481877 0.5033366092188096
-0.6967562854898548 2.9021987957599205 2.1684862989006968
-0.4893614274276196 2.0383370411553647 2.0962567829347605
-0.27021960771471704 1.2088930323260634 -2.1245685470441425e-15
-0.02384777381101307 0.11292158201273436 -0.11541230437002838
-0.3974141467675625 1.8817955303865646 -0.6249188569455698
-1.1150055127804315 5.2796620537360655 1.7533043959360644
-0.6180616366785073 2.92658335105838 2.173186992086549
-0.43373602359928926 2.0537832314614617 2.099083728677823
-0.3084725280352158 1.460648115385844 2.0547534602641124
-0.3713214426810117 1.866758953063376 0.9697955441035087
-0.43663862957338173 2.195130626241949 0.35448588251002017
-0.41918339255325976 2.197436297917994 -3.8368377760460215e-15
-0.2970168395983556 1.5909343417611381 0.5258573163892073
-0.5481983526670245 2.93635736793316 2.170249058038686
-0.38522898163332986 2.063431882013495 2.099083728677823
-0.12172131489863657 0.7685181363094948 1.8784942894943086
0.07275712543302575 -0.4593704109061505 1.9372664314137682
-0.1363854222820817 0.8611036665130779 1.51464203431262
0.12351528744699697 -0.77984483320397 1.9061802144319822
-0.13769301432242892 0.8693594777383972 1.3515068376716504
0.13615456664012904 -0.8596461013540052 1.420301205522933
-0.2734673758544152 1.7266050585150017 2.046794216880072
0.14165907463521266 -0.8944001970455041 0.7734119174789451
-0.36036534875309634 2.2752572665262334 2.079654102618421
0.017622193161444547 -0.11126214876496236 -0.12478057765687789
-0.405919891630636 2.5628773306196253 2.095628981898894
0.015647588828035335 -0.09879498766401655 -0.12385355617153493
-0.48263063756501573 3.0472099189546613 2.11445415592486
-0.5171537219056983 3.265180095001898 2.1530218241166246
-0.5454172030565997 3.4436286919283883 2.1365630125829425
-0.5781176383047513 3.6500911145069366 2.1272047038492685
-0.6125796104137388 3.8676754431087423 2.1327946191977682
-0.7222272434826084 4.559963352477842 2.194688823690172
-0.7709570115651536 4.867630999518772 2.2019579330319683
-0.8190052490611972 5.17099563178688 2.1685955312255043
-0.8395617301071481 5.30078414512714 2.052087850972333
-0.8414390045298067 5.31263678935666 1.912681558971605
-0.8410062753513473 5.309904644850718 1.584819581975321
-0.8416298376641907 5.313841662347928 1.4491387110448621
-0.8457755267384671 5.340016513020012 1.1418092656148187
-0.33632800141101593 2.123491428336405 0.40138339433599446
-0.22600335425996596 1.4269290202804825 0.1137016048463061
-0.19682441055474303 1.2427004202650156 -0.03459504130552989
-0.3608921486249798 2.278583350015268 -0.11787609636412437
-0.250283651826625 1.5802287858187347 -0.12591694920929614
-0.5575570353894245 3.5202765767076616 -0.3793256856200739
-0.36003774492103424 2.273188857335338 -0.2999370619290586
-0.4779677700332016 3.0177697320129413 -0.5828461678316375
-0.42420955658802145 2.678353730447215 -0.6061456480903588
-0.3743850392402396 2.3637741085747086 -0.6144792966609443
-0.3368084734204827 2.126525009213935 -0.6255137387938309
-0.2408921581479729 1.520933228380085 -0.6378440898465259
-0.16575600321217937 1.0465422163473657 -0.6493160530911485
-0.1246837901733105 0.7872224690621544 -0.6437008130115284
-0.019424775582798166 0.12264320625811317 -0.1120996077258428
-0.2903781506562453 2.228175494454484 -0.3558925336867482
-0.261560653677492 2.0070485245551963 0.320573306013789
-0.38888056848426095 3.078306671556608 1.5809417887150168
-0.15879837823146514 1.4920750564081149 2.0652632038352343
-0.5654364273817674 5.312860236211679 1.7360019461597778
0.009903174866432218 -0.09305057370241343 -0.12879642021895096
-0.18705954529010083 1.7576179599490378 0.279951483976137
-0.4657770214966479 4.376457010223476 -0.6970773299365817
-0.012703151118618264 0.11935924744927588 -0.12003332870498958
-0.010304531871743176 0.09682173801157819 -0.13401629629012118
-0.3115270815628301 3.295612283455227 1.6866838929070165
-0.16530216173613044 2.100363110351486 2.106857849974694
-0.22839994723753476 2.9020964913315455 2.1150164110717964
-0.43294056775510437 5.501031492491938 0.8739719580191535
-0.1467550068315038 1.864699162859759 -3.2080806603444555e-15
-0.1422395922234642 1.8073253803812948 -0.28713736753287666
-0.18414319162055123 2.926872216905249 1.494264471533719
-0.07677846591553622 1.502652913573512 2.070922327973865
0.02574633648209149 -0.5038887801068689 -0.6944481430892895
-0.27763747760543767 5.4337210266738625 1.7678261326587672
-0.2834430902027398 5.547344300861344 0.8797591842757391
-0.17928933715715062 3.5089219566881282 -0.5564836344886549
-0.03416599749484713 0.6686723297813212 -0.669544621365897
-0.02520990521052535 0.4933901330769174 -0.6799791447254969
-0.09248072931793043 2.9427845226776705 1.5001638469825813
-0.15248028593517707 5.545572180165937 0.8786643027748187
-0.09627168692970144 3.501315501218056 -0.5547634840415042
-7.202839442827535e-16 0.4199601512990576 -0.6853126814242335
2.2382781466396096e-15 -0.4350079051339345 -0.7098683839071762
-1.7983708920902466e-15 1.0485366471497577 -0.6425440837669769
4.632089519284914e-15 -0.9002435917994169 0.7688806639681377
-2.5968132374300374e-15 1.5140669020083088 -0.6271470451520612
4.30388897318975e-15 -0.8364580286713424 1.3649754452997498
-3.5923449349992816e-15 2.0945097199452105 -0.6085113253301333
4.157024736306675e-15 -0.8079150595495127 1.9504794940098982
-4.0001255096023666e-15 2.3322653900062136 -0.5988239729496174
2.388296250462193e-15 -0.4641638262485655 1.933381478757436
-4.528857420672656e-15 2.640541501298446 -0.5902309547292051
-5.070292976065664e-15 2.956224447678654 -0.5639299734426568
-6.3475721445731256e-15 3.7009395799750875 -0.4823102998836163
-6.055007697339477e-15 3.5303604486474893 -0.37572876204183964
-5.949079210069411e-15 3.4685990503907016 -0.2729846655560057
-6.065859894933e-15 3.53668780132483 -0.18070804066266297
-6.36455093802362e-15 3.710839032438165 -0.10203271697541158
-2.9900922605479645e-15 1.7433674707108577 0.08907784274007617
-9.390151621611041e-15 5.474909620066185 0.43088473180972264
-9.265683179915782e-15 5.40233853747965 0.5749594128825355
-9.250081252889252e-15 5.393241864304264 0.7028528957867785
-9.229334406817344e-15 5.381145456096787 1.1364376711148356
-9.106628774611021e-15 5.309602176150531 1.430155491902037
-5.6839619075265075e-15 3.3140229233346075 1.178441370460467
-5.5146608316984674e-15 3.215312260707472 1.2294161484803272
-5.673210159457224e-15 3.3077541375567954 1.3701166247717398
-5.188537367836611e-15 3.0251666100752357 1.351638628216103
-5.1495122629277586e-15 3.002413098641209 1.4272563137389485
-6.338065029569545e-15 3.695396475082895 2.264541872420319
-4.631840518212792e-15 2.7005855958079628 2.1810441168657158
-4.037521831680193e-15 2.3540692427819008 2.1251997553614217
-3.3984931790787212e-15 1.9814848310910607 2.1100670283562155
-3.1516442894823283e-15 1.837560066634267 2.084302761479499
-2.953671297286042e-15 1.7221322989937295 2.081700349416931
-2.7549729096463337e-15 1.6062815909522723 2.0708057491150247
-1.4820428737283473e-15 0.864102211944237 1.41008665241292
0.11713351645992481 4.260041658902694 2.1714199970837798
0.14888981071835647 5.414989794687348 1.7601018003786395
0.06265539489715678 2.278720903151639 0.36105033863723474
0.10964839150713471 3.489068391258619 -0.5528869607432344
0.27800064909754063 5.440828757914099 0.8628667719620838
0.2739981579835562 5.362494880540233 1.7446531648443555
0.22346703929501824 4.3735361690312375 2.2313349951372796
0.1543670832636879 3.0211615283017106 2.1978657428319717
0.21875461153518133 3.4770049828483645 -0.5517923243211499
0.4308485635521411 5.474450058780403 0.8697488540977281
-0.049505904009311326 -0.6290321519917597 0.45843180215691476
0.42426968818960153 5.390857521490198 1.7570120701566232
-0.05029386634272087 -0.639044162724456 0.3266161127319037
0.34946246239520495 4.440341594801325 2.2694630441701222
-0.050874697197547954 -0.6464243184829767 0.21068546617856
0.16635571814073463 2.113749813729593 2.120285947696676
-0.05145363203554276 -0.6537803830634433 0.10386883301437616
-0.051939743594118765 -0.6599570160513314 -1.1354085323907776e-15
-0.052220541073406845 -0.6635248863125676 -0.10541698313789348
-0.05257439201327973 -0.6680209888006806 -0.21772434826218892
-0.052719761039772974 -0.6698680774136023 -0.34237024645566577
-0.053161375216750885 -0.6754793175606812 -0.49228199208666995
0.3265612235557129 3.454656892914007 -0.5496030563156777
0.5792724352180478 5.442863844577996 0.8669334548753997
0.5752987608625452 5.405527062841521 1.7662812654381934
0.4767491871335234 4.479551858193022 2.2953357842213356
0.19649504270489512 1.8462742201339286 1.3489722763130652
0.31885743990828125 2.524016533844578 -0.4029422662049012
0.25505848206556014 1.9571550342437305 0.31260413090814043
0.2482995465189529 1.9052913023496032 0.6243015204125607
0.23986791674170627 1.8405923888620843 0.9457589759452242
0.14137734777858735 0.8926214436778048 1.4747828327661137
-0.025901663184251963 -0.16353666516217907 -0.2701941209425604
0.25127780138458733 1.5865055990961683 2.0708057491150247
-0.128403257837435 -0.8107062636603424 1.3394431519995984
0.26940084492158445 1.7009299926784067 2.081700349416931
-0.12614654879137982 -0.7964579635026301 1.946787805745985
0.2864238261589413 1.8084088662500546 2.0768061450883333
-0.07253826731545397 -0.4579885951348659 1.931439009262592
0.30826007917809045 1.9462775418245364 2.0984099822900566
0.38664924588627725 2.44120726186247 2.110977608901978
0.38189422302597026 2.4111852290758917 1.6731176269185704
0.39600988914596064 2.5003080374216293 1.378772238516356
0.2919014918370399 1.8429934862220332 0.8780572468845435
0.29349058223799457 1.8530266081480162 0.8118717063878134
0.2976256544393287 1.8791344265224805 0.7532760296714522
0.29779867342801625 1.8802268254243744 0.6853612442056322
0.2371408032880549 1.4972481059512277 -0.6279110993137139
0.16296348862590398 1.0289109731485404 -0.6383769346627411
0.025046289814399533 0.15813605025265667 -0.26127126320554733
0.4154396989103406 2.088556404928843 2.1294736438847965
0.49761071059325024 2.0726977784286085 2.1315938872121003
-0.23568094135584683 -0.9816817708442223 -0.5144048937109494
0.5306322723337471 2.210242481954327 1.65146527741951
-0.12166316144625043 -0.5067635384005507 -0.37864731782313904
-0.045185666812293766 -0.1882118475846333 -0.26641237948621527
0.4013437103169581 1.6717168643104716 0.27229754271565065
0.40121862891860677 1.6711958627906762 -2.9477556920596854e-15
0.41882785691559765 1.7445435761180126 -0.5829433396968036
0.11492094876238101 0.4786802014585214 -0.6775680336816249
0.5787926437379178 2.0522439122957286 2.132300635463956
0.2463517953055051 0.7581928647653249 1.924637984860713
-0.14219597053925326 -0.4376341975813248 -0.5387732501430913
0.3008783278541265 0.9260082763294684 1.588873155414563
-0.3183662821918444 -0.9798306654935478 -0.4267455650874581
0.5472208328374015 1.6841725484230108 2.0733917110008617
-0.2550952493161776 -0.7851024492320304 1.3471026530989327
0.43132590902242396 1.3274846493554724 1.2600962129661204
-0.24871442024171217 -0.7654642766360185 1.943096132042346
0.6271623532799812 1.930207249825898 1.6390949805755186
-0.1431462933522188 -0.44055899045779096 1.9294965443416403
0.7022804338331463 2.1613969296885807 0.9413530180479088
0.7199404535223785 2.2157488815523214 0.6867951931119118
0.6505081698179513 2.002058285046723 0.5670112382271396
0.4327505459777735 1.3318692310594031 0.3362087391980965
0.6677127403890943 2.0550085086577 0.40340020533775134
0.7107040323021824 2.1873221000205074 0.1810049978075063
0.7344051077919451 2.2602665098686985 -0.18704128425317287
0.5184330596372503 1.5955728927729695 -0.3543082083769106
0.5003130636442898 1.5398052794117534 -0.43609464551007365
0.4638824033584179 1.4276832360015004 -0.6217987564274328
0.3192876855004251 0.9826664532874532 -0.6331682363094647
0.17645841327775452 0.5430831535410151 -0.6685918910093387
0.010696232943944745 0.03291962004137051 -0.14417659039227093
0.7327912810445492 1.9863176831577287 -3.631223175505771e-15
0.746992431570771 2.024811586048072 -0.341826488414045
0.6964438938960593 1.82142116296977 0.308854091345321
0.6760421466576366 1.76806413807902 0.6150416405264164
0.4910431462414764 1.2402334144850844 0.96913864133257
0.4777711080974786 1.1534414888789593 1.2484760710562286
-0.3527283925055259 -0.8515616690209125 1.8089846337033337
0.5179511057311564 1.2504445841023035 0.6896281564445353
-0.38377644174158776 -0.9265182905718413 1.0028561711431994
0.7047130733026699 1.701327859148937 -3.1584086345969594e-15
-0.1526914014067824 -0.3686296521340133 -0.5491789467049781
0.7447333073894751 1.7979452510506486 -0.308229095137292
0.5706579621841312 1.3776901917811275 -0.48452061428378135
0.05800281577736536 0.1400311845055441 -0.4664803755013402
0.5111549202564418 1.181209326723778 0.9351070387706365
0.5394290600977036 1.2073217996629604 0.6737710005489241
0.5525570615688045 1.2367042032716882 0.44011408443787253
0.5641924235784797 1.2627458596086802 0.21905433850480308
0.582905622178302 1.2644200392404914 -2.3879910672605036e-15
0.5922310346593447 1.2846484226469685 -0.2240487263453584
0.5449108951806149 1.157994596990736 0.9298266664565623
0.5654331639333444 1.1894597497714243 0.6710527854036731
0.21750115000970463 0.4268700419684994 1.995542837679579
-0.07698020167999171 -0.15108215253305893 -0.2767024245200706
0.3614056416862521 0.7092985091222708 1.9218692950131318
-0.5091081663570012 -0.9991810357307273 -0.46450202667446167
0.48396876840204156 0.9498421892022391 1.739607440436752
-0.4796172403247049 -0.9413018344826664 0.902291615378798
0.5123355063900508 1.005515047184418 1.3213223750386458
-0.448429895938616 -0.8800932247517204 1.6118643069981413
0.4663785569038139 0.9153194553217598 -0.6295223080795408
-0.36487666771719024 -0.7161107812754788 1.9403273863697905
0.09765722779577377 0.19166310121049582 -0.25185972582693644
-0.21009081943098143 -0.41232644932543505 1.9275540840084093
0.5989898654653417 0.9774626225326669 1.5778776766978395
0.2822858660789525 0.3885331624756181 2.0003993779914926
-0.2717322111775436 -0.3740073026744292 1.9256116282767821
0.46903835433661656 0.6455759109164725 1.9264837828036772
-0.47151003697618915 -0.648977890214727 1.9366357383470838
0.6944033786407723 0.9557642558752599 1.927852596783138
-0.6839709621911928 -0.9414052664872388 1.8988893720038937
0.7456679706673922 1.0263239135010302 1.4853469298775632
-0.6907696973171042 -0.9507629225966157 1.3759913118490164
0.7628197332248644 1.0499312893893493 1.1084143368632344
-0.44510032328368365 -0.6126280377635421 -0.3136631785191762
0.7994314372578378 1.1003229768979756 -0.5633610952437557
-0.24898094500599896 -0.3426928712480875 -0.69123880462519
0.12716851257108436 0.17503244155605205 -0.25331564068052564
0.9763099449626825 1.1431120754509163 -0.23809803511424113
-0.773502235891889 -0.905654757281106 1.6392912345536252
1.0176484119707394 1.1915132016110572 -2.6875032232028378e-15
0.9961561612109143 1.1663490091341342 0.24293804019411527
0.8869492998112153 1.0384842028477843 1.365697074757062
0.8562549175070114 1.0025456986448145 1.814669842801671
0.34025000135946143 0.340250001359462 2.0042846287765044
-0.3267294924297621 -0.32672949242976496 1.924640402140924
0.5931788243556458 0.593178824355647 2.0252391870275734
-0.5666868473605536 -0.5666868473605585 1.9347899198768603
0.84976484637925 0.8497648463792515 1.9610760851420563
-0.8427512314432759 -0.8427512314432832 1.9448901572586736
1.0479701065518343 1.0479701065518363 1.7352617415097555
-0.9419926599383344 -0.9419926599383425 1.5597809645089875
1.064262108603778 1.0642621086037798 1.285471636552311
-0.9547176254635762 -0.9547176254635843 1.1531580599633189
0.8711248305117194 0.871124830511721 -0.5102931111938049
-1.02728868762949 -1.0272886876294989 -0.348787764316556
0.15694621250869686 0.15694621250869714 -0.259876456721939
-0.8372411836301602 -0.8372411836301674 -0.45273215135124195
-1.048346620778609 -1.0483466207786178 -0.6624165799586565
-0.31706109832302537 -0.3170610983230281 -0.688488576419676
-0.11111168127569472 -0.11111168127569568 -0.2729915540235204
-0.5663922253014625 -0.5113259188700984 -0.3887964143478009
-0.6588673275758931 -0.5627258587655061 0.1372350266135601
-0.6531241976196217 -0.557820762395748 0.27907844689970596
-1.1793363377789412 -1.0072483877622211 0.790238247457411
-1.1605053330831632 -0.9911651903636854 1.1088241236989997
-1.1480499624193412 -0.9805272988494266 1.5097855808027827
-1.0377400123134453 -0.83809850434134 -0.6796606240356277
0.1659294933035447 0.12055483353540614 -0.25395656196144933
-0.06108107229378151 -0.04437799667760263 -0.1311666726662094
0.4798999771729644 0.34866774260496103 -0.6570713942762605
0.8187163420287707 0.5948322408568857 -0.6201476892903849
-0.5855624923677221 -0.4254360535099685 -0.6181793687158808
1.169106794815871 0.849405806213769 1.234228130730173
-0.9074375819773792 -0.6592919948169229 -0.6873507840872581
1.1260427253543113 0.8181179283209687 1.6296649459433192
-1.175237780511943 -0.853860228060564 -0.1143279064521132
0.985328089196997 0.715882760839879 1.987485202302564
-1.1683306518500136 -0.8488419053412676 0.8849677438665928
0.6842368710038557 0.49712718601362 2.0418531938621425
-0.8763085014319576 -0.6366753939429697 0.8747941775444328
0.3890991299496781 0.28269706551832596 2.0033133145416193
-1.243787075215892 -0.9036642059277562 1.3879343336234808
-1.2368038781152022 -0.8985906162526612 1.7899639860795684
-0.9654779119055079 -0.7014607628491711 1.947445814343916
-0.6489778902147231 -0.47151003697619465 1.9366357383470838
-0.37363002467514866 -0.2714581026661903 1.9236691771606986
-0.7478726619556539 -0.4870671916901943 0.6484358351281881
1.3089869151266167 0.8021482132544501 1.535216108565825
-0.7113848986010861 -0.43593722653359496 0.2710908714149548
1.3372423401230595 0.819463159961499 -0.24840300571474036
-0.41725016712932617 -0.2556912312683717 -0.6735497697149139
1.3451198279049614 0.8242904906828112 -0.5125912948410416
0.08823365258581325 0.04495729149432183 -0.12261592267263086
-0.41170317856543154 -0.2097732471168386 1.924640402140924
0.5303159332232351 0.2702094642496267 -0.6592851100999468
-0.7137264703869572 -0.36366180063999 1.9338670120316583
0.8994172111587623 0.45827595879869454 -0.6185853424213433
-1.0609982292677438 -0.5406055996804454 1.9431863891775425
1.270983678496834 0.6475985300861828 -0.5908583864386371
-1.260972394769845 -0.6424975262451779 1.6570125371877025
1.4650140016804392 0.7464619177218587 1.0075815501840377
-0.9645998529771056 -0.4914881736704244 1.0166250531925018
1.417523766989006 0.7222644345441102 1.3587775596520473
-1.0165879672833473 -0.5179774409806802 1.0058768689108109
1.400886333791428 0.7137872389156806 1.840869972963202
-0.9250502769548133 -0.47133665817035164 0.8588805154214567
1.1428674503594782 0.5823200513569656 2.0931274086152625
0.7539212568522939 0.3841420672810703 2.0427762017928646
-0.761688206100444 -0.3880995255879375 0.5238605109434241
0.4289477894561246 0.21855981523227377 2.0052559440346602
-0.7621933855678036 -0.38835692738311933 0.38220431702197233
-0.7574060687472267 -0.38591766762824264 0.32503015373538563
-0.7669446941967983 -0.39077784004799465 0.20665070958214352
-1.0135449678589794 -0.5164269553311678 -0.08952540385343254
-1.0039476593059327 -0.5115368823767398 -0.6904774546228309
-0.6455801834578337 -0.32893953316105173 -0.61882550872628
-0.5095460500419905 -0.25962668018575846 -0.6334641345982638
-0.4872188982536049 -0.2482504281348508 -0.677074936853674
-1.1613201209367818 -0.5353759088233591 -0.6515736435422625
0.5971742313361816 0.2668162990299474 -0.6540703326095767
-0.8617882294546516 -0.38504532490655713 0.4809388166295377
-0.897302207266182 -0.40091290194902657 0.7140410309541375
-1.1769186555102478 -0.4874956689222585 -0.4139111632874732
-1.1641959976322696 -0.4822257714797669 -0.6420615113972712
0.6109335629028515 0.23359833415250525 -0.6540703326095767
-0.8729652880839216 -0.33378954677236394 0.30367111200451025
-0.8410404387145686 -0.32158266850672107 0.4587892411150272
-1.1663849141103815 -0.4303021126223979 -0.6334558579794003
0.6796767603343823 0.2208403665044137 -0.6451736463802242
-0.09704828424049203 -0.031532899035345834 -0.12634993788840324
0.7477133222250214 0.24294678552665147 -0.6349438141831831
-0.600915350616448 -0.19524923318398923 -0.6998846178725291
0.959225810885512 0.31167135909168425 -0.61806456592574
-1.0062656114078714 -0.3269555167882697 -0.6890766353168986
1.3540116151357313 0.43994504268572926 -0.5897125617568105
-1.1402289833441033 -0.3704828549041265 -0.6900987753678166
1.4234837036745893 0.46251789259044057 1.2783361625200826
1.4261789523957984 0.463393631986208 1.7557747399874089
-0.9313324531911775 -0.3026082577827288 -0.37443304335301947
1.2233676077217317 0.39749623148212293 2.099091337301623
-0.9166262732684448 -0.297829930269488 -0.07585253977075897
0.8054595152704204 0.26170966102956933 2.0446222200162376
-0.8826907297755565 -0.28680360378628 0.3548771173568365
0.45807879730340706 0.14883882367055828 2.0062272603146005
-0.9138591797502283 -0.29693084708410106 0.8206762282631058
-1.270062257358622 -0.4126682428578482 1.5635788383608094
-1.1339943837714572 -0.36845711070484854 1.9457420422928176
-0.763646409985991 -0.2481237595620009 1.9384815605149113
-0.43989371236281866 -0.14293013139569438 1.9265828555665254
-1.0053578749702121 -0.29636964351061884 0.7615120338121828
-1.1952710561100754 -0.3523541871180945 -0.19736673794196216
-1.2136614624695905 -0.3422879328606788 -0.6425144555059732
-0.6716403452952701 -0.18090811637858556 -0.6955778173576286
-1.471049012860859 -0.39623097075897157 -0.4950078984950577
-1.543893412316143 -0.41585180382311865 -0.25324377319862224
-0.9354055965185559 -0.25195398951467796 0.49359959194614583
-0.9069260894841494 -0.24428295842032025 0.6824045020648708
-1.5308144366824605 -0.4123289468913919 1.585373142197128
-0.9540701130270193 -0.22905196881095669 0.7128691429795757
-1.3013761205694372 -0.3124327641228113 -0.6819259202539675
-0.6695506602864291 -0.1414016029258668 -0.6843190045585483
-1.453446709803447 -0.3069516718057072 -0.4826700041821689
-1.9600683303606299 -0.4139444857520635 -0.31729182629363695
-0.9296027858771749 -0.19632170021481513 0.48410376007025496
-1.8781546931592497 -0.39664524270926216 1.9195813345623032
-1.3143830631868416 -0.26144704674222685 -0.682832047400635
-2.1225214515509947 -0.3962606104922769 -0.34198277190254306
-2.2487470959108355 -0.4198260971248203 1.6620392735448588
0.475031645390749 0.07523762129165748 2.0033133145416193
-0.4570673900381294 -0.07239236276178748 1.9275540840084093
0.8266654719852321 0.13093094811599978 2.020624231333693
-0.7923046115543554 -0.12548872246758885 1.9366357383470838
1.2508926837553922 0.1981219376226552 2.0667160403790055
-1.1761255972782243 -0.18627999447627722 1.9431863891775425
1.4894427671706774 0.23590455907375665 1.7656515178061525
-1.6464770202303798 -0.2607763413564055 1.9518068863599332
1.4828129144361324 0.23485449355896165 1.2822282275931167
-2.1448264184832606 -0.3397071318847595 1.9604363542647587
1.4152714930233088 0.22415698332976794 -0.5935320108132935
-2.394674320154196 -0.37927915195717127 1.9580917305592938
0.9986904073134362 0.158177021219822 -0.6196269041109704
-1.0473843398987532 -0.16588938247955207 0.7267783412536492
0.7788077598704877 0.1233510311674932 -0.6368202228851
-1.0021165420205231 -0.1587196676478842 0.660784006548716
0.12445079861196531 0.01971107008609773 -0.11375180192377173
-1.0045661726581858 -0.15910765102543226 0.6232724605949254
-1.0014835892172231 -0.15861941777238167 0.5836458693712638
-1.000091875535843 -0.15839899197986432 0.5514916135599541
-1.0085631310584546 -0.1597407070446593 -0.02807698670509902
-1.0066478094100968 -0.15943734989734268 -0.05207609113178335
-1.0077946574239725 -0.1596189927781577 -0.08030383311015743
-2.8006913518695655 -0.4435859322876412 -0.3017871306724769
-2.80365885469656 -0.4440559385620562 -0.3699301959956001
-2.809830185593683 -0.4450333813522546 -0.5658768572832343
-1.6813063146140275 -0.26629275965425814 -0.4086774309828171
-1.5540704363493945 -0.2461405762861129 -0.4437565724249525
-1.436219454164465 -0.22747481443105552 -0.6023170994410518
-1.1120446373089856 -0.17613056749609007 -0.6899563376227733
-0.8634109266655561 -0.1367508563900168 -0.6891427827316501
-0.8053490462911088 -0.12755475796271953 -0.6964069911761895
-0.738724328092712 -0.11700243925908627 -0.691381802111825
-0.9879062806151763 -0.12874497520535802 0.5076198499669412
-3.8342874247624152 -0.45381782278515803 -0.6115303165267835
0.652495267876797 0.06944368508644122 -0.6561802343868659
-0.9659511444174327 -0.10280412806684126 0.49495625852298114
-0.6937709714688851 -0.07383657052651343 -0.6976890424823959
-0.5075212843238481 -0.05401441202468234 -0.7024881417162141
-0.13696767602740292 -0.010779589883158459 -0.2696454267470585
-2.0272387765207753 -0.15954715185324328 -0.6607266070819805
-3.868835095957562 -0.30448392547486 -0.614658067070188
-0.9728359575022678 -0.0765638503157938 0.497217433941597
-2.7577829413091868 -0.21704222453285904 2.0098422628141432
0.6539205772680992 0.03341225262315942 -0.6547736250033307
-1.0242216884216746 -0.05233289023972094 0.5225477983551462
-0.6953744274357571 -0.03553034855430831 -0.6962815522473668
-0.5097225707800783 -0.026044415628855493 -0.7024881417162141
-3.870899925052434 -0.15208807227130297 -0.613563353291135
-3.9955695136170153 -0.10986162691908317 2.036613778993205
0.20389943126779297 0.0 -0.2524698436024996
0.223874518360151 0.0 -0.24798427375341858
1.006040243184484 0.0 -0.6165022539239442
1.4255362391671116 0.0 -0.5904764439173572
1.4739547300899791 0.0 1.2588762662173658
1.4775114381520635 0.0 1.7299436262866548
1.2878911308103476 0.0 2.1016473146510672
0.8480572245761172 0.0 2.0473912532401455
0.48188574374114573 0.0 2.0071985776148416
0.23983965921942163 0.0 -0.24749532897715815
0.23166262985302263 0.0 -0.24864518078897382
-2.9331868502922696 -0.08065050009330357 2.011035155860587
-3.069330128089554 -0.08439387683645189 1.9997187898187778
-3.25943903266062 -0.08962108499208604 1.9981417000536372
-1.057578920551242 -0.029079043778644686 -0.05405771007533871
-6.9325972452489255 -0.19061773535466137 -0.5458134426113783
-4.534931361647393 -0.12469184572037229 -0.5912203385860277
-1.0353646483881398 -0.0366080511058793 0.3961324216248045
-3.5123075001144914 -0.12418690619186817 2.022969509649117
-3.9770858128580855 -0.15626012716589174 2.0279899432248305
-6.211835917404434 -0.24406369790892588 -0.6616225862281513
-2.753209059404521 -0.10817387855849797 -0.661497004687461
-0.3601116957285827 -0.014148827059890541 -0.707304303176726
1.5838293430678487 0.0684591023674495 0.4270069827769909
-3.7464503292155986 -0.1619357715052564 2.0424161516760813
1.6255857845755666 0.0830597549350208 -0.08316810744494466
-3.26834052669196 -0.16699676250068216 2.005454383150413
-0.9791544855806036 -0.05003016905508419 0.15528514272686644
-1.0041601458812697 -0.05130784017909942 0.07913221189795694
-1.0595801846137758 -0.054139542374879585 -0.0542101680985734
-6.94907910977278 -0.35506511766928595 -0.5476178305479673
-4.545586475852813 -0.23225799727258645 -0.5931583374166802
-3.9270201160913363 -0.20065217816396613 -0.6227902626181997
-1.3357233232548413 -0.06824915236295206 -0.6814728585312702
-0.5648196155273257 -0.02885961435769123 -0.700276320158471
1.6489593252634633 0.0972442200512347 -0.4449232577572127
-0.9777432845909672 -0.06922793745861823 0.3747886899474045
-1.005060566838324 -0.07512987834147763 0.1072648981122042
-2.231825982040782 -0.17564851412214746 -0.6599548358595306
-2.435231131296724 -0.19165684654550708 -0.6579642774007645
-2.728432116616102 -0.21473226453280297 -0.6570641061467247
-3.0563962435704752 -0.2405436011013592 -0.6474726081136388
-3.3528695617763438 -0.2638765572721202 -0.6278939912404976
-4.492021823093373 -0.35352978457089823 -0.5872151499017573
-5.350994222859016 -0.42113237854769564 -0.57125593797195
-5.79594970518214 -0.45615113446749844 -0.5495727044924101
-6.19139050487263 -0.48727300035123344 -0.48877974518363215
-6.189502844522863 -0.4871244382598017 -0.31723227971547585
-1.0654956390709733 -0.08385632540907688 -0.03358809029439617
-1.046641385777879 -0.0823724634940066 0.032993739328682097
-1.0336160399903331 -0.08134734654854585 0.09800760727725306
-0.9999525072911306 -0.07869796906737216 0.15886665108465062
-0.9638237119072528 -0.07585457120514344 0.21610630808148276
-0.9655465743404857 -0.0759901634192629 0.2813846261665096
-0.9749767678871928 -0.07673233574707528 0.3520986377864033
-0.9774350787593072 -0.07692580900861619 0.4242818482084251
-0.9815213083095078 -0.0772474022486942 0.5362403940213941
-0.9918986468801877 -0.07806411650650369 0.5727085367194308
-3.267614249811951 -0.25716681870465696 2.0085883953122914
-3.0752213557129187 -0.24202516955813438 2.008993138531725
-2.931004141249071 -0.23067502862633701 2.014991006220384
-2.4573610974971367 -0.19339851265745076 1.99074821406665
-2.183357374079203 -0.17183395194815776 1.9771799791652362
1.455821154534075 0.13184964648108213 1.3196611067747221
1.5171749134495434 0.14341525408800043 1.044439249977826
1.541918352172666 0.1457541976864147 0.8435523155619451
0.16731984681557013 0.017807495813388755 -0.258364010563527
-0.9902503928072354 -0.1053902454474463 0.6102532717729926
0.14965368358948067 0.015927323594285597 -0.2614614605467171
-0.9635881151526572 -0.10255263588261886 0.37052112113896574
-1.0345719515132898 -0.11010729477615458 0.1647854992985116
-6.030788303172095 -0.6418439862579485 -0.3098850425999622
-6.047793859263277 -0.6436538514631915 -0.4786597490431084
-5.295914020584261 -0.5636328776560212 -0.6940667588958881
-3.9346073454938613 -0.4187519004212542 -0.6266999941593555
-1.6204304122101219 -0.17245896604918118 -0.6230916338820321
-1.3387968824583343 -0.14248530782862906 -0.686003531020668
-1.7439505739837784 -0.20641015261897974 -0.570599022429463
-2.7256188024619497 -0.3225982441189098 -0.6589305855378739
-1.4123356724360674 -0.16716094254370176 -0.15136105064534064
0.64922971027273 0.07942784964472395 -0.6540703326095767
-0.6925256082233625 -0.0847247422826367 -0.6976890424823959
-0.5066102511734136 -0.0619795462560937 -0.7024881417162141
-2.859454233663602 -0.37264705330614245 -0.45672273782410855
-2.8600114911283487 -0.3727196756792254 -0.37587140616888154
-2.8545565079439243 -0.3720087765903088 -0.22655818920262022
-1.0510798455965091 -0.13697781997691988 -0.05415934836377382
-0.9740111186682199 -0.12693414323127505 0.6019219750040906
1.5726164114999241 0.21122879129378813 0.3809422791049398
-0.9676671213139716 -0.13384458093616097 0.4046368377717901
1.4629538883743582 0.208209171097242 1.1934152092048038
-0.9602833701049118 -0.1366685622129822 0.3708767358605668
0.652419205577647 0.09285300314707029 -0.6589935508030427
-0.12467224484115295 -0.017743487996094067 -0.12592855117089247
-0.09734797313643635 -0.01385466825427921 -0.13533817012872434
1.6197025908346032 0.23701086947190655 -0.21332924083642182
-3.0700954885390512 -0.44924667356708586 -0.4914337366736941
1.6173503996065783 0.23666667363541594 -0.17396427932994515
-0.987387667549604 -0.1444843089811866 0.268787794420025
0.1266326809669729 0.020056646301749585 -0.11125598882866208
-2.282060215749387 -0.3614428300583663 1.973358875697287
0.12834307669418904 0.020327546371738198 -0.1092284098720399
-2.668235901148537 -0.4226070498572564 1.9305174066122792
1.5939893252416522 0.25246310716168463 0.12701342660494166
-2.696993287503463 -0.42716177240027786 1.9031303232729797
1.532776253659708 0.24276790907863263 0.6428107797310952
-2.7971527327261865 -0.44302547007509546 -0.24527947869148414
1.4969880331605314 0.23709961180465947 0.9287903975904584
-2.799998873168928 -0.44347625443620403 -0.2792133986827482
-2.7335110827204065 -0.4329456229575997 -0.584482889575535
-1.6965225605110692 -0.2687027762445017 -0.3910332718778062
-0.7127768904974611 -0.1128927688777065 -0.6830383057397992
-0.6915439802824921 -0.10952980627684741 -0.683858278353055
-0.08675431951591338 -0.013740534342264282 -0.14333487280253845
-0.08364127313656813 -0.013247476233767349 -0.14712118066930327
-2.8036033175521964 -0.4666475415140157 -0.4501560949373515
1.6040741322525136 0.2734691069884497 -0.04474176752526448
-2.597024656860737 -0.4427513663233267 1.9140729242315182
-0.9646790381745377 -0.16836344422720392 0.3744330433530162
-0.12171582850815875 -0.021242812680349367 -0.12355565547557942
-2.8008266252041265 -0.5001641741621797 -0.45062513737288107
1.5923947812195205 0.29082292619184164 0.0827096508640224
1.5855178696095342 0.2895669791232089 0.17153439815472285
-0.9934570989241323 -0.1854718199572952 -0.04368290968989349
-0.9970517691937292 -0.1861429209416966 0.06781284930562881
-0.9666534552857342 -0.18046775830985803 0.1795925543967948
-0.9395681705385294 -0.17541111614426683 0.28584540094936545
-0.9222418105097676 -0.17217640018999977 0.40161838872900124
-0.9679616380126916 -0.18071198730723317 0.5565415033753157
-0.9857475508268543 -0.19205631634182657 0.05131410519599789
-0.11724622240159996 -0.022843452728396465 -0.11945082670287416
-0.9485778330256494 -0.18868386241100188 0.23219494989777376
0.1214922038513556 0.025657793183608252 -0.1120996077258428
-0.9244606610535085 -0.1952357410251098 0.3612761984837722
-0.9211424442952275 -0.19453497079769236 0.33894651857565183
-0.93263520725407 -0.1969621136575503 0.21306688145675765
-0.9824334578115529 -0.20747894661641808 0.09491568723544583
-0.9435010991172412 -0.1992568683606735 -0.030304725302419507
-1.6056835992231158 -0.3391023983529414 -0.3939933281379053
-1.4539083008742149 -0.3070491546717161 -0.5681826020430735
0.11168602871097806 0.026813443179517855 -0.1272292036272701
-1.7973363633194916 -0.4315022837553195 1.4928093569519878
-1.7772178498841609 -0.4266722560152285 1.8277178392738833
-1.6051647658709671 -0.38536596510943333 1.9328101684701673
1.6168270425268458 0.40162192452011075 -0.3518325515051919
-0.927814056360825 -0.2304702093119917 0.3655428284605761
0.6921999573421652 0.18644590265799874 -0.6471739676760404
-0.9594531187668432 -0.25843125369927256 -1.7042305914100693e-15
-0.9096786531252292 -0.24502436877038047 0.14921396300931666
-0.9435760193899578 -0.25415471468259804 0.3175132700168761
-0.9733387503346835 -0.2621713855559445 0.794665867954949
-1.0193588894300183 -0.2745670326273804 0.9016437207313064
-1.5521892862110442 -0.418086319558443 1.485966772565835
-0.9447831016529843 -0.26245554093144935 0.40616127322203766
-1.0146253428804406 -0.2861539415908621 0.951712317508164
-1.4677233732049006 -0.41394080224261526 -0.24153283831969424
-0.9190908464115508 -0.2631111107565404 0.3655428284605761
-1.368224410693661 -0.40333914015625677 1.4264362937053996
-0.8875036332360771 -0.2616273686664547 0.4714450349271157
-0.8863601278365996 -0.2612902744873241 0.4260024838423191
-0.9044868292240658 -0.26663384831508763 0.22638676351077364
-0.9189802718999296 -0.27090637310056725 0.037643018904278555
-1.2073431751069932 -0.3559129294252956 -0.4089797601232464
-1.2172190513216805 -0.3588242408955405 -0.6465910185312558
-1.2165246562130756 -0.37948761873868503 -0.6493087925245583
-0.8883042269803516 -0.28093373776134933 0.0991556116227305
0.6412628049849527 0.20835891580117255 -0.6534069001387959
-0.9591297591148171 -0.3116401499795311 0.9322373743318211
0.6609547072895797 0.21475720271624005 -0.6475022925003756
-0.9364421146787315 -0.3042684874411179 0.7952086854444688
1.5897685415024472 0.5165471115856064 -0.1315563223936743
-1.2010079841872254 -0.3902311493954136 -0.14946394869690563
1.5670514153878223 0.5091658698691578 0.12967643768782994
1.5048773201412886 0.48896428172809825 0.6554190892234508
1.4698082696452637 0.47756965649375344 0.9470516742389677
-1.1678197554936618 -0.3794476402097925 -0.6813468331312205
-1.0748444877944445 -0.3492381444717893 -0.6925619434417393
-0.09973161653225861 -0.03240476654847859 -0.12084508996562965
-0.10087554453213052 -0.0327764512867093 -0.1261817290910064
-1.2240907004243382 -0.41373662786347376 -0.6583684074276457
1.429635972303046 0.48947379725386514 1.2203984548085132
0.10543865593607532 0.036099720696895495 -0.11144729696138918
-1.1785070197603829 -0.4138622079853324 -0.2637883188789933
-1.1680231746831056 -0.41534016587856654 -0.6316442115710112
1.5333074958202415 0.5520246660030668 0.4389508986044594
0.615188170357683 0.224214216881901 -0.6547736250033307
-1.1722375662628106 -0.43246126999417783 -0.5175454938430677
-0.09673846085139474 -0.03698919927723281 -0.12823988977277048
1.4031189241615336 0.5619178227033743 1.3645063741837482
0.6945652067535115 0.2876983285897776 -0.6420909945592604
-1.0107637332054469 -0.41867204664856134 0.8835696876826938
-0.9144422928475794 -0.37877439970502097 0.893555396816427
-1.1758985711664312 -0.49792871965679325 -0.3439571782499852
-0.843353097738221 -0.3649514744504027 0.3806336477924986
1.5476019690596636 0.6769349874018162 0.17977532698886892
1.5651158356666726 0.7215282830525257 -0.08805883090689033
1.5899152713514149 0.7329609794974261 -0.18632668208748235
1.5926809375575384 0.7342359690820474 -0.22855409173100946
-1.175851710217956 -0.5533138148309149 -0.169356363608714
-0.9343381891160574 -0.4396661783705589 -0.10989904438326098
-0.7863416740371456 -0.38140308679537444 0.23540275498689417
1.6115317801648905 0.7894812728458547 -0.48335974319782576
0.09404076337305763 0.04791616222845646 -0.12556024936861515
-1.2588150910485167 -0.641398325096872 1.3690996147510381
0.16734060214786553 0.08526429552805968 -0.21643272114191395
-0.8777775816608439 -0.4472500168518784 0.8413999878533602
1.4074956845690698 0.7171548713415252 -0.582770785498522
-0.9505961514212735 -0.48435293134060314 0.8616317048512245
1.5585657485538853 0.7941289135985403 0.13766653922238314
1.4994532007279058 0.7640095660967471 0.697069926004198
-0.7506629601818112 -0.3824818822054595 0.29958259294500056
-0.7625346859265341 -0.38853082860181404 0.24136413980728366
-1.1743056824645655 -0.5983386307016254 -0.3164127796748013
-0.4886656195334769 -0.24898756944527076 -0.6421433660388464
-0.17131701776141428 -0.08729038048093049 -0.24587775194358213
-0.0726310676355567 -0.03700737738426764 -0.10856878940679768
-0.7496549693887478 -0.4044918736001361 0.5547645906708601
-0.07972893422242923 -0.043424507255165515 -0.12495842995733274
-1.1725224246268995 -0.6506087606205658 -0.03687010104173405
-0.7345500981634628 -0.41136782059381777 0.27354829458057295
-1.253404202578114 -0.7019400806382435 1.2969051731538035
1.4149715066462476 0.7997375353671174 1.3126539947389702
1.4446587280723298 0.8240187903070889 -0.04572955964450571
-0.07061688138000198 -0.040647518770623385 -0.11214738196656465
1.4066374991269586 0.8170400740081887 0.08311716738766016
1.345941690017294 0.7959876965560468 0.8516716233412897
1.3422072502620492 0.7937791550413944 1.0687162160114156
-1.1726841450820986 -0.6997537412203432 -0.06977533605221688
-0.8530239251522751 -0.5090089138486456 0.050755381393776645
-0.7389271926827014 -0.44092611786182734 0.09157926894969182
-0.7433120955151171 -0.44751028016715594 0.06828380339171902
-0.71403336731955 -0.4298830520663457 0.34522733365194047
1.2675311694234463 0.7767440996146188 1.7405798856283228
-0.9248836130540817 -0.5667694070172541 0.8760477963977408
1.3267601631574977 0.8130396736555805 1.1305445407060777
1.3367978317114553 0.819190764856533 0.7988510799299952
-0.8506191435428881 -0.5212600815700003 -1.7110591240921891e-15
1.3394530194282457 0.8208178659820418 0.5104318168269315
-1.1682195609061214 -0.7158858676437626 -0.10783080276175977
1.3431266035214449 0.8230690412096524 0.2494960527045883
-1.1476468006541916 -0.7032788639471662 -0.43733929674039135
1.340294199620912 0.8213333418670753 -2.6960627874860022e-15
-1.1628817125860833 -0.7126148299862718 -0.5214894309729533
-1.1588676571045275 -0.710155013623537 -0.56297922691909
-0.807716190831329 -0.4949691183348264 -0.6882623968834648
-0.7284292883945483 -0.4744043015497432 0.5327028538313942
1.3360908519538797 0.8776476477072248 -0.3375986401026078
-1.0438240665507836 -0.70938210309779 0.8649585827621697
-0.7130471488878614 -0.4845863419851943 0.4695581333810547
-0.9857303981812161 -0.6755756331062229 0.8682310441666008
1.2398291782485484 0.900788625459511 0.634787729092406
-0.8483151395667722 -0.6163370260460687 0.9099071899410922
1.2927576036371162 0.9392433774446641 0.1257603123595064
-0.852229353576764 -0.6191808689880421 0.899700050228599
1.3120799213541032 0.9532818630056865 -0.12764000017164456
-1.2400038780254652 -0.9009155522770806 1.2883933988293672
1.0220222440344375 0.7425426248584932 -0.5232714238013305
-0.7022878766552333 -0.5102420092926149 0.4996697211720149
0.1755356322689169 0.12753410202367846 -0.25404388326618993
-0.705959373232935 -0.5129095076977412 0.4752706600010379
0.0633233451792638 0.04600710328829847 -0.12772822868233805
-1.1715099629208054 -0.8511518100439563 -0.05689466614885372
-1.1722042799367818 -0.8516562608839808 -0.34785591757940143
1.2857110852769107 0.9653391888077751 0.1711118223502239
1.2632303935077789 0.9562403864121096 0.4267473448219704
-0.6918475029912445 -0.5323135587016461 0.44478119095479873
0.6216675924657248 0.49008321334152855 -0.6393221789354028
-0.93466356844401 -0.7368293450837373 0.8647118190744125
1.149040923167683 0.9131701183082204 1.3250155817630633
-1.1134360226965838 -0.8920304615820536 -0.30130197306244044
-0.6777089399016131 -0.5473305858604002 0.360832125176159
-1.2384142785904984 -1.0001668455741868 0.8110908429993253
1.2626085871321924 1.05289950165816 0.3946925323692451
1.3252420387052157 1.10513004295216 -0.4142718033043024
1.1608904308978598 0.9758303551372359 1.224791217082535
-0.5739413732868501 -0.4824481270719862 -0.38203024057571333
-0.6605157599335494 -0.5641337530034733 0.3321340687156644
-1.200837967398037 -1.0256125143258803 0.7055863848697027
-1.1693170880248271 -0.9986911400643979 1.3133657352047872
-1.1550871570740733 -0.9865376308838799 1.778567446686393
1.2960494884233051 1.124654456662655 -0.18262824717583068
-0.5682983506866495 -0.4931441881832145 -0.3833833515790071
1.2954311756056214 1.1241179121308056 -0.2235217861769077
-1.153343580608318 -1.024886623516144 -0.20107459811537515
-1.147661995740993 -1.0198378414976736 -0.1634004913736959
-1.1463554857446947 -1.0596801110826306 -0.6466313961438525
-0.635545930103946 -0.5874926148001643 0.1370795326938919
-0.6230825783830339 -0.5759716109751614 0.27569875564867546
-0.6195925501207498 -0.5818361327022461 0.2289383902209516
-1.059079320077429 -1.0263192613108016 0.15695785309050422
1.1280020501505437 1.1280020501505457 0.6607683025935305
-0.8216120470178933 -0.8216120470179004 -0.48128919413396576
1.1819866611003371 1.1819866611003391 0.13155632239366818
-1.0293426385771698 -1.0293426385771787 -0.6780357400712452
1.1083848190739682 1.10838481907397 -0.5782786401837168
-0.5318264575296936 -0.5318264575296981 -0.368457919093659
0.5084705804806009 0.5084705804806019 -0.6491743506727915
-0.2822894906217914 -0.2822894906217938 -0.6514639567688899
0.43061869531830793 0.4306186953183087 -0.6587982077121307
-1.0086666782172564 -1.0408632674268867 -0.39040388160927686
1.1373967308624788 1.2017125564204179 -0.08454352940852922
-0.9526660150183796 -1.0065359616907648 0.5740538490875647
-0.9123687159370913 -0.9948039408657969 0.8791066177757864
0.9771453296591864 1.1083538143631237 -0.5649741825180625
0.8617426443040731 0.9774551623215699 -0.5822138959512527
1.0409065481112982 1.199538570432909 -0.4277858998877757
-0.8847288977546423 -1.019559766588979 -0.03711684025993533
0.6644096757339781 0.7779237805541027 -0.6269181560933464
-0.7901432911973439 -0.9251389296651528 0.4651973131842492
1.0023674783028318 1.173621527056193 0.501485742241105
-0.8569324363195966 -1.0033389712525704 0.5895402516785376
0.9240592491844762 1.0819343709699252 0.7249720828490808
0.9066932797864914 1.0616014332351709 1.0143247474763915
0.8921554293107634 1.0445797973134556 1.173262006968566
0.8723434333387583 1.0213829304258102 1.5726938175454026
1.0001741394296426 1.1898508604316658 -0.04273898391630166
0.9901040160295387 1.1873059402385757 0.07899140280036153
-0.8251856767052205 -0.9816769387813884 0.785872754856248
-0.8190200788845503 -0.9821467129624183 1.0328073124262154
0.9883706579198551 1.1852273441043626 0.16424550328818968
-0.7771643907574364 -0.9319545045261952 1.095498202295173
0.854642145999658 1.0413844680166593 1.0880083602871617
-0.728260267428155 -0.8945279745059672 0.05893798191084614
-0.32944644603577544 -0.4079231226339856 -0.6492463055073439
-0.721000134129518 -0.9370832929195613 -0.06041281913839366
0.8637736729978511 1.1318147014172324 -0.3006834273644316
0.8314053884285882 1.1443313452154247 0.5858932090828192
-0.7052612259575659 -0.9707088006173374 1.0247790140146706
0.8521061351522228 1.1728234787460883 0.11409304158389878
-0.7158809364432711 -0.9853255781305004 0.7010477800541848
0.8573684609066453 1.1800664487741055 -0.11479764248555131
-0.7387134256978881 -1.016751803539908 -0.09891028607801464
0.1340627015836068 0.184521478669199 -0.24673673409899285
-0.4476143876366602 -0.6160883504858802 -0.28094217265523724
-0.373476067111404 -0.5140457065008198 -0.3893708244374132
-0.09238208487768511 -0.12715303140108034 -0.280646854604088
-0.709846789592185 -0.9933337623549936 0.5057129342535551
0.8235858153486089 1.162116443409393 0.38365580500504576
0.7084740018962575 1.0250765491416167 1.1249331789208705
0.719099701494605 1.0581230783687916 0.8768073735625865
0.726177536280166 1.0685377959885012 0.7036569933896084
0.6956336638375326 1.086687098913368 -0.1373206276974364
-0.6411130127161512 -1.0015174309143882 0.1265580518997648
0.6952958014110443 1.0861593056808683 -0.16806757933351416
-0.6332274206401639 -1.00652177981837 -0.12655805189976888
-0.6346219683725146 -1.0087384284028362 -0.15531175204204622
-0.6310374688936409 -1.011834818476569 -0.25183926018552966
