0.096 0.0 1.724
-0.096 -3.2930390389303353e-16 1.703
0.096 0.0 1.724
-0.096 -3.2930390389303353e-16 1.703
0.096 1.0251695218102255 1.7810256740292636
-0.36582387899084556 -2.5154392704802864e-15 0.6300757494011069
0.096 3.33519974008624 1.9372381613339837
-0.39449512264296394 -1.56493057248808e-15 0.22401042778194372
-0.40455219205062687 -1.3877254520002888e-15 0.0015433034244550755
-0.4149841037502906 -1.638783284720709e-15 -0.23187465682636768
-0.15638798068958618 -1.0608956626391761e-15 -0.2536439094774713
-0.08855156828059718 -9.82968360878316e-16 -0.25678525939969177
0.096 0.0741640786499867 -0.22825356391083707
-0.07719643690973554 -0.039566479117850425 -0.22254722481306616
-0.4014742861235552 -0.07320397551256283 -0.22692007014204357
-0.3919002117643702 -0.062071374312057497 0.0015118875786646413
3.316503218973705 0.6074642552747856 1.9497947996625684
-0.38129302432829026 -0.0698391853624483 0.21898777245051
1.0200507134358132 0.32385485962200683 1.7922925031107142
-0.3505762124590004 -0.11130408378452782 0.6110088078786525
0.09481808069713321 0.015017708643862182 1.724
-0.09481808069713317 -0.015017708643862532 1.704
0.09130142556433472 0.029665631459994988 1.724
-0.09130142556433464 -0.029665631459995307 1.702
0.9770053164946343 0.6363398270373467 1.7827590323494868
-0.3408649593240884 -0.22201102245545093 0.6170755619994335
-0.36875793478589197 -0.13856233815682742 0.21999230351679672
-0.3764425187441789 -0.12231453196020692 0.001507960597940837
-0.38658422930524927 -0.14460542619793873 -0.22692007014204357
0.07771699501131964 0.049938523080402995 -0.11215547017711315
-0.07057571293816733 -0.0453497573981761 -0.09576351684353507
0.039077774276835904 0.04108880345940326 -0.08749719949915422
-0.038273802684409094 -0.04024345770060625 -0.0836929734339736
0.03796944520145444 0.0626062610972499 -0.0941545951132203
-0.036610391953421424 -0.06036537393021428 -0.08749719949915422
-0.06544064631209207 -0.06594124101192601 -0.09403804807157948
0.07390158051843222 0.07446689797175331 -0.11474367333504652
-0.3727867418398417 -0.21867078161947895 -0.23385649150009732
-0.3630558466882445 -0.18498761984437925 0.0015550843666264883
0.5308444036505111 0.27048081895604353 0.0023090646655969066
-0.35677203276960323 -0.21022505473561873 0.2275262865139473
0.9206450573761642 0.940316911133182 1.7931591822708257
-0.32859565301980587 -0.3356169101042924 0.6352758243617763
0.08553662632208328 0.043583087974996534 1.723
-0.08553662632208316 -0.043583087974996826 1.703
0.07766563145999492 0.056427384220077474 1.722
-0.07766563145999471 -0.05642738422007775 1.702
0.8310903622404009 1.2103902781639988 1.7827590323494868
-0.31957988111035535 -0.4654323991317002 0.6812098198476892
-0.34518694764730584 -0.2900301832099073 0.24309651804139185
3.0893222029894574 2.595685296429409 2.2175023288279854
-0.3509139527020188 -0.2549558761759837 0.0016611128461692035
-0.3598572637527808 -0.30099254031456624 -0.249215710221502
0.2536873208651598 0.21218966196902364 -0.17241961661447855
0.0625472726807438 0.08986965484104432 -0.1026653919313574
-0.03394112549695386 -0.07980037205327152 -0.09130142556433483
0.03575262228144916 0.08405945643127725 -0.10081199072728637
-0.03108732465514114 -0.10060069582264372 -0.09986093421099122
0.029665631459994648 0.09600000000000007 -0.09130142556433483
-0.11092294971858914 -0.21936385299315025 -0.25450664386344907
0.049307428067311226 0.09751153777887012 -0.08541070421180155
0.22054689286834558 0.2539015557258366 -0.17142869927761373
-0.34058510117648544 -0.3405877273185295 0.0018535349016356123
0.4296570180123262 0.4296603309592361 0.0023561884342825578
2.7973641516474417 3.2350187016461005 2.2973625485977816
-0.3359592555741452 -0.3885209132080296 0.271725653430564
0.7320375467776695 1.467403318791396 1.7966258989112718
-0.3087565136196844 -0.6189167957003617 0.7540108692970605
0.0678822509939085 0.06788225099390863 1.723
-0.06788225099390827 -0.06788225099390886 1.702
0.056427384220077335 0.07766563145999501 1.724
-0.05642738422007709 -0.0776656314599952 1.702
0.6047012158711367 1.668383711552845 1.7853590698298216
2.262817243176922 3.601772098009328 2.235583888021147
-0.3289292744133671 -0.5235633970762955 0.3214499412117578
-0.3339587774638308 -0.45965836773420415 0.0021991092053303875
0.7979940349654503 1.2644539647869817 -0.7729155227545588
0.08657209335556205 0.23564625057463262 -0.2372519561438932
-0.09248780674274189 -0.25174861826762396 -0.2553693782494269
0.025309998224235603 0.1127323888236615 -0.09605670814581062
-0.026246191699473814 -0.1169022558433948 -0.10271410375987669
0.018653926416234264 0.11847371704418447 -0.08749719949915422
-0.039937313287049046 -0.2536475082134484 -0.2548831463671014
0.06686610079565886 0.25952773319025646 -0.2372519561438932
-0.0714352485694196 -0.2772619894161347 -0.2553693782494269
0.6132016438096431 1.3854850625724948 -0.7689518534070995
1.9617080295389793 3.850098474147656 0.016964556726834418
-0.3270635269810552 -0.6419032634917918 0.0028038642367962437
1.7716843306259216 4.021131298287316 2.2662220855428927
0.4715807078231692 1.855266442374692 1.8026926530320528
-0.29477448651501365 -1.1596852963387327 1.1249495498248097
0.04358308797499638 0.08553662632208338 1.725
-0.04358308797499605 -0.08553662632208354 1.702
0.029665631459994818 0.09130142556433479 1.724
-0.02966563145999448 -0.0913014255643349 1.702
0.3191421753404731 1.9689029172577215 1.7922925031107142
-0.2831129375226099 -1.7466255846849374 1.589489579644608
1.140478499148916 4.059185085895705 2.1431670299227665
1.24969822401973 3.8462053071246034 0.015876783066340636
0.045513642918300956 0.2770187816915715 -0.2372519561438932
-0.0487723762786602 -0.2968530618647716 -0.2562321126354047
-0.027094188960767672 -0.2698470984948288 -0.2539320898508063
0.01520235521515014 0.15140927270552668 -0.12078417756948463
0.011914342310555647 0.24343061442878253 -0.21588982919900007
0.023040488101173803 0.2876887084150134 -0.2372519561438932
-0.024614909125595923 -0.3073472828787434 -0.2553693782494269
-0.2941652459078878 -1.8573005878520719 0.007374869799304406
0.5701798279481646 4.16319856226521 2.1165469566661677
-0.35559407483488115 -2.5963891890563766 1.319451555567637
0.1624176808697206 2.055592056428301 1.801825973871941
-0.15088102082004382 -1.9095816797942187 1.6735574581754298
0.015017708643862022 0.09481808069713325 1.725
-0.015017708643861677 -0.09481808069713331 1.702
-1.6465195194651677e-16 0.096 1.726
4.939558558395502e-16 -0.096 1.703
-1.773031276319799e-15 2.07222489127025 1.794025861430937
4.916566256336166e-15 -1.9154072673977196 1.6579572332934216
-6.181680890340413e-15 4.168105684840538 2.0929404766084296
1.5685057052068162e-14 -3.525307362486284 1.7699837387972412
1.287795649251028e-14 -2.5028417848517712 0.009821378790234462
-4.870269791194803e-15 2.839623214442367 0.011144771294156499
1.386540471142126e-15 -0.3102273359973296 -0.14616030718756085
7.553816471741321e-16 -0.29033084576048757 -0.2363892217579154
-1.4366532574232135e-16 0.1656532523073423 -0.11646914210700211
-1.2770423799038331e-16 0.24095020232404868 -0.21018349010122914
4.571293317682112e-16 -0.2875013043448673 -0.2577363159159869
-0.0064277049883149475 0.1313291270208142 -0.08749719949915422
0.00680646167421275 -0.13906778101981665 -0.0979588211784009
-0.07560854345823524 0.9440652523125794 -0.8204604010648816
0.06265662762959942 -0.455427152970223 -0.2234518594630167
0.3990310715589119 -2.519402458608668 0.010009873864977066
-0.44401404075346396 3.24199230748373 1.6479332142434018
0.4795762195630639 -3.5016514613753476 1.7800290494601088
-0.1629633801454927 2.062498540318858 1.8078927279927222
0.14908834547691346 -1.8868932066219435 1.6536238374928638
-0.015017708643862348 0.0948180806971332 1.728
0.015017708643862733 -0.09481808069713313 1.703
-0.029665631459995147 0.09130142556433468 1.729
0.029665631459995505 -0.09130142556433457 1.703
-0.31945016010155297 1.9708029860715859 1.794025861430937
0.2934279030288411 -1.8102623185479656 1.6475570833720827
-0.44217753336195875 1.5737959550139906 0.8297426607528497
0.9470765678382356 -3.3708299474641725 1.779526783926965
-0.46447024029102146 1.4295034344071693 0.005890471085706395
0.8166465781457302 -2.5133991091113086 0.010371156091567059
0.025757251079133577 -0.1567715053368371 -0.11560640772102432
-0.013100097793482599 0.13047164411115633 -0.09320353859692515
0.013798439551056677 -0.13742684388893742 -0.10271410375987669
-0.018557134900546203 0.11785898047955731 -0.08654614298285906
0.03351629197098146 -0.13008695253150132 -0.09490078245755727
0.17952303683618767 -0.4056194050278798 -0.22047910745242225
-0.471893444561759 0.9261501729666004 0.004064425049137412
-0.45068050366711954 1.0228941169127341 0.574591769916017
-0.39716274915480704 1.5624954720252937 1.5175552093553482
0.4324450362944446 -1.7013010725396698 1.652757158332752
-0.04358308797499667 0.08553662632208323 1.73
0.043583087974997006 -0.08553662632208306 1.704
-0.05642738422007763 0.0776656314599948 1.731
0.05642738422007789 -0.07766563145999461 1.704
-0.3883731113807131 1.0715298002158418 1.1448831705073759
0.528849819872908 -1.4591080721782907 1.5608891673609264
1.806527481113515 -2.8754864297509233 1.784549439258399
-0.44538036678270415 0.7089209625373482 0.4374732793678766
-0.4695131906609299 0.6462344499157592 0.003114095713976781
0.2514285644466579 -0.3983987739821082 -0.23930653685285383
-0.04163173699015807 0.11332015140661517 -0.08799890736973494
-0.031586326734104365 0.14068756684030867 -0.13790319486279742
0.025441959145902356 -0.11332015140661489 -0.09700776466210577
-0.02935824082580308 0.09500526301210871 -0.08939931253174453
0.030766207462558023 -0.09956153875869879 -0.0979588211784009
0.11160317597089166 -0.2207090845434311 -0.2562321126354047
-0.04779064113573088 0.09451190401213995 -0.08023429789593478
0.29343807384645404 -0.33781651824621994 -0.23187465682636768
-0.4653011510666717 0.46530473885401047 0.0025564644511965754
-0.43565255191122587 0.5038114726760384 0.3545994663992203
-0.37263650057886555 0.7469672014218541 0.9117464764373651
0.637616353544029 -1.2781316442370012 1.5643558840013727
-0.06788225099390874 0.06788225099390839 1.729
0.06788225099390897 -0.06788225099390816 1.704
-0.07766563145999512 0.05642738422007719 1.729
0.07766563145999529 -0.056427384220076954 1.704
0.7270932942082109 -1.0589301652535281 1.5591558090407034
-0.3652924679426706 0.5320076756664928 0.7800112441004075
-0.426461071235949 0.3583176694989935 0.30236385095230967
-0.45566844102952203 0.33106505379418677 0.002179474301711366
-0.49443225242335576 0.413554024499544 -0.34533469189738947
0.3529569403456213 -0.2952209578552994 -0.2442611235371779
-0.0725097395219391 0.10418400330118367 -0.12854742351069123
0.12690947644138423 -0.1823470529572107 -0.25450664386344907
-0.03394112549695404 0.07980037205327072 -0.09130142556433483
0.06531892910940867 -0.1535740129041913 -0.23110673345972255
-0.0578762891645512 0.09542983974485354 -0.17784756854719388
0.1397710706657868 -0.14084026330229404 -0.25450664386344907
-0.09470538155678987 0.09542983974485354 -0.16133133017784737
-0.48786576343394694 0.2861743078333949 -0.30867075043339115
0.38644842450271183 -0.22668450767470522 -0.24277474753188066
-0.44576437533817 0.22713004502591638 0.0019281475353878932
-0.4127170629495998 0.24319021442168978 0.2646939359665568
0.8021118837745664 -0.8192509837435986 1.561755846521038
-0.3497616200314636 0.35723514023770137 0.6768764240471314
-0.08553662632208345 0.043583087974996236 1.73
0.08553662632208361 -0.0435830879749959 1.703
-0.09130142556433483 0.02966563145999468 1.728
0.09130142556433495 -0.02966563145999433 1.703
-0.3394544276056821 0.22109231966584197 0.6144755245190987
0.9063951631950895 -0.5903502587318872 1.6536238374928638
-0.40095268474106216 0.15065965026687497 0.2400829248425316
2.009830917595161 -0.7552023833834306 1.226532431936113
-0.43388277148267224 0.14097814533953962 0.0017514334028167014
1.8368443378201182 -0.5968315062117036 0.007575145816218423
-0.4758896665624459 0.17801095554293322 -0.2814205236696086
0.41330411515075904 -0.15460024799289904 -0.2432702062003131
0.14964841485468927 -0.09615941555740737 -0.2553693782494269
-0.2462633125561333 0.15824114295913766 -0.4339553961468301
0.08477159464408138 -0.08913412945668933 -0.25868737243228207
0.0865991677530914 -0.04438578125739324 -0.2539320898508063
-0.058263615948855985 0.02986259775779923 -0.15692432518870048
-0.14641533969581816 0.04586091858550614 -0.23897742491584878
0.15541241977532502 -0.04867902738401456 -0.2553693782494269
-0.4646385528845241 0.08472121484034964 -0.2640794702744743
0.42333094929327186 -0.07718927342767692 -0.23980199552128623
-0.42263618765329986 0.06693951218740513 0.0016375509618263779
2.520370013730959 -0.39919047204095454 0.01001380084570087
