0.096 0.0 3.202
-0.096 -3.2930390389303353e-16 0.507
0.096 0.0 1.724
-0.096 -3.2930390389303353e-16 1.703
0.096 0.0 1.724
-0.096 -3.2930390389303353e-16 1.703
0.096 1.0251695218102255 1.7810256740292636
-0.36483475710797214 -2.5086379757306525e-15 0.6283423910808837
0.096 3.3369291669672805 1.9382426924002707
-0.39449512264296394 -1.56493057248808e-15 0.22401042778194372
-0.40455219205062687 -1.3877254520002888e-15 0.0015433034244550755
-0.4149841037502906 -1.638783284720709e-15 -0.23187465682636768
-0.15686873987045832 -1.064157008731838e-15 -0.25450664386344907
-0.08855156828059718 -9.82968360878316e-16 -0.25678525939969177
0.096 0.0741640786499867 -0.22825356391083707
-0.07719643690973554 -0.039566479117850425 -0.22254722481306616
-0.4014742861235552 -0.07320397551256283 -0.22692007014204357
-0.3919002117643702 -0.062071374312057497 0.0015118875786646413
-0.38129302432829026 -0.0698391853624483 0.21898777245051
3.3173570253916624 0.6076206419403755 1.9502970651957117
1.0200507134358132 0.32385485962200683 1.7922925031107142
-0.3505762124590004 -0.11130408378452782 0.6110088078786525
0.09481808069713321 0.015017708643862182 1.724
-0.09481808069713317 -0.015017708643862532 1.703
0.09130142556433472 0.029665631459994988 1.723
-0.09130142556433464 -0.029665631459995307 1.703
0.9765313828873932 0.6360311461892824 1.7818923531893753
-0.34039477022811904 -0.22170478046991343 0.6162088828393218
3.323398945747898 1.2487810704822735 2.029152753899221
-0.36875793478589197 -0.13856233815682742 0.21999230351679672
3.2320039070598794 1.0501498250101633 0.013339953518763081
-0.37736524247250947 -0.12261434538546992 0.0015118875786646413
-0.38658422930524927 -0.14460542619793873 -0.22692007014204357
0.07694539839421138 0.04944271909999165 -0.11043000140515756
-0.07057571293816733 -0.0453497573981761 -0.09576351684353507
0.039077774276835904 0.04108880345940326 -0.08749719949915422
-0.038273802684409094 -0.04024345770060625 -0.0836929734339736
0.03777226759035765 0.062281143020402545 -0.09320353859692515
-0.036610391953421424 -0.06036537393021428 -0.08749719949915422
-0.06544064631209207 -0.06594124101192601 -0.09403804807157948
0.07390158051843222 0.07446689797175331 -0.11474367333504652
-0.3727867418398417 -0.21867078161947895 -0.23385649150009732
3.2283340999877197 1.6449310668504007 0.01422352418161904
-0.3630558466882445 -0.18498761984437925 0.0015550843666264883
3.4909915299003957 2.0570387195366884 2.275262865139473
-0.35677203276960323 -0.21022505473561873 0.2275262865139473
0.9206450573761642 0.940316911133182 1.7931591822708257
-0.3281549290752817 -0.3351667690050088 0.6344091452016647
0.08553662632208328 0.043583087974996534 1.724
-0.08553662632208316 -0.043583087974996826 1.703
0.07766563145999492 0.056427384220077474 1.722
-0.07766563145999471 -0.05642738422007775 1.702
0.8314935146724607 1.2109774246483689 1.7836257115095984
-0.31957988111035535 -0.4654323991317002 0.6812098198476892
3.078831173219474 2.586870608310443 2.209968345830835
-0.34518694764730584 -0.2900301832099073 0.24309651804139185
-0.3509139527020188 -0.2549558761759837 0.0016611128461692035
-0.3598572637527808 -0.30099254031456624 -0.249215710221502
0.2530099559673292 0.21162309905129406 -0.17192415794604612
0.06222940754407702 0.08941293740327444 -0.10180265754537962
-0.03394112549695386 -0.07980037205327152 -0.09130142556433483
0.03631201591759915 0.08537466974949819 -0.10366516027617184
-0.03108732465514114 -0.10060069582264372 -0.09986093421099122
0.029665631459994648 0.09600000000000007 -0.09130142556433483
-0.11092294971858914 -0.21936385299315025 -0.25450664386344907
0.049307428067311226 0.09751153777887012 -0.08541070421180155
0.22054689286834558 0.2539015557258366 -0.17142869927761373
-0.34058510117648544 -0.3405877273185295 0.0018535349016356123
-0.3359592555741452 -0.3885209132080296 0.271725653430564
2.7991980822421847 3.237139555224646 2.2988693451972115
0.7316851731113518 1.4666969693839298 1.7957592197511605
-0.3094577700159013 -0.6203224967708356 0.7557442276172837
0.0678822509939085 0.06788225099390863 1.722
-0.06788225099390827 -0.06788225099390886 1.702
0.056427384220077335 0.07766563145999501 1.723
-0.05642738422007709 -0.0776656314599952 1.702
0.6044083078663763 1.6675755720431178 1.7844923906697099
-0.30216399913294084 -0.8336769980606427 0.8892128182744644
2.2551950347222323 3.5896396742265004 2.228049905023996
-0.3289292744133671 -0.5235633970762955 0.3214499412117578
2.796054536636383 3.848468586950927 0.018676720322413076
-0.3339587774638308 -0.45965836773420415 0.0021991092053303875
0.799013246974291 1.2660689476177653 -0.7739064400914236
0.08657209335556205 0.23564625057463262 -0.2372519561438932
-0.09248780674274189 -0.25174861826762396 -0.2553693782494269
0.025309998224235603 0.1127323888236615 -0.09605670814581062
-0.02638222384174325 -0.11750815190940676 -0.10366516027617184
0.018460902028275546 0.11724779193804993 -0.0855950864665639
-0.039937313287049046 -0.2536475082134484 -0.2548831463671014
0.06664940681294758 0.25868667774572135 -0.2363892217579154
-0.0714352485694196 -0.2772619894161347 -0.2553693782494269
0.6135952424891133 1.3863743705131364 -0.769447312075532
1.9626157795329198 3.8518800475591686 0.016972410688282025
-0.32661359431965037 -0.641020214114892 0.0027999372560724395
1.771291847785786 4.0202404934158 2.265719820009749
0.4715807078231692 1.855266442374692 1.8026926530320528
-0.29477448651501365 -1.1596852963387327 1.1249495498248097
0.04358308797499638 0.08553662632208338 1.724
-0.04358308797499605 -0.08553662632208354 1.702
0.029665631459994818 0.09130142556433479 1.725
-0.02966563145999448 -0.0913014255643349 1.702
0.3191421753404731 1.9689029172577215 1.7922925031107142
-0.28280504339103124 -1.7447260749970528 1.587756221324385
1.1399442121187078 4.0572834543031515 2.14216249885648
-0.3270053131769624 -1.1638755936627936 0.6127639504349133
1.2500071515765285 3.84715609571151 0.015880710047064442
0.045513642918300956 0.2770187816915715 -0.2372519561438932
-0.04862371749632071 -0.29594825020543336 -0.2553693782494269
-0.027184067777750093 -0.2707422549438361 -0.2548831463671014
0.014899428746707312 0.14839224832864104 -0.116979951504304
0.011869834145016984 0.24252123564800201 -0.2149387726827049
0.02296582044340933 0.2867563912727589 -0.2363892217579154
-0.024614909125595923 -0.3073472828787434 -0.2553693782494269
-0.2941652459078878 -1.8573005878520719 0.007374869799304406
0.5699093561885832 4.161223698221571 2.115542425599881
-0.35586443647629556 -2.5983632490663187 1.3204560866339237
0.1624956376706845 2.0565786939664545 1.8026926530320528
-0.15095896443422507 -1.9105681504377001 1.6744241373355413
0.015017708643862022 0.09481808069713325 1.726
-0.015017708643861677 -0.09481808069713331 1.703
-1.6465195194651677e-16 0.096 1.727
4.939558558395502e-16 -0.096 1.703
-1.772176578207678e-15 2.071225965461036 1.7931591822708257
4.916566256336166e-15 -1.9154072673977196 1.6579572332934216
-6.184646286284051e-15 4.170105154549463 2.093945007674716
1.568950467614053e-14 -3.526306991740793 1.7704860043303845
1.287795649251028e-14 -2.5028417848517712 0.009821378790234462
-4.870269791194803e-15 2.839623214442367 0.011144771294156499
1.3822911091487621e-15 -0.30927657525263696 -0.14566484851912842
7.578375828743934e-16 -0.2912747843531946 -0.2372519561438932
-1.2431019045605748e-16 0.2345463706817908 -0.20352609448716308
4.571293317682112e-16 -0.2875013043448673 -0.2577363159159869
-0.0064277049883149475 0.1313291270208142 -0.08749719949915422
0.006771179190090285 -0.1383468988624444 -0.09700776466210577
-0.07560854345823524 0.9440652523125794 -0.8204604010648816
0.4045024092056735 -2.5539473913260045 0.010147318190310216
-0.44333797560400334 3.237055981573428 1.645421886577685
0.47971144096048984 -3.502638787653405 1.780531314993252
-0.16304133750173302 2.063485184884706 1.8087594071528337
0.149166286762535 -1.8878796477946866 1.6544905166529753
-0.015017708643862348 0.0948180806971332 1.727
0.015017708643862733 -0.09481808069713313 1.703
-0.029665631459995147 0.09130142556433468 1.728
0.029665631459995505 -0.09130142556433457 1.703
-0.31929616764106894 1.9698529511714375 1.7931591822708257
0.2937358271645979 -1.8121620133424214 1.649290441692306
-0.44244429474439556 1.574745410725684 0.830244926285993
0.9470765678382356 -3.3708299474641725 1.779526783926965
-0.4638534745960123 1.4276052101448622 0.005882617124258786
0.8277638605924399 -2.5476148501002003 0.010512527397624013
0.1311308977196968 -0.4646152003682942 -0.2373247021791242
0.025503854304713806 -0.15522920590235012 -0.11388093894906873
-0.013032053940667821 0.129793955021475 -0.09225248208062999
0.013798439551056677 -0.13742684388893742 -0.10271410375987669
-0.018557134900546203 0.11785898047955731 -0.08654614298285906
0.0333436747273751 -0.1294169723560517 -0.09403804807157948
0.17682561845559489 -0.39952478197598873 -0.21701089677339538
-0.471441399794297 0.9252629783162013 0.004060498068413607
1.2260857573749404 -2.4063473425006685 0.010598920973547706
-0.4502893081462684 1.022006233825746 0.5740895043828735
-0.3969366085675542 1.5616058023763257 1.5166885301952369
0.43221884247285186 -1.7004111934591395 1.6518904791726408
-0.04358308797499667 0.08553662632208323 1.729
0.043583087974997006 -0.08553662632208306 1.703
-0.05642738422007763 0.0776656314599948 1.731
0.05642738422007789 -0.07766563145999461 1.704
-0.3877882041103007 1.0699160284272087 1.1431498121871526
0.528849819872908 -1.4591080721782907 1.5608891673609264
-0.44588557669707524 0.7097251154041809 0.43797554490102
1.3472000781328899 -1.8542761284153129 0.008992785857511763
-0.4695131906609299 0.6462344499157592 0.003114095713976781
0.24492193121201436 -0.38808874930715453 -0.2328655741632325
-0.04163173699015807 0.11332015140661517 -0.08799890736973494
-0.031586326734104365 0.14068756684030867 -0.13790319486279742
0.025441959145902356 -0.11332015140661489 -0.09700776466210577
-0.029205784510484903 0.09451190401213995 -0.08844825601544937
0.030606725447046387 -0.09904544411531446 -0.09700776466210577
0.11160317597089166 -0.2207090845434311 -0.2562321126354047
-0.047542550547729844 0.09402127418834504 -0.07937156350995699
0.2922348042953843 -0.33643127084145824 -0.23088373948950286
-0.4646016263590192 0.4646052087525482 0.002552537470472771
1.8743410367880764 -1.8743554892282195 0.010402571937357493
-0.43565255191122587 0.5038114726760384 0.3545994663992203
-0.37263650057886555 0.7469672014218541 0.9117464764373651
0.6372641001845804 -1.277425535990251 1.563489204841261
-0.06788225099390874 0.06788225099390839 1.729
0.06788225099390897 -0.06788225099390816 1.703
-0.07766563145999512 0.05642738422007719 1.729
0.07766563145999529 -0.056427384220076954 1.703
0.7266902769072141 -1.0583432155724568 1.5582891298805917
-0.3648911560003275 0.5314232096498086 0.7791445649402959
-0.426461071235949 0.3583176694989935 0.30236385095230967
-0.45566844102952203 0.33106505379418677 0.002179474301711366
-0.4951284271134221 0.4141363203417359 -0.3458301505658219
0.3536467475178597 -0.2957979277653521 -0.2447565822056103
-0.0725097395219391 0.10418400330118367 -0.12854742351069123
0.12690947644138423 -0.1823470529572107 -0.25450664386344907
-0.03394112549695404 0.07980037205327072 -0.09130142556433483
0.06531892910940867 -0.1535740129041913 -0.23110673345972255
-0.04719425598852302 0.07781667330221397 -0.13505002531391197
0.1397710706657868 -0.14084026330229404 -0.25450664386344907
-0.09590980600106505 0.09664347755310253 -0.16391953333578074
-0.48786576343394694 0.2861743078333949 -0.30867075043339115
0.38644842450271183 -0.22668450767470522 -0.24277474753188066
-0.44576437533817 0.22713004502591638 0.0019281475353878932
-0.4127170629495998 0.24319021442168978 0.2646939359665568
0.8016680207351231 -0.8187976364748857 1.5608891673609264
-0.3493204518049576 0.3567845453632548 0.6760097448870198
-0.08553662632208345 0.043583087974996236 1.73
0.08553662632208361 -0.0435830879749959 1.703
-0.09130142556433483 0.02966563145999468 1.729
0.09130142556433495 -0.02966563145999433 1.702
-0.3399245929722511 0.22139854619602595 0.6153422036792103
0.9054474638459991 -0.5897330063692826 1.6518904791726408
-0.4017590084284303 0.15096262976885594 0.24058519037567497
2.0106526744658555 -0.7555111619686723 1.2270346974692568
-0.43388277148267224 0.14097814533953962 0.0017514334028167014
1.837794212050109 -0.5971401414377402 0.0075790727969422276
-0.4758896665624459 0.17801095554293322 -0.2814205236696086
0.41249337951828374 -0.154296984789745 -0.24277474753188066
0.14964841485468927 -0.09615941555740737 -0.2553693782494269
0.08477159464408138 -0.08913412945668933 -0.25868737243228207
-0.08145439718033426 0.08564622163322141 -0.2472746942367402
-0.057736812233314866 0.029592588298236546 -0.15502221215611017
0.08545131934374145 -0.04379745980193404 -0.2501278637856256
-0.14594353594275797 0.04571313793934992 -0.238114690529871
0.15541241977532502 -0.04867902738401456 -0.2553693782494269
-0.4646385528845241 0.08472121484034964 -0.2640794702744743
0.42417252522647425 -0.07734272461031914 -0.24029745418971865
-0.42263618765329986 0.06693951218740513 0.0016375509618263779
2.5272788979481664 -0.40028474023844857 0.0100412897107675
