-0.1339587295539055 -0.09088627015989048 0.5571679643878688
0.13828125908790978 0.09381895389248167 0.5756429928754245
0.233141419790839 0.081336444950333 0.4553043338602558
-0.2844238404711227 -0.09922743056037328 0.5586610906661065
-0.3020531900783585 -0.07366336011295596 0.3505471501416141
0.2588798351757481 0.063134438406647 0.29807913851521195
0.2784583459070285 0.05451488606151659 0.1969080595179782
-0.312406626760435 -0.061161074584543056 0.22277061061884698
0.2961300301909532 0.050766780131595995 0.11863186403317745
-0.31974806890456164 -0.05481571693729757 0.12896431670703484
0.30078084867903615 0.04823283258529007 0.04583529825678722
-0.3277833014019747 -0.05256291140280109 0.05037189774295387
0.3054633693312478 0.048530247347598275 -0.02314543323971483
-0.3327337955098995 -0.05286281439359854 -0.02542074701582239
0.3084322655421482 0.051364846272460095 -0.09703133623373413
-0.3391031220557016 -0.056472625210874955 -0.10753791404248242
-0.34314811170361753 -0.0637423896888227 -0.20690943162751663
0.3129520752101799 0.05813324465909414 -0.18757698473302645
-0.24271021691824018 -0.054364521583483115 -0.2361736649163075
0.09987868625396043 0.022371769361535995 -0.07495331880577423
0.06720450915766668 0.030879271739114342 -0.07759025495622254
-0.07728554874752992 -0.0355113293913453 -0.10061153939378308
0.06685600261393383 0.030719139206317497 -0.07673761479186844
-0.0776803200057586 -0.03569271973420214 -0.10146417955813716
-0.23762460902074997 -0.08067893390142734 -0.2347594513539344
0.09884033820049436 0.03355853228053473 -0.07566042558696078
0.30489583310581875 0.08584983011701589 -0.18548699047416264
-0.3346040418462067 -0.0942148006955362 -0.2048194373686528
0.3001131458530921 0.07575868563596479 -0.09579526825623433
-0.3302793929239953 -0.08337366438728044 -0.10630184606498262
0.29612066791385194 0.07131211393879125 -0.022753137761075595
-0.32478605861383886 -0.07821534572635598 -0.025185369728638846
0.29155646495261495 0.0708690296631753 0.04505312593158607
-0.31902001612580944 -0.0775446326996778 0.04974615988279295
0.2846800085607062 0.07397676946516427 0.11557039657425675
-0.311334612210709 -0.08090321814475769 0.1274335829775745
0.2696054160892779 0.0800063956456198 0.19338134800422338
-0.30375003082678237 -0.09013893524917072 0.21983168435738462
-0.29304223560074844 -0.10832770452075297 0.34522430838241386
0.249348037016624 0.09217545184704154 0.2912354848248117
0.22345446217237258 0.11816694406608708 0.4428302425216187
-0.2752136107224678 -0.14553816034061315 0.5488600189000344
-0.13188111455726764 -0.13562854196819812 0.5571679643878688
0.1365847602392951 0.14046584265321074 0.5775877327162199
0.09334751235817695 0.022410754930166945 0.653
-0.09334751235817687 -0.02241075493016728 0.645
0.09130142556433472 0.029665631459994988 0.652
-0.09130142556433464 -0.029665631459995307 0.645
0.09130142556433472 0.029665631459994988 0.652
-0.09130142556433464 -0.029665631459995307 0.646
-0.12899040863446345 -0.17953461871420498 0.5571679643878688
0.1333717839023609 0.1856328127310535 0.5766153627958222
0.21728489289034852 0.15551017352661514 0.4401572229490536
-0.2687545829931187 -0.19234688284760135 0.547969012375846
0.2420856059748808 0.12111574090946674 0.28895426692801157
-0.2854105496719886 -0.14279126612132514 0.3437034964512138
0.2607428768451916 0.10472029256306228 0.1910302069950535
-0.2963469259420042 -0.11901969158389107 0.21924389910509215
0.27676586705104594 0.09733593859951026 0.11480502970952657
-0.3036662796992814 -0.10679655938244648 0.1270508995452094
0.2824938063811893 0.09293194825175953 0.04458382253646538
-0.3102293557384211 -0.10205610807182544 0.04943329095271249
0.2869311161409721 0.09351785543459197 -0.022517760473892055
-0.3167588080915759 -0.10323942840757687 -0.025106910632911
0.2909439844315007 0.09939833166858514 -0.09486821727310948
-0.3212979189457876 -0.1097684737294131 -0.10568381207623272
0.29586511870843285 0.1127467465357805 -0.18391949478001476
-0.326482269545125 -0.12441417174664005 -0.20429693880393685
-0.2343548766368466 -0.10768743470366579 -0.23688077169749405
-0.07084236508214216 -0.056160667969609494 -0.09464305824330442
0.06385313778303907 0.05061992023689384 -0.07759025495622254
-0.07120818121149183 -0.05645067068415062 -0.09549569840765851
0.06385313778303907 0.05061992023689384 -0.07759025495622254
-0.22640232990983586 -0.1326234143083158 -0.23546655813512093
0.09488787035587372 0.05558402754977107 -0.07707463914933388
0.2889308610546098 0.14036294118001996 -0.1849644919094467
-0.31791792328461965 -0.154444889006299 -0.2048194373686528
0.2834688313402835 0.12345915562262727 -0.09517723426748442
-0.3129627025122454 -0.13630461878595557 -0.10599282907060767
0.27960551047405824 0.11617452183212945 -0.0225962195696199
-0.30770724402213817 -0.12785063455275247 -0.025106910632911
0.2726924792199744 0.11436089564649149 0.04427095360638492
-0.302237594371231 -0.12675143109632017 0.04958972541775272
0.2672317409028216 0.11981108735858857 0.11403966284479641
-0.29498884211518994 -0.13225574856141306 0.1270508995452094
-0.2871548588641672 -0.1470221736624554 0.21865611385279968
0.2518587234662277 0.12895068927728445 0.18985463649046855
-0.27725478001237247 -0.1768312190777544 0.3437034964512138
0.23400458611984665 0.14924653862238518 0.2874334549968115
0.2077829979781265 0.18957783443146398 0.43302917075554664
-0.2594172400795572 -0.2366880787505401 0.5444049862790926
-0.12509172830315018 -0.22195639077175416 0.556195594467471
0.12956060891303464 0.22988574488984387 0.5766153627958222
0.08869243512108352 0.03673760950704866 0.652
-0.0886924351210834 -0.03673760950704896 0.645
0.08553662632208328 0.043583087974996534 0.651
-0.08553662632208316 -0.043583087974996826 0.645
0.08553662632208328 0.043583087974996534 0.651
-0.08553662632208316 -0.043583087974996826 0.645
-0.1206407784975406 -0.2633144898489392 0.556195594467471
0.12474532598620024 0.2722732087953601 0.5756429928754245
0.20118351191405678 0.225793534000571 0.43481118380392336
-0.25298441334888 -0.2839310448139869 0.5506420319484111
-0.26908799370418923 -0.21111339282364902 0.34598471434801387
0.22511754240528747 0.17661630869174538 0.2866730490312115
0.24358826851931073 0.15341386259106118 0.19044242174276102
-0.2797302794767154 -0.17617639354745124 0.22100725486196957
0.2577232379717435 0.14213600805266038 0.11403966284479641
-0.28686588085216613 -0.15820836130930396 0.12819894984230468
0.2629896750950371 0.135670258428332 0.04427095360638492
-0.2940113108737611 -0.15167359902126015 0.050059028812873406
0.26797196471912405 0.13696074002858907 -0.022439301378164207
-0.29931193781980986 -0.15297863172425724 -0.02534228792009454
0.27176503504002836 0.14559723766475557 -0.09455920027873453
-0.30427590959801815 -0.16301483345301382 -0.10691988005373251
0.27718410686664985 0.16564121953008268 -0.18391949478001476
-0.30955838367658745 -0.18498761984437925 -0.20690943162751663
0.19965307099767413 0.14386557087223809 -0.2135462479183379
-0.21955763982588294 -0.15820836130930396 -0.23688077169749405
-0.06371163941922739 -0.07472277530755575 -0.09037985742153394
0.059545973344346234 0.0698371667600892 -0.07929553528493073
-0.0633821359805461 -0.07433632454854078 -0.08952721725717985
0.059545973344346234 0.0698371667600892 -0.07929553528493073
0.19048160653492338 0.1650773005102424 -0.21283914113715136
-0.21010358176317973 -0.18208231616652198 -0.23688077169749405
0.26735342979748167 0.19214951317232642 -0.18548699047416264
-0.30117703144216057 -0.21645886500926853 -0.21056692158052828
0.2616108512397302 0.16856551958675903 -0.09517723426748442
-0.29586511870843246 -0.19063680740438407 -0.10877398201998222
0.25804542693665344 0.15861941171244376 -0.0225962195696199
-0.2913160321251634 -0.1790707093191023 -0.025813042494461622
0.2532610432450046 0.1571331365642775 0.04458382253646538
-0.28457946159622854 -0.17656431810213305 0.05068476667303433
0.2473756941979604 0.1640820204763234 0.11442234627716147
-0.27830195862590806 -0.1845951269461217 0.13011236700413012
0.23243816516482105 0.1760634100360908 0.18985463649046855
-0.2703595141801681 -0.20478744516206412 0.22335839587113945
-0.26075298355441257 -0.24603913160232624 0.3505471501416141
0.21435100990743988 0.20225554322258602 0.2851522371000114
0.191761071992242 0.2588409583874996 0.43302917075554664
-0.2440037088649855 -0.3293585772991137 0.555097064569353
-0.11544603817536389 -0.3030491675352523 0.556195594467471
0.11996331859813515 0.3149071584484129 0.5785601026366175
0.08185345577799281 0.05015986221273114 0.651
-0.08185345577799266 -0.05015986221273141 0.645
0.07766563145999492 0.056427384220077474 0.652
-0.07766563145999471 -0.05642738422007775 0.645
0.07766563145999492 0.056427384220077474 0.651
-0.07766563145999471 -0.05642738422007775 0.645
-0.10953953463813272 -0.34091544632963644 0.556195594467471
0.11307996381955251 0.351934180328911 0.5746706229550268
-0.23515056001570903 -0.3763225936086887 0.5640071298112367
0.18555470511969518 0.29695199485076185 0.4419392359974303
-0.25307313967629386 -0.2831148682999659 0.3589116157632144
0.2074589055346145 0.2320858736459137 0.2912354848248117
0.22431315368388863 0.20144576303772432 0.19338134800422338
-0.2622423696883072 -0.23550832126915427 0.2286484631417717
0.23828034846387205 0.1873846109312148 0.11633576343898692
-0.2691022786468681 -0.2116230990512951 0.13279115103068576
0.24409317074795095 0.17955468547619072 0.04536599486166653
-0.2753871982466834 -0.20257453993422747 0.051779807928315935
0.24867213218780956 0.18122954978389394 -0.022988515048259137
-0.28106027007477 -0.20483367299605917 -0.026283797068828704
0.2519016291551907 0.1924357210316232 -0.09672231923935917
-0.28592760873357076 -0.21842925642848765 -0.11093710098060687
-0.29113907527299326 -0.24808228440683894 -0.2147469100982559
0.25633951203411476 0.21842925642848657 -0.18757698473302645
0.18128119495353853 0.18626394367250457 -0.2135462479183379
-0.2004542663890732 -0.20596401183905053 -0.23829498525986714
-0.11873219715881056 -0.19408067922848857 -0.2412971665122086
0.05310459822497567 0.0868052368295148 -0.07929553528493073
-0.11873219715881056 -0.19408067922848857 -0.2412971665122086
0.17038863590285241 0.20580433792884462 -0.2135462479183379
-0.1878926058916309 -0.22694655164268124 -0.2375878784786806
-0.28438968214069826 -0.28487015368958996 -0.22362938569842702
0.2478336022143725 0.24825231288568275 -0.19332446894490188
0.24368895648333433 0.21884086531885122 -0.09981248918310867
-0.2771399708845529 -0.24888099944309533 -0.11464530491310625
0.23950077283480073 0.20518550265927588 -0.023616187814081906
-0.2721980580090316 -0.23319797549875304 -0.02714684712183502
0.23442323220880334 0.20271207690152018 0.046461036116948136
-0.2667845677012057 -0.23069579450135705 0.05350058704375846
0.2286571027390259 0.21138212090552175 0.11901454746554255
-0.2603889901523672 -0.2407166728674753 0.13700066878670172
0.21615550288287128 0.22819575033962977 0.19867141527485563
-0.25425676600466385 -0.2684193218472072 0.23628967142157387
0.19930757805906266 0.2621068048851913 0.29807913851521195
-0.24513033772041018 -0.3223677204149516 0.37031770524721486
-0.220679869271707 -0.4151593791581515 0.5631161232870483
0.17711756053190372 0.33320672479598185 0.4490672881909373
-0.10295768344426592 -0.37667986803150844 0.556195594467471
0.10663582908526059 0.39013669192557215 0.5766153627958222
-0.07299897269760271 -0.06234701263969794 0.644
0.07299897269760293 0.062347012639697684 0.651
0.0678822509939085 0.06788225099390863 0.652
-0.06788225099390827 -0.06788225099390886 0.645
0.0678822509939085 0.06788225099390863 0.652
-0.06788225099390827 -0.06788225099390886 0.645
-0.09574106389506128 -0.4101219330881994 0.556195594467471
0.09883551246647469 0.4233774911352755 0.5746706229550268
-0.2048943674658042 -0.4513186235909191 0.5622251167628599
0.17196144973578842 0.37877763925554037 0.46956043824726973
0.1924822025420352 0.29637813684548353 0.3102456339648125
-0.23786871501581475 -0.36626288373243765 0.38704663649041554
-0.24646221740253543 -0.3046440545948679 0.24686980596283836
0.20872011300494794 0.2579922479455538 0.20690040880695026
0.22389263118614924 0.24233963769882982 0.12590284924811415
-0.2528806967721002 -0.2737160937906294 0.14350628713690822
0.22598106341381433 0.2287979457949745 0.048338249697430884
-0.2581865308258135 -0.2614048584093276 0.0558471040193619
0.23078690105088798 0.23150053995617398 -0.02455769696281607
-0.2633230278486964 -0.26413727491590544 -0.02832373355775272
0.23370847248476598 0.2457356303021605 -0.10321167612123312
-0.2681448148159396 -0.2819441434043287 -0.11958957682310543
0.2351339804294479 0.2757716446627538 -0.19750445746262948
-0.27505542654699067 -0.32259262235829406 -0.23303435986331417
0.15844557425185413 0.22407588000496634 -0.2135462479183379
-0.1752034531623152 -0.24777509963674826 -0.23829498525986714
-0.10172828456520508 -0.22795951202142947 -0.2421498066765627
0.07958995057083489 0.17835045947627007 -0.1824649951717761
-0.10172828456520508 -0.22795951202142947 -0.2421498066765627
0.07958995057083489 0.17835045947627007 -0.1824649951717761
0.14508806033154367 0.2402413567611964 -0.21283914113715136
-0.25262692242014023 -0.3469085024021142 -0.23303435986331417
0.21488749994760895 0.295084546324726 -0.19645946033319758
-0.25828678572204244 -0.317977918045626 -0.12576991671060445
0.22476185812250857 0.27670524259329865 -0.10846496502560726
-0.25313152129925853 -0.29729539436615565 -0.029735997280853965
0.22127124767653142 0.25987645672193854 -0.025734583398733777
-0.24768032759133354 -0.29361124575003894 0.05850648992504579
0.21676151752543027 0.25695871694872924 0.05068476667303433
0.21371286865105696 0.2708422588955877 0.1312604173012254
-0.24157236471821225 -0.3061491119370003 0.14962922205474963
-0.2361076238955424 -0.34170667725904263 0.25803772575639533
0.19982336455006683 0.28919429543424546 0.2163049728436298
0.18418534373180917 0.3320563212825891 0.32393294134561296
-0.22801250278890198 -0.4110695853887514 0.40453597369921623
-0.1884784140155674 -0.48608917895487236 0.5631161232870483
0.16345381896794514 0.42155030364699353 0.48648956220684875
-0.08778465298176466 -0.44028556042981687 0.5552232245470734
0.0913749391500817 0.4582927075110836 0.5785601026366175
0.06234701263969756 0.07299897269760304 0.65
-0.06234701263969729 -0.07299897269760328 0.644
0.056427384220077335 0.07766563145999501 0.65
-0.05642738422007709 -0.0776656314599952 0.644
0.056427384220077335 0.07766563145999501 0.65
-0.05642738422007709 -0.0776656314599952 0.645
-0.07958513041251952 -0.469229856737471 0.556195594467471
0.082428295591865 0.48599301315714205 0.5766153627958222
-0.17084688233568912 -0.5179636141078184 0.5640071298112367
0.15819460308046066 0.4796051717403215 0.521238816650195
0.178260895634741 0.3777901473558921 0.34750552627921394
-0.2199011338567156 -0.4660387319812514 0.43191058846081737
0.19330150580359892 0.3288641643349964 0.23217517465552656
-0.22764695465782733 -0.38729613199712515 0.2756712833251695
-0.2329014124139039 -0.3469730435821559 0.15996167472860703
0.2044265714384382 0.30455165104368 0.13929676938089222
-0.23824926849077738 -0.33200957451679525 0.062417351551051534
0.20845819458942422 0.29049456029222903 0.05412632490391937
-0.2438951552557074 -0.33673091120545473 -0.031775933769777984
0.21210048323993397 0.29283397988623416 -0.027382224409018562
-0.24847786621749468 -0.35960054617078147 -0.13411337555872807
0.21476731594914483 0.3108141795106383 -0.1149543219074812
-0.22815096578174066 -0.3682947127853318 -0.23251186129859822
0.19497032281545942 0.3147325666448237 -0.19698195889791353
0.13131246196808138 0.2555994418299112 -0.21283914113715136
-0.14643817583649055 -0.2850416133047277 -0.23970919882224023
0.07643401705941895 0.23871640635080418 -0.2242443632251267
-0.08106770212796617 -0.2531881911696661 -0.23959188618350039
0.07643401705941895 0.23871640635080418 -0.2242443632251267
-0.08184316330305125 -0.25561008801746593 -0.2421498066765627
0.11637533950309302 0.2685694709215467 -0.2121320343559648
-0.1301729439378922 -0.30041140013835127 -0.23970919882224023
-0.20193882020994222 -0.3864868419681243 -0.23146686416916631
0.17245119961483119 0.3300510494389267 -0.19593696176848163
0.20586461407691603 0.35322876405935577 -0.12453384873310464
-0.23837726656397507 -0.4090149617300494 -0.14523798735622626
-0.23356463667737987 -0.3823214157470354 -0.03436508392879693
0.20264145165374509 0.3317033254152587 -0.02957907908939827
-0.22787502053054218 -0.3764934964031379 0.06742325443233887
0.19926553941856492 0.32922511415987754 0.05850648992504579
0.19482035395262576 0.3441118804964293 0.1500119054871147
-0.22258681783540094 -0.39315588389538636 0.17259022799665494
0.18376570153068497 0.37067005039979745 0.24922094697200822
-0.21729155531745106 -0.4382943666314226 0.2968315524076985
0.17010163166780026 0.42741006818660326 0.374119735075215
-0.21054814627982368 -0.5290390025991621 0.4661288569128187
-0.15210504987970205 -0.546735851101294 0.5648981363354251
0.14999456717206056 0.5391498008004644 0.5568790776177297
-0.07074542318149529 -0.494531295325375 0.556195594467471
0.07363403632649713 0.5147235499766274 0.5795324725570152
0.050159862212731 0.0818534557779929 0.65
-0.0501598622127307 -0.08185345577799309 0.645
0.04358308797499638 0.08553662632208338 0.65
-0.04358308797499605 -0.08553662632208354 0.645
0.04358308797499638 0.08553662632208338 0.649
-0.04358308797499605 -0.08553662632208354 0.645
-0.061365029241557005 -0.5159050883291522 0.5552232245470734
0.06387478474232909 0.5370049826714697 0.5785601026366175
-0.1305315603801388 -0.5642906885695067 0.5577700841419181
0.138074251029622 0.5968978993303957 0.5907373255368877
0.16287307328464098 0.4921970364130373 0.4136608452864166
-0.2018976654703249 -0.6101280622950991 0.5155552446768207
-0.207232659610247 -0.5027298532203037 0.3268086002746146
0.17654847663390938 0.4282924801108131 0.27684685382975444
0.1860243562988422 0.3951742008609566 0.16570192621408333
-0.21189937345345902 -0.4501408699024754 0.18981098245308392
0.19056361939389393 0.378664145376248 0.06476386852665497
-0.21729696093919648 -0.43178529180231384 0.07430637089410896
0.19322614595120274 0.38040031118931417 -0.0326389838227843
-0.2224336268031304 -0.43790047376014907 -0.037817284140822194
-0.2270411536624001 -0.46852457842952727 -0.15976178609184888
0.1948701892075118 0.40213622849490965 -0.1362764945193527
0.1498400408743395 0.34490239922966376 -0.19593696176848163
-0.17583968322955373 -0.40474847892305793 -0.23198936273388227
0.10142243276504682 0.2815030732763658 -0.21283914113715136
-0.11310515255302028 -0.31392905079319416 -0.23970919882224023
0.055981076261236655 0.25866152114617635 -0.2242443632251267
-0.06013224803870906 -0.27784208140353145 -0.24300244684091676
0.055981076261236655 0.25866152114617635 -0.2242443632251267
-0.06013224803870906 -0.27784208140353145 -0.24300244684091676
0.08523451999893467 0.29100885416272537 -0.2121320343559648
-0.09534003029137936 -0.32551122445789427 -0.23970919882224023
0.12567297719589282 0.3558375721134003 -0.19489196463904973
-0.14790211124830346 -0.41877839891552154 -0.23146686416916631
-0.21468325218818435 -0.5449636379824114 -0.17984789072622057
0.18351382195727117 0.465841461849227 -0.15296341221559998
-0.20999346925676227 -0.508536730514081 -0.04252482988449301
0.18263513202443546 0.44228362551195016 -0.036797315896360185
-0.20470069675286737 -0.5003513537784835 0.08337956986644228
0.18057410332778473 0.4413785516639986 0.07321132963882736
-0.19983274256237174 -0.5221881212033469 0.21315467182735434
0.17549394576451874 0.45858778019188867 0.18636683156179812
0.16584280550841768 0.4948968353745933 0.30976282795813287
-0.19576766806321672 -0.5841965775731714 0.3673657826827952
-0.18866012806347587 -0.701312200446143 0.572585692096823
0.1522436610256745 0.5659401274336456 0.46004560918801846
-0.11054452852759107 -0.5878495258613571 0.5604431037144832
0.11690314804252469 0.6216631529740992 0.5934103451094528
-0.0516384919582289 -0.5340279436990759 0.5542508546266757
0.05401854170484971 0.5586416189612675 0.5805048424774129
0.036737609507048505 0.08869243512108359 0.649
-0.0367376095070482 -0.0886924351210837 0.644
-0.02966563145999448 -0.0913014255643349 0.645
0.029665631459994818 0.09130142556433479 0.65
-0.02966563145999448 -0.0913014255643349 0.644
0.029665631459994818 0.09130142556433479 0.65
-0.041626963822755214 -0.5487991671531531 0.553278484706278
0.04354876764432808 0.5741357336440799 0.5795324725570152
-0.08912605992832583 -0.604201646360605 0.5595520971902949
0.09412162673816767 0.6380674954000154 0.5916283320610761
0.14279251332983608 0.6766825593472056 0.5360862057480215
-0.15194496416425726 -0.7200553084536728 0.5710648801656228
0.15338921083309548 0.5835272339687491 0.35619786288923816
-0.1835755975068554 -0.6983630729666965 0.4279076636689198
-0.18617239056715182 -0.620188759856626 0.24683081387548214
0.16249050481938654 0.5412982256145119 0.2146854055568147
-0.18967721876582855 -0.5910431758473909 0.09605076153470085
0.1719083398349492 0.535674509526309 0.08682112809732732
-0.2109510190764035 -0.6512480589845991 -0.053195266903480184
0.17078330055424087 0.5272422644834356 -0.042838666267404395
0.16408475652136942 0.5309894261746564 -0.16995934690622222
-0.20619473977040195 -0.6672601944999124 -0.2147668110905899
-0.11968851866858994 -0.43202677858164096 -0.23198936273388227
0.10199138328791361 0.36814733154956913 -0.19593696176848163
0.06903504666558065 0.30047516480361924 -0.21283914113715136
-0.07719736852719734 -0.336001685390047 -0.2404163056034268
0.03403514106034073 0.2713243151408536 -0.2233917230607726
-0.0366820022390665 -0.29242479465165105 -0.24300244684091676
0.03403514106034073 0.2713243151408536 -0.2233917230607726
-0.0367976161058659 -0.29334645538972526 -0.24385508700527087
0.051837750732732266 0.3053566688283428 -0.21142492757477824
-0.058159528683673106 -0.3425958821214668 -0.23970919882224023
-0.09002904165274314 -0.43980797782581044 -0.23094436560445036
0.07666329766887066 0.3745139268643582 -0.19489196463904973
-0.14368228012254464 -0.6292788684019499 -0.19777087639996765
0.1233009337983521 0.5400155957112711 -0.16903229592309738
-0.14072211131725557 -0.5879622693703965 -0.04684008014952458
0.13704700319896335 0.572607007221563 -0.04558473461787903
-0.13828125908790698 -0.5831625959456219 0.09260920330381579
0.1294129361229024 0.5457629202696173 0.08650825916724686
-0.13552534456347584 -0.6110143873598427 0.23764641149871998
0.12211494315107928 0.5505537537444949 0.21353735525971942
0.1166233231367559 0.6004461024011283 0.35854900389840805
-0.13287903460849618 -0.6841401554639038 0.40968632084785317
-0.11538764686962594 -0.7400501706227074 0.574106504028023
0.10892356379948395 0.6985921297599439 0.5414090475072216
-0.06753937979706155 -0.619664427564341 0.5613341102386715
0.0716282156046877 0.6571789281083162 0.596083364682018
-0.03155436421586322 -0.5630156189129308 0.5552232245470734
0.031715603233691374 0.5658925612209474 0.5581403343082664
0.02241075493016678 0.093347512358177 0.65
-0.02241075493016648 -0.09334751235817706 0.644
0.015017708643862022 0.09481808069713325 0.651
-0.015017708643861677 -0.09481808069713331 0.645
-0.015017708643861677 -0.09481808069713331 0.645
0.015017708643862022 0.09481808069713325 0.65
-0.021108935432728574 -0.5709112010630343 0.5542508546266757
0.02125299617581248 0.5748074606409692 0.5581403343082664
-0.045258927284688895 -0.6294264326240692 0.5613341102386715
0.04792860532233646 0.6665542662759969 0.5951923581578296
-0.07742339559099669 -0.7526885059410183 0.574866909993623
0.07087714117936497 0.689047659204827 0.5254405222296211
0.07577620456750273 0.5913746308061684 0.3473810841048511
-0.08678760834173986 -0.6773101151553148 0.3991061863065887
-0.08896078932477101 -0.6079540660666352 0.23267152687797385
0.07926806435857277 0.5417144160006466 0.20664905347714785
0.08383022227384417 0.5358807744334728 0.0835360043314825
-0.09083417753804451 -0.580653230825364 0.09073198972333305
-0.09245231740824363 -0.58552594013557 -0.045898571000790415
0.08891465631954201 0.5631209600018913 -0.04409401179904995
-0.09437089442966241 -0.6264973399978546 -0.1937536554730933
0.0835047686249533 0.5543607034440127 -0.17088639788934706
-0.06045986236836953 -0.447701813219795 -0.23146686416916631
0.05150215461140878 0.38137050104031195 -0.19541446320376568
0.034737082248372284 0.3101671649832387 -0.21142492757477824
-0.0390798217181952 -0.34894345540351973 -0.2404163056034268
0.011438935202894955 0.2781738792542692 -0.2233917230607726
-0.012367380687793732 -0.3007519669547024 -0.24385508700527087
0.011477436047290856 0.2791101490250309 -0.2242443632251267
-0.012367380687793732 -0.3007519669547024 -0.24385508700527087
0.017369433315918382 0.3121163333960076 -0.21071782079359175
-0.019493572467124305 -0.3502855995683207 -0.2390020920410537
0.025765913322343088 0.3839685057954531 -0.19489196463904973
-0.030258031603825074 -0.4509109006882366 -0.23094436560445036
-0.046298991189166576 -0.6185588879823891 -0.189427417551844
0.04136695130087066 0.5526663700153037 -0.1687232789287224
-0.04536599486166424 -0.5782120535652144 -0.04487860275632841
0.0435157831658862 0.5546301899378573 -0.04299558445886009
0.04097738449707043 0.5271572170822715 0.08134592182091929
-0.04456394258747253 -0.5732968134729669 0.08869834167781007
0.038615238246049996 0.5310791134822455 0.2005261185593064
-0.04361582782598458 -0.5998527065410104 0.2273139588248626
0.036502391906228414 0.5732968134729668 0.3332742380498318
-0.042334179137483566 -0.6648893054148816 0.3879382665130317
0.034135548125126466 0.6678490517826573 0.5041491551928202
-0.038831402048688124 -0.759721652704893 0.574866909993623
-0.022699438435485837 -0.6353078144211416 0.5613341102386715
0.024249968818712043 0.678703780879082 0.6005383973029598
-0.010605166201423237 -0.577228910399897 0.5552232245470734
0.010713556164485187 0.5831284709619843 0.5610574440694595
-0.007532073189872665 -0.09570406403838032 0.644
0.007532073189872951 0.09570406403838029 0.65
-1.6465195194651677e-16 0.096 0.651
4.939558558395502e-16 -0.096 0.644
-1.6465195194651677e-16 0.096 0.651
4.939558558395502e-16 -0.096 0.644
6.954903139268682e-16 -0.5790138167608784 0.5552232245470734
-2.341995212079024e-16 0.5849316199351853 0.5610574440694595
1.484018274442334e-15 -0.6352952069707436 0.5595520971902949
-5.277944896426468e-16 0.6778325751983303 0.5978653777303947
-7.329807010022162e-16 0.6580402723238146 0.49502428360561984
2.5465762146601867e-15 -0.7620708628467565 0.574866909993623
-7.842687988200495e-16 0.5652123494758409 0.3273963855269071
2.7103969135328337e-15 -0.6511159650937766 0.37853370247635215
-8.269944411789995e-16 0.5219051637989416 0.19631660080329044
2.7852818744490826e-15 -0.5859180830116102 0.22119102390702122
-8.741231441215516e-16 0.5160087208565375 0.0793122737753963
2.8423791301349015e-15 -0.559300455926866 0.08619539023716641
2.8942086948100245e-15 -0.5642269047112164 -0.04362325722468287
-9.276903673608903e-16 0.5425605956941584 -0.04189715711867023
2.949311621787525e-15 -0.6026947817925753 -0.1838651116530949
-9.074993747662607e-16 0.5563452165697123 -0.16934131291747231
-5.646620591274846e-16 0.38612433230761306 -0.19541446320376568
1.992907002597892e-15 -0.4542598375379448 -0.23198936273388227
1.2713966994246724e-15 -0.3494452746854649 -0.2375878784786806
-0.005394512313711374 0.13118462430053568 -0.07673761479186844
-0.005394512313711374 0.13118462430053568 -0.07673761479186844
0.005802171426209733 -0.1410981446348636 -0.08867457709282575
-0.02576591332234428 0.383968505795453 -0.19489196463904973
0.030388791279062688 -0.4528595060603717 -0.23198936273388227
0.04408873705762749 -0.589029684372301 -0.1801569077205955
-0.040999543637027576 0.5477577689821707 -0.16717819395684766
-0.0419757717424535 0.5350019822820283 -0.04142640254430315
0.04328467019808755 -0.5516845407985416 -0.04276020717167655
-0.03945428049462765 0.5075631098177393 0.0782172325201147
0.04250242322215089 -0.5467762137586394 0.08447461112172389
-0.03711895074588092 0.5105005264995129 0.19248976647963956
0.041613457208141774 -0.5723139094005232 0.21659882271864014
-0.035126316497111565 0.5516845407985417 0.3203429624993974
0.040450695482864986 -0.6353078144211411 0.37030470894425754
0.038831402048692766 -0.7597216527048924 0.574866909993623
-0.03257302947168275 0.6372789669763145 0.4805765702592193
0.022664225865053636 -0.6343222913110989 0.5604431037144832
-0.024391032205106675 0.6826518376541075 0.6041024233997132
0.01064129275771137 -0.5791952438194677 0.5571679643878688
-0.010785833066957705 0.5870624326622169 0.56494692375105
-0.0075320731898733 0.09570406403838028 0.652
0.007532073189873565 -0.09570406403838025 0.644
-0.015017708643862348 0.0948180806971332 0.652
0.015017708643862733 -0.09481808069713313 0.644
-0.015017708643862348 0.0948180806971332 0.652
0.015017708643862733 -0.09481808069713313 0.644
0.021216978406982064 -0.5738333258851591 0.5571679643878688
-0.02146913834494045 0.5806532308253634 0.5639745538306523
0.04504831078797569 -0.6264973399978535 0.5586610906661065
-0.04842073969438148 0.6733984934981496 0.6014294038271482
-0.06474435480791577 0.6294264326240685 0.4790557583280192
0.07712104499960858 -0.7497491384130337 0.572585692096823
-0.0695375659179728 0.5426868844462512 0.31799182149022753
0.07965123374889432 -0.6216162345468902 0.3656024269259177
-0.07329935519497392 0.5009245238164325 0.19057634931781411
0.08183064974916139 -0.559227010253394 0.21353735525971942
-0.07805845124944402 0.49898499815477637 0.07759149465995378
0.08352609888821401 -0.533936679917242 0.08322313540140204
-0.08307907701163612 0.526162632116931 -0.041112566161391764
0.08507404975374869 -0.5387973428858444 -0.04213253440585377
0.08658471588358356 -0.5748074606409684 -0.177375754771221
-0.08247886159106707 0.5475500439530719 -0.1687232789287224
0.06072060185463965 -0.44963257416112723 -0.23251186129859822
-0.051502154611409896 0.3813705010403118 -0.19541446320376568
0.038973379493793425 -0.3479930335246174 -0.23970919882224023
0.017900409210344678 -0.14270004819803805 -0.09464305824330442
-0.0170851917267012 0.13620122614091207 -0.08696929676411758
0.017900409210344678 -0.14270004819803805 -0.09464305824330442
-0.0170851917267012 0.13620122614091207 -0.08696929676411758
0.05800072095177926 -0.3416604055756939 -0.2390020920410537
-0.024728134739042004 0.14566412978031193 -0.08131727983645318
0.09041810094127822 -0.4417086020666323 -0.23198936273388227
-0.07647055087823545 0.37357232430294063 -0.19436946607433378
0.1278957009034966 -0.5601390920952878 -0.1755216528049713
-0.1217704875807227 0.5333127687296862 -0.16686917696247272
0.12558071005102947 -0.5246987739139453 -0.041661779831486695
-0.12397795688313543 0.5180021831577859 -0.041112566161391764
-0.11625937248752624 0.49029143869548364 0.07743506019491356
0.12351067957393569 -0.5208718014460132 0.0824409630762009
-0.10874852956056054 0.49029143869548364 0.18942829902071884
0.12105231783347857 -0.5457629202696163 0.21162393809789398
0.11774284504562296 -0.6062100658061277 0.3620757154121629
-0.10284046581158546 0.5294837705256606 0.3150528952287651
-0.09496890719849214 0.6090925491833973 0.47069129270641885
0.11403417944395852 -0.731369572426325 0.5672628503376227
0.06722507920673501 -0.6167807633083926 0.5586610906661065
-0.07267744526895212 0.6668054645266671 0.6049934299239016
0.03166185432901221 -0.5649335346778244 0.5571679643878688
-0.032199456506366936 0.5745258186656103 0.5668916635918454
0.02241075493016744 -0.09334751235817683 0.644
-0.022410754930167098 0.09334751235817691 0.652
0.029665631459995505 -0.09130142556433457 0.643
-0.029665631459995147 0.09130142556433468 0.652
0.029665631459995505 -0.09130142556433457 0.643
-0.029665631459995147 0.09130142556433468 0.653
0.04191152439046915 -0.5525507403697372 0.5571679643878688
-0.04255198233956103 0.5609943729766004 0.5659192936714477
0.08871004333816772 -0.6013813948102612 0.5568790776177297
-0.09592699442478404 0.6503064087932063 0.6032114168755249
0.15114871592666324 -0.7162819502941302 0.5680232563032228
-0.12710094513743642 0.6023214442089188 0.4760141344656191
-0.13711673858431828 0.5216230708950158 0.31740403623793506
0.15561189703875772 -0.5919828347670316 0.3614879301598704
0.15995845578100423 -0.5328633102748684 0.2112412546655289
-0.14451351380480154 0.4814121827414218 0.190193665885449
-0.15419484436797878 0.4804784206956156 0.07759149465995378
0.1628934201864392 -0.5075835939501752 0.08212809414612043
0.16593093173738463 -0.5122620297953384 -0.04158332073575884
-0.16441550179389905 0.5075835939501757 -0.04119102525711961
0.1687189420048428 -0.5459859654195052 -0.1749036188162214
-0.16176913760212455 0.5234959259419889 -0.16748721095122263
0.11968851866859408 -0.4320267785816394 -0.23198936273388227
-0.10148096939346155 0.366304945387413 -0.19489196463904973
0.07677688759397217 -0.3341715413717408 -0.2390020920410537
-0.031411239275304564 0.1367174754535027 -0.07566042558696078
-0.02800749479276598 0.12940910912080342 -0.08696929676411758
0.028743686480264014 -0.1328106954149775 -0.09123249758588804
-0.0278622270952106 0.12873789723756393 -0.08611665659976349
0.028743686480264014 -0.1328106954149775 -0.09123249758588804
0.09507969919324213 -0.3246223984919172 -0.2390020920410537
-0.08240454846836928 0.2813467269819365 -0.2043538597629128
0.14790211124830716 -0.41877839891551977 -0.23146686416916631
-0.12535701031525115 0.3549429256254687 -0.19436946607433378
0.21001634896527363 -0.5331169171387973 -0.17583066979934625
-0.19782508838917268 0.5021699585501576 -0.16532409199059797
0.20661342696140733 -0.5003513537784814 -0.041818698022942385
-0.20586254688200148 0.4985329634164397 -0.041661779831486695
0.2028410413757922 -0.4958057850518303 0.08259739754124112
-0.19318028400295326 0.4721919278119593 0.07853010145019516
0.19878757506444192 -0.5194569669135565 0.2120066215302591
-0.18070002767017046 0.4721919278119593 0.19210708304727445
-0.16980394318535774 0.506717393371005 0.31740403623793506
0.19362588727043903 -0.5778052208111757 0.3632512859167478
-0.15715483214050338 0.5841965775731698 0.47525372850001907
0.18816706354478835 -0.6994793162744002 0.5710648801656228
0.1102010493030288 -0.5860229849914158 0.5586610906661065
-0.11931105630411035 0.6344678367403952 0.60588443644809
0.05190279596706261 -0.5367612870055043 0.5571679643878688
-0.052960384197624506 0.5476985093493411 0.5688364034326407
-0.0367376095070488 0.08869243512108345 0.653
0.036737609507049115 -0.08869243512108332 0.644
0.043583087974997006 -0.08553662632208306 0.644
-0.04358308797499667 0.08553662632208323 0.654
0.043583087974997006 -0.08553662632208306 0.643
-0.04358308797499667 0.08553662632208323 0.653
0.061574069547088155 -0.5176625218156418 0.5571679643878688
-0.06272414199900007 0.5273313549804278 0.5678640335122431
0.13012412394088319 -0.5625293322493314 0.5559880710935413
-0.14113464853546162 0.6101280622950969 0.6041024233997132
0.22410646879770738 -0.6772423308452556 0.573346098062423
-0.1902275965613684 0.574861500328237 0.48513900605281945
-0.20614695278993994 0.5000960153327735 0.3250452445177372
0.23224590860279765 -0.5634099941702627 0.3673657826827952
0.23789516539772787 -0.5053641025571209 0.21392003869208454
-0.21849174140308375 0.46414513143093755 0.19593391737092536
0.24284346735766227 -0.4825481081838582 0.08337956986644228
-0.2322600954632079 0.46151815773288524 0.07962514270547677
0.24734004901743362 -0.486933231280053 -0.04221099350158162
-0.24912246516846354 0.49044223703692796 -0.04252482988449301
0.2512786323888702 -0.5185413014743566 -0.177375754771221
-0.2359617567064619 0.486933231280054 -0.16625114297372282
0.17583968322955756 -0.4047484789230556 -0.23198936273388227
-0.14909016930340788 0.34317634187930735 -0.19489196463904973
-0.10142243276504752 0.2815030732763653 -0.21283914113715136
0.11279631282977759 -0.31307185057748926 -0.2390020920410537
0.08210183832415044 -0.2564179740062536 -0.24300244684091676
-0.037844406488884354 0.11819450377025795 -0.08526401643540939
0.08210183832415044 -0.2564179740062536 -0.24300244684091676
-0.037844406488884354 0.11819450377025795 -0.08526401643540939
0.12946213393255246 -0.2987710021994429 -0.23829498525986714
-0.11567178914446881 0.26694582669941663 -0.21071782079359175
-0.17072542970948884 0.3267481314562104 -0.19384696750961783
0.20193882020994558 -0.38648684196812183 -0.23146686416916631
0.2940993999390209 -0.5046246923827484 -0.18046592471497047
-0.26961228467052295 0.46260895548472064 -0.165015074996223
0.28876738509977223 -0.4726826674767922 -0.042838666267404395
-0.2938989539861143 0.4810825207659715 -0.04362325722468287
0.284061260252577 -0.4693240040798493 0.08478748005180434
-0.2749192200882636 0.45421959001241025 0.08197165968108021
0.2785528240308164 -0.4920088386562643 0.21774687301573542
-0.25668347759695714 0.4533809346724104 0.20014343512694133
-0.24142083028127717 0.4869650352733462 0.3309230970406619
0.27188910519529064 -0.5484219714910423 0.3738314204580124
0.2572513562941709 -0.6463889773233709 0.571825286131223
-0.22094687428782697 0.5551676234911301 0.48970144184641967
0.14976011179316973 -0.5383070598051736 0.5559880710935413
-0.1633716672933631 0.5872332814335606 0.6076664494964668
0.07098601957644018 -0.4962131348210078 0.5581403343082664
-0.07230970141311073 0.5054660597997478 0.5688364034326407
-0.0501598622127313 0.08185345577799272 0.654
0.05015986221273155 -0.08185345577799258 0.643
0.05642738422007789 -0.07766563145999461 0.643
-0.05642738422007763 0.0776656314599948 0.654
0.05642738422007789 -0.07766563145999461 0.644
-0.05642738422007763 0.0776656314599948 0.654
0.07958513041252066 -0.46922985673746753 0.556195594467471
-0.0813448666818918 0.47960517174032025 0.5688364034326407
0.16820903772947846 -0.5099663506692912 0.555097064569353
-0.1832566382546913 0.5555867883684479 0.60588443644809
0.28825920315736275 -0.6109106904783599 0.5695440682344228
-0.2579973322290044 0.5467763965459752 0.5087115909864204
-0.28049718648830163 0.4772103168534904 0.34209101683421883
0.31479862941090725 -0.5355674171529978 0.38499934025156934
-0.299445125310906 0.4461088725830371 0.2077971037742431
0.321929106498117 -0.4796051717403191 0.2238698079335768
0.3281332610611269 -0.4572663961565452 0.08713399702740779
-0.318411744679411 0.44371908691191814 0.08447461112172389
0.33293186111659917 -0.45965836773420077 -0.043937093607594256
-0.34217630137665345 0.4724215929368071 -0.0451924391392398
0.33967631651323843 -0.4915841833272997 -0.18541019662496966
-0.30495132808368053 0.4413297079684685 -0.16594212597934788
-0.19254296293779574 0.31081417951063744 -0.19436946607433378
0.22815096578174388 -0.3682947127853291 -0.23251186129859822
-0.13131246196808205 0.2555994418299105 -0.21283914113715136
0.146038318494214 -0.28426329179611776 -0.2390020920410537
0.10204980886967031 -0.22868000508647726 -0.24300244684091676
-0.04583042023897797 0.10269985656464853 -0.08100081561363892
0.10204980886967031 -0.22868000508647726 -0.24300244684091676
-0.04559237123863818 0.10216642051796215 -0.08014817544928482
-0.1446506119210774 0.2395170159753071 -0.2121320343559648
0.16047544563344274 -0.2657202715215677 -0.2375878784786806
-0.21166989286013219 0.2906661128286351 -0.19332446894490188
0.25208560247760614 -0.3461651592588429 -0.23251186129859822
0.3875137467715176 -0.47706975820694775 -0.19159053651246866
-0.33147210437683605 0.40807666309872775 -0.16316097302997332
0.3806277810045682 -0.4470359348359707 -0.04550627552215118
-0.39596604253443607 0.4650502638575349 -0.04738929381961951
0.37457297313388477 -0.44403541587524004 0.09010625186317214
-0.36761483251491733 0.43578692736948693 0.08838547274772962
-0.34268236442316513 0.4342876788369353 0.21545077242154487
0.36754871123351895 -0.46580125863728467 0.23152347658087857
-0.32237166700802633 0.46655228390466763 0.35619786288923816
0.359784274304926 -0.5206976669130365 0.3985184010542962
0.3184996155885351 -0.5742031832687098 0.5695440682344228
-0.29341563094034817 0.5289808246563252 0.5239197102984211
0.18585534570464202 -0.4793242391697953 0.555097064569353
-0.20335742732230602 0.5244624186688502 0.6085574560206551
0.08793416884981015 -0.44103546004801586 0.556195594467471
-0.09002812669734513 0.4515377445943828 0.5698087733530385
0.06234701263969804 -0.07299897269760262 0.643
-0.06234701263969782 0.0729989726976028 0.654
-0.06788225099390874 0.06788225099390839 0.655
0.06788225099390897 -0.06788225099390816 0.642
-0.06788225099390874 0.06788225099390839 0.654
0.06788225099390897 -0.06788225099390816 0.643
0.0955782738390123 -0.4094245962323197 0.5552232245470734
-0.09785802998823868 0.41919029091809734 0.5688364034326407
0.2014040218898621 -0.4436304768610895 0.5524240449967879
-0.22077595811504497 0.48630083281853304 0.6067754429722784
0.34586538586839016 -0.5325528142822987 0.5680232563032228
-0.33584722504563774 0.5171271603774052 0.5512943250600221
0.41099337337011344 -0.5080157477874055 0.4185030996322402
-0.3662555839435306 0.45271679889308164 0.37206806470113496
0.41825578452135037 -0.4527167988930801 0.24223861268710106
-0.3911497985858607 0.423377491135274 0.22616590852776733
-0.41885439229553406 0.42407546498235316 0.09260920330381579
0.4123340961201643 -0.41360911498659936 -0.04527089823496765
0.39801005032967074 -0.41849253278881554 -0.18046592471497047
-0.36090057300452805 0.37947331922020455 -0.16316097302997332
-0.2304621855424139 0.2702924342263387 -0.19332446894490188
0.2756448640044203 -0.3232839309337826 -0.23355685842803012
-0.1579691425563866 0.22340210383969022 -0.21283914113715136
0.1756843760839313 -0.2484552273549487 -0.2390020920410537
0.11948497443692084 -0.1953111754960472 -0.24300244684091676
0.11948497443692084 -0.1953111754960472 -0.24300244684091676
-0.1693641062057067 0.2045668571843541 -0.2121320343559648
0.18789260589163248 -0.22694655164267863 -0.2375878784786806
0.2964219896523286 -0.2969227895808635 -0.23355685842803012
0.39166212344592377 -0.351725737778295 -0.16470605800184807
-0.3881039695880286 0.34853039614100506 -0.16316097302997332
0.40309009778108257 -0.3453360227243872 -0.04103410706566392
-0.424731191043862 0.3638764163384107 -0.04330942084177148
-0.41192287357842966 0.3562007930679381 0.08447461112172389
0.4141414109592201 -0.3581192220389314 0.08494391451684456
-0.3949981765135684 0.36515617186205407 0.2120066215302591
0.4102352324372758 -0.37924207236077984 0.22042565704229103
0.40420551263522586 -0.4267204813989405 0.382060413990107
-0.3798793395444282 0.4010392970325458 0.35854900389840805
0.3704660842536977 -0.4871951313024761 0.5657420384064227
-0.358714481674073 0.4717407515221312 0.5474922952320219
0.21658513793899928 -0.40745606610327956 0.5524240449967879
-0.23844281711099924 0.4485763574322236 0.6094484625448434
0.10295768344426681 -0.3766798680315041 0.556195594467471
-0.1055845750933828 0.38629058543131733 0.5707811432734361
0.07299897269760332 -0.062347012639697226 0.643
-0.07299897269760316 0.062347012639697406 0.654
0.07766563145999529 -0.056427384220076954 0.642
-0.07766563145999512 0.05642738422007719 0.657
0.07766563145999529 -0.056427384220076954 0.642
-0.07766563145999512 0.05642738422007719 0.657
0.1093532828224761 -0.3403357823656179 0.5552232245470734
-0.1115888835529286 0.34729355175321924 0.5668916635918454
0.23006798065208212 -0.3681887008030914 0.5515330384725995
-0.25186744923591536 0.40307542425470305 0.6049934299239016
-0.3519826259701705 0.39376567154809006 0.5041491551928202
0.3847713436184438 -0.43044666223160827 0.5520547310256221
-0.3738068727515894 0.33569948740637506 0.3309230970406619
0.3957612152082732 -0.3554157153472927 0.3509077956186059
-0.3871514576905266 0.30445744157450244 0.19478586707383008
0.4011153060163459 -0.31543866727147757 0.20205685228876677
0.404471869666412 -0.297529091532472 0.07774792912499401
-0.40368734344536694 0.2969519948507603 0.07759149465995378
0.39479777726214876 -0.28772433323917 -0.0376603659493665
-0.4169654045073694 0.30387985927292266 -0.03985722062974621
0.38493889231998124 -0.29406714654899047 -0.15172734423810016
-0.41897210350816055 0.32006620640415473 -0.1656331089849729
0.31604603052405295 -0.2693057301106019 -0.23407935699274607
-0.1807360985854265 0.18570386462386196 -0.21283914113715136
0.2010045012714464 -0.20652937064067617 -0.2390020920410537
0.13397802338563933 -0.1571331365642757 -0.24300244684091676
0.1335559041160428 -0.15663806339361838 -0.2421498066765627
-0.18990729410830876 0.16457958345104748 -0.2121320343559648
0.21184290588655838 -0.1835896686937396 -0.2390020920410537
0.33379850531455163 -0.2399042359113377 -0.23460185555746202
-0.2778948257695274 0.19972571709729273 -0.19332446894490188
0.3770866285934647 -0.24297082164924474 -0.140602732440602
-0.42321758631049083 0.27269469900278787 -0.15852571811434907
0.38529543201779964 -0.23683944136377671 -0.034757379407436166
-0.40941987969902915 0.2516686353724118 -0.03703269318354373
-0.39490748549367555 0.2450161740362988 0.0718034194534653
0.3924349066967321 -0.24348208866419255 0.07133411605834461
0.39023752622069197 -0.2588409583874966 0.18598414812943304
-0.37788055163327977 0.2506446909091965 0.17986121321159163
0.3844466152532678 -0.29120425215164497 0.3226941035085673
-0.361366531919153 0.2737219330460911 0.3027094049306232
0.3742504373777611 -0.35313211514988535 0.5087115909864204
-0.3392074210177965 0.320066517217305 0.46004560918801846
0.242473523052954 -0.32729311762065155 0.5515330384725995
-0.26659833090171725 0.35985701768448325 0.6076664494964668
0.11505345814986209 -0.3020186336875738 0.5542508546266757
-0.11819513037429161 0.3102656135521926 0.5698087733530385
-0.08185345577799301 0.05015986221273085 0.657
0.08185345577799318 -0.05015986221273056 0.642
0.08553662632208361 -0.0435830879749959 0.642
-0.08553662632208345 0.043583087974996236 0.657
0.08553662632208361 -0.0435830879749959 0.642
-0.08553662632208345 0.043583087974996236 0.657
0.12002542586128954 -0.26197140115612383 0.553278484706278
-0.12310306003603404 0.2686887456789073 0.5678640335122431
0.25218501473067945 -0.28303385877044424 0.5488600189000344
-0.27659183615822747 0.31042627483584034 0.6032114168755249
-0.3333417165173466 0.26152374832820074 0.43191058846081737
0.3670494726354931 -0.28796921941969805 0.47677454043121914
0.37691837885760765 -0.23738624496820293 0.30212161967833073
-0.35639003686258997 0.22445732906765864 0.28507584736184904
0.3827941133505961 -0.21111339282364455 0.1741209617261153
-0.37072112688460157 0.20445506385395396 0.16838071024063897
-0.3885907899147109 0.20046495312618798 0.06742325443233887
0.3842970476164446 -0.1982499113112558 0.06664108210713772
-0.4026326204418225 0.20578593627569158 -0.034757379407436166
0.3774968501888238 -0.19293901888025378 -0.032482065631328605
0.36921744790996364 -0.19780705235094942 -0.1313322226093535
-0.41729920592728253 0.22356669854074043 -0.1492552082831006
0.3503044575738334 -0.20933688520340707 -0.23564685268689392
-0.2911347168938424 0.17397790262571214 -0.19384696750961783
0.22198136062732332 -0.15995484071475904 -0.23970919882224023
-0.1984525772013617 0.14300052169231675 -0.2121320343559648
-0.13560383532985115 0.10750067367930033 -0.2250970033894808
0.14471470078157064 -0.1147233615293803 -0.2421498066765627
-0.13515027354612066 0.10714111012280053 -0.2242443632251267
0.14471470078157064 -0.1147233615293803 -0.2421498066765627
-0.20515222972239014 0.12017539382029464 -0.21142492757477824
0.22954269929867688 -0.1344630001054337 -0.2390020920410537
0.3539884422856819 -0.17196798819479503 -0.2293768699103025
-0.3011133564341855 0.14628121130231628 -0.19332446894490188
0.3614451352365298 -0.15742016852159646 -0.12360679774997979
-0.41117234536185476 0.17907785605117246 -0.14152978342372685
-0.39591180286261013 0.16449913418114476 -0.032874361109967845
0.36903033262934265 -0.15333003402571488 -0.030520588238132435
-0.38069290420811547 0.15965376682201754 0.06351239280633314
0.3753669100850393 -0.15742016852159646 0.06257378601609176
-0.3635786788889507 0.1630074208659392 0.15881362443151176
